ply
format ascii 1.0
element vertex 685
property float x
property float y
property float z
property uchar diffuse_red
property uchar diffuse_green
property uchar diffuse_blue
end_header
0.4824590349685562 -0.18135395568439874 -2.1847629586334523 108 85 44
0.1383922277262808 -0.3609275032031804 -1.9382738716875603 92 71 40
0.023990475673769125 0.4222452509228852 -1.9946112011379193 98 75 41
0.5142183472304234 -0.11301750126616797 -2.207347450131099 117 94 53
-0.11671141889122336 0.07920216960034007 -0.9153072200376231 151 125 96
0.5436559067194654 0.10978994372880356 -2.2792603580622792 176 177 179
-0.26018732666640854 -0.3411419627086571 -2.103323866326858 75 51 23
0.3555204261367852 0.12848757450092846 -1.8739938429065202 79 58 34
0.1704152575329202 0.3490472772085569 -1.9256324713790636 90 70 37
-0.0753622099515138 0.3978747164419185 -2.0485430362128256 88 67 36
0.3133658933551421 0.14114589659216542 -1.7699765374266967 115 95 64
-0.04453702688170493 0.39588238101928924 -1.6197138765322832 175 153 122
0.18143085196111183 0.13216701169991157 -1.1482096600350022 74 56 32
-0.33790787701469804 0.39901806375399357 -2.2460139995013186 126 97 56
0.06819021917388188 -0.4463135410750193 -2.12214916916192 106 84 52
-0.14976135218006761 -0.009360798201112012 -1.0754394985515938 90 79 50
-0.0337263285767365 0.058255669775884894 -0.8994069837306151 133 113 81
-0.1270067618073315 0.02130991870887911 -1.27166613528352 121 116 110
-0.07977727144062989 0.10125541336945383 -1.1727070314649337 180 153 107
0.5173812490933769 -0.15582934737730436 -2.2268961275046832 104 81 40
0.23908441882515538 0.29540041492478686 -1.8999573769422433 95 75 42
0.15167067426050274 0.10534620401722586 -0.9300320177107462 136 116 90
0.251652212392408 -0.33113582764015603 -2.036153580704448 120 97 58
-0.12121697144904867 -0.27524223100678313 -1.7474153739982738 156 128 89
-0.3638975909072067 -0.28800662608863464 -2.160738404403586 101 78 37
0.2802634970202778 -0.15903219525450712 -1.6970819422371284 87 67 42
0.320978754937375 0.26125677625201393 -1.6068092167647015 104 88 65
-0.009814109329097463 0.01628183347896388 -1.0011685462733924 52 36 11
0.046664363482799336 0.42312247551838755 -2.051255379906978 81 61 28
-0.09184602918127507 0.3742877877128412 -1.8141509363732484 91 72 40
0.3260552108538089 0.3105394333190514 -2.068893658344657 79 55 26
-0.5350982192163489 -0.05507945611145434 -2.2491748593866223 97 80 36
-0.06840610830525061 0.5035224109252289 -2.205810100586569 93 73 36
-0.09014898483714291 0.5379099281912362 -2.2261798138097735 131 110 67
-0.36881775754132806 0.13697556443284753 -1.6244652807259226 116 93 59
-0.32462311717684117 -0.008964173774885339 -1.802977032683271 52 31 10
0.09358860996115184 -0.3239571276910151 -1.8063942897646057 80 54 27
0.33368364917245347 0.1291135850616678 -1.7693549487410842 45 28 13
0.3129883044218145 -0.21090544994687663 -1.9364265774221558 117 97 64
0.4120460983641722 0.38052176975286667 -2.262540050549965 150 145 139
-0.13709524543254592 -0.42473216609994663 -2.1633195230780884 138 109 67
-0.12488021096003953 -0.12394571231296724 -1.4283888574394223 162 124 75
0.3502394280606604 0.32737424103702895 -2.1453766469294364 77 54 22
-0.026969563636231 0.35183668423259384 -1.6856431990521243 116 93 60
-0.3888813563759513 -0.15118526866292067 -2.0844070923257028 112 92 58
-0.35924510399353404 -0.12951505379733985 -1.9815321621918798 76 55 35
0.08426371391445533 0.03593676584525558 -0.9503890964669317 83 62 31
0.216867942794667 -0.22104185009963223 -2.005937819910145 77 53 27
0.13397978980248373 0.5080597542677706 -2.2361460378369564 54 41 25
0.17205955539746925 0.03597519756195168 -1.168863472937846 70 50 23
0.11783375471512049 0.40267213219256354 -2.0397320274990904 69 45 15
-0.2608686794153665 -0.04160591302151925 -1.566497499179128 103 84 55
0.07791878589392166 0.12157876472443253 -1.1593999513451705 137 110 81
-0.21437472628856694 -0.22556907176478805 -1.7981455984096226 89 70 39
-0.031154117843515277 0.20239607310641536 -1.5339221150025586 121 98 63
-0.11393656630319465 -0.40852717865856975 -2.166215266531697 85 63 26
-0.24193360242028167 -0.32370233863392334 -2.045556828712607 105 81 44
-0.3286031783946694 0.22123956954791435 -1.616390660396196 122 99 64
-0.1580549768078605 0.013996942490342383 -1.224601668863085 60 44 27
-0.21086445846446406 -0.12452374220916074 -1.5411937615226845 66 43 23
-0.01563896420281508 0.1869907864090578 -1.2362001003176908 182 162 119
-0.3114174139272428 0.08780150883536919 -1.5914286609167334 130 114 91
-0.1454358683191196 0.031235159827764144 -1.3036811418454042 203 202 202
0.34317241615831817 -0.06648555977411583 -1.797566997769236 98 75 41
-0.14975710624340072 -0.01147857051213655 -1.1841933865203784 113 108 100
0.2981095443288062 -0.27612420924137066 -1.9925443904798115 123 100 68
-0.17899622018691105 0.3470113601217629 -1.6095882384329452 150 126 85
0.23949387506472722 -0.4668246158755318 -2.2210699696827496 104 82 41
-0.06776056484670546 -0.45142297735353376 -2.0498773615694144 107 86 55
0.12873347036981342 0.15271330837243227 -0.9964878261896842 80 60 33
0.016544674886543095 0.17808274366677035 -1.291292136447589 36 25 7
0.4336575294148502 0.2950448207668841 -2.213697140669871 82 59 27
-0.29240127909681124 -0.44533258362760775 -2.22117121840562 123 98 57
-0.28779232175029557 -0.13813811062110434 -1.603250179950706 108 87 57
0.27041044621650995 -0.29644477597677676 -1.9648804717537867 80 57 26
-0.27892441529886125 0.3543939824305692 -2.03157080914149 126 102 66
-0.19959494689536253 -0.334811390850671 -1.999920096121171 76 55 28
0.337776914325286 0.39748851244792105 -2.1371974338117856 80 60 27
0.1344963413569132 0.2946115855808908 -1.5909429496289378 60 39 7
0.1138025308873838 0.14187232236986774 -1.2411891471117014 67 50 22
0.23418637386732583 -0.35318174656212176 -1.9247524597638455 79 52 25
0.07653778031617314 0.4015916034984933 -1.6276180708064572 69 48 19
-0.25237527942681265 -0.16551046420584248 -1.7267209859939632 86 63 28
-0.26879098665429524 -0.13267655393813987 -1.7071267947475903 45 29 2
-0.3927711689166807 0.2297258458106585 -2.1249950100633557 92 67 27
0.025527772763196323 -0.3610512262415244 -1.625942355844347 70 50 17
0.09053015843526277 0.08249169121663659 -1.1375047746011373 70 63 55
-0.1897493227885282 -0.1259531712015508 -1.5241358043809725 97 77 50
0.3956693420519482 0.15237968613926356 -1.9994599213407804 53 35 20
0.1053315663672395 -0.11859593233155005 -1.3891414917444411 99 79 58
0.21808833889402424 -0.02251967149463989 -1.4497602414972166 179 149 99
0.44333400545399837 -0.24850170031309415 -2.1899690977032997 94 72 33
-0.40646236506104244 -0.014916525185599834 -2.0432321975713386 96 78 43
-0.15491073229339605 -0.2742175778451406 -1.797288942779895 53 34 12
0.3245758331050065 0.0833757713459432 -1.8980047637323747 118 98 63
-0.17835242933973774 0.040417820446845325 -1.1431612583614559 67 51 28
-0.28816097310723565 0.018794826736589568 -1.5794456844322853 83 66 40
0.06053936344886263 0.1568415872590357 -1.26206717456579 62 46 27
0.20108763032362054 0.4772961033005641 -2.210525428668746 117 107 98
-0.23852035838649827 -0.16312617514767208 -1.7251841800676255 73 52 29
-0.2773801589946743 0.009234817632411924 -1.5629715268629545 97 78 45
0.11572239542532696 -0.4029422304593414 -2.092238050292308 103 80 48
0.2125697884559741 -0.3287725464504743 -1.9890530102845756 77 50 23
0.2779561804925356 0.15251485235471227 -1.8126108577811675 78 61 35
-0.424105410567867 0.27433706730284463 -2.210098484543365 170 137 84
0.11217884242684775 0.10301579322431319 -1.289234777595096 20 13 4
0.017111129884057535 -0.4154365327905564 -2.110308255390548 126 101 60
0.20869617803159227 0.34599026058049953 -1.9468606665057473 121 107 95
-0.4728028420304889 0.2493695924232379 -2.233282329428331 95 79 56
-0.09188109063543136 0.09596846201764718 -0.9122513639417462 178 154 109
0.19234203260639787 0.37875550232859834 -1.8906771623358865 66 44 22
-0.5219425503935076 -0.03323813287348392 -2.2084427209076507 101 76 35
0.13618810862091155 0.15183351983542082 -1.0276552344795113 63 46 21
0.12853909201960678 0.49393761167687245 -2.211341455209516 40 26 13
-0.21552302581939412 0.3395426959958325 -1.6314153636279003 120 98 60
0.2363082749069894 -0.43547373212781043 -2.1776916474837287 89 67 28
-0.034050902263592635 -0.467186457021179 -2.1566731709948725 112 87 47
-0.17936105968658925 0.06412325124388503 -1.1532326435107827 71 55 32
-0.25225101847891235 0.21199278386686474 -1.7581293960895168 113 94 61
-0.2645152683415332 -0.04176031609009183 -1.5814581709942122 95 78 53
0.37218696769147186 0.08757046493458354 -1.620240579319428 112 96 71
-0.3939107522507333 0.23184435941518866 -2.123067358325093 93 70 30
-0.2715647811306233 0.3115097218627213 -1.932583783040606 84 64 31
0.1343761043921712 0.3823811600601214 -1.637627625432374 87 66 37
-0.3022494717740904 0.1429129965722945 -1.755736151863203 114 96 67
-0.21116696935896015 0.32571236498648504 -1.8898721660624647 108 87 58
-0.28781754139389415 0.28061754182601595 -1.649025683239778 122 110 98
0.04628950124425251 0.4811361895935714 -2.2114271909507446 94 72 31
-0.5053109999469149 0.012305369997237995 -2.198023510889231 97 72 32
0.06007022439352016 -0.3404166262489938 -1.851904109458676 98 79 49
-0.46495158417175736 -0.13986629130141384 -2.1664582779226786 124 100 64
-0.24861374923726476 0.23847722613764263 -1.6993891868376114 128 100 60
-0.1274164718956688 0.07022912401857494 -1.2912849133141744 27 17 8
-0.3640381868136757 0.04905534100966683 -1.8977498050330281 82 61 34
0.12505711688893575 0.33985522793193573 -1.8148365237721804 57 42 19
0.3436943707161175 -0.014201494305092977 -1.7516343130618113 120 97 60
0.35742357948249065 -0.10328092027180558 -1.6160504640334388 220 196 160
0.11258677083954727 -0.21485619714794282 -1.5123216513553999 74 48 20
0.03195124630208227 0.3515767015861127 -1.8054324630687042 109 92 66
0.29691489737419224 0.2660514796335039 -1.9885581087994406 79 59 34
0.3627796089914923 -0.3020184322651719 -2.137021793994025 98 74 38
-0.5001880341760694 0.11697813707491801 -2.1992910284742564 105 82 41
-0.011214502226029537 0.3332932130766533 -1.5790294744047972 67 51 27
0.2700493093931368 0.1179519133846798 -1.832173494348451 100 77 43
-0.4682275561791624 0.05441598376210119 -2.149290256016607 106 83 41
0.1716780361648553 0.28478043280910736 -1.608456778993196 149 117 74
-0.12680336351036497 0.3143353021745716 -1.5880293496883282 117 96 69
0.25083620106080323 -0.015270616393744718 -1.4697052370343315 116 95 62
0.16490249026261525 0.1353226537970336 -1.1896727595254262 81 62 33
-0.4049044088635014 0.13551494119848348 -2.061090303621934 74 51 20
-0.05639493280409689 0.20727741390503807 -1.4000794398717302 108 85 51
0.36547637662036625 0.1607409562565248 -1.6193168996662763 92 77 58
-0.48679710078720867 -0.14424856687252002 -2.1934676109823728 126 100 57
-0.5179230090104481 0.0984698290244705 -2.2106418893734605 103 87 54
-0.4097288244916819 0.33568425514352623 -2.244966572322985 114 92 55
0.2835617687983573 0.261339939397101 -1.7277851726382383 114 95 65
-0.2608522708560529 -0.07884746636347689 -1.5831689756325946 84 65 33
-0.23573559468328387 0.25078503349335374 -1.7188400595473936 109 86 52
0.15426217912914653 0.31017859511718665 -1.60108282540749 119 97 73
0.12589621482459903 -0.0784451302629359 -1.3756401276890722 99 83 64
-0.4059071995625982 -0.01671973918088633 -2.00656635076556 74 53 25
-0.3095218288533239 0.16504162745101641 -1.8190812994448982 115 94 63
-0.14930847920860357 -0.4365985190128376 -2.139290248912378 98 76 39
-0.5156155330207582 -0.10947644235949054 -2.2197287200094094 91 76 43
0.25213415171176445 -0.26453115512149944 -1.7975180241225304 159 153 148
-0.5034204786651079 0.11686514680419365 -2.2062199332384473 104 82 40
-0.15421826330823601 -0.32068591149378634 -1.9115883110909089 85 62 28
-0.2972903213873545 -0.17615794205039587 -1.8836817877166365 80 60 25
-0.13412752001809902 0.2912351967470279 -1.5765970933363098 90 70 40
0.28683091225304747 -0.4619654416466692 -2.2405613792001695 98 83 50
0.08979420158019329 -0.3085358044119666 -1.753110275718037 79 56 25
-0.5145678792239446 -0.20751983529089257 -2.267711498427762 186 186 188
-0.02862271906081101 -0.16062645714019533 -1.4041533650438176 197 197 198
-0.3031333540005346 -0.24304743523402028 -1.9895878627891477 76 56 24
0.1632088060471568 -0.4354444664107777 -2.177650660825014 113 88 48
-0.43092174070480954 -0.11665736099918005 -2.1177618940059646 90 66 30
-0.26245201460963136 -0.19576285443529193 -1.848880057357134 107 94 77
0.4208485764169316 -0.04323456824676516 -2.0397030173899102 133 107 72
0.49332010052872843 0.1239705004589936 -2.1783196279707213 103 83 56
-0.033709765923735785 -0.3677024913386493 -1.9315532832450468 80 58 27
-0.15242219308007113 0.0749856838508004 -1.1114790234193195 89 69 38
-0.10947302221336094 0.1751581867786629 -1.3883575879210956 200 173 117
0.16152049879176877 -0.12245986090307068 -1.4231671662513612 128 99 59
-0.15127297506066353 0.35482036876516254 -1.9511208466722916 101 82 54
-0.09648529182530045 -0.030967845376305824 -1.3102495630492847 47 30 8
-0.0720227658208968 0.1325816155688223 -1.2020149223913612 90 76 47
0.14730141367203106 -0.09611308053310692 -1.396056934187632 142 118 80
0.1792098982873748 0.4881627623533336 -2.222636254997746 57 42 21
-0.0646809196705101 -0.06559995022485031 -1.3106663927649824 78 56 23
0.4956863724027878 0.18563319502381612 -2.2049373586453487 125 120 116
-0.39895615153207825 -0.32619106736582154 -2.2249093329778513 142 113 74
-0.22271362017387825 0.01773657807827991 -1.459204914404196 118 94 51
0.24908855184046977 0.24459388963267353 -1.7004118137181155 44 30 14
0.1432224542373377 -0.392523904215788 -2.0566277841481595 77 53 25
-0.05101213916612114 -0.3976641242607909 -2.0175626497553054 142 115 70
0.3456083671864715 -0.03382615685125272 -1.6922554208144458 80 61 29
0.343720183614039 -0.08161965518757862 -1.8308846717409115 93 71 34
0.2473798889641045 0.40751538465317283 -2.145652349896849 71 47 21
0.12804247861124682 -0.5104258904192415 -2.2243989224886134 107 84 40
0.3080063982167732 -0.35726675067518965 -2.1484670255817586 75 52 17
0.17016371969799315 -0.3759944124587951 -2.0452008669182193 104 87 61
-0.0036378125861686703 -0.16114192244321335 -1.4234546527956224 167 138 98
0.2528563553438618 0.22572393686993916 -1.7499305310566629 84 62 28
-0.13094553489282695 0.000142175952922547 -0.9650172513174136 115 95 66
0.48648993257280937 -0.2513711831337246 -2.2316661587314695 109 85 47
-0.09642975569061668 0.29661161190224195 -1.5530686728034802 105 85 57
-0.05489595742773693 0.03419342765825843 -1.1274147797734058 20 16 13
-0.4572615118001477 0.06309395875748626 -2.1319334553600595 111 89 50
-0.08857258292320873 -0.0014044291095200632 -0.9738269728609926 82 61 34
0.26734598494762185 -0.426554388891069 -2.2091963937343024 120 97 63
0.28739089090653275 0.2068210121887993 -1.7426989024927262 76 54 28
0.10313052270554629 0.126191448810269 -1.2630253595109886 75 60 29
-0.2807775215446818 0.20712946483162822 -1.8222932627073087 82 61 32
-0.30002122325238667 0.4178982835630041 -2.2251048674547556 97 75 34
0.29161838325217077 0.17202576799301356 -1.7707334376590487 97 76 47
-0.3793171399939424 -0.32290936721449776 -2.210853917502272 139 115 79
0.04863059577329554 -0.24090731491523837 -1.53012949492187 64 39 19
0.7432190249028913 0.18072228251662834 -1.9994385081591657 101 85 62
-0.10290668349711898 0.3185546744360313 -1.6111503401670577 106 94 70
-0.27699805717683246 0.29902963302492286 -2.0319415566769385 109 89 56
0.03234386726775804 0.3435641867289241 -1.7360671071241445 59 44 23
0.09291804987329766 -0.3976302964433024 -2.058337921250043 90 71 41
-0.5143013019610082 -0.08997102193617099 -2.2137619083175 99 80 37
-0.31913882206472644 -0.21981754414188243 -1.9292271031590271 95 75 50
-0.0787498050631986 0.1006304496956792 -1.1691892478061827 65 49 29
-0.3388711474474756 -0.0971964844683866 -1.9018308807239417 68 44 18
0.11344808175259406 0.25398564193597034 -1.4873078295526974 82 63 32
-0.18056029523545844 0.2957493765923987 -1.7418929267723333 116 91 60
0.19498743642438368 -0.3206059749490593 -1.9424485793301192 83 62 31
-0.3611648911472381 0.26378489423596074 -2.1090606348825793 82 57 24
-0.10008550276171341 0.46570135304692417 -2.2061591788982096 85 62 28
-0.004801206991245941 -0.03909442536551954 -1.2212658648508756 97 81 51
0.4014678421985764 -0.2777061972635269 -2.177369905571741 99 75 35
-0.2976003818281248 0.1986879982165464 -1.93479525221368 125 107 83
0.20662100083532445 0.01887249711655146 -1.3996666106682147 168 140 92
-0.5478235400040128 -0.020405656274097756 -2.2371043376552944 119 101 64
-0.392767645664227 0.37725947899933676 -2.2540158323414285 114 95 61
-0.08532025655963038 -0.05876775538557406 -1.2138028330479393 99 81 59
-0.21775497815422998 -0.12919784318085004 -1.5677158553025388 109 86 52
0.12260081977954541 -0.11362586180032064 -1.392963773801991 139 115 81
-0.1169004766705905 0.08791845966328549 -1.1384368962625857 68 47 23
0.5117218441217418 0.05441274796731727 -2.1929975088971223 117 89 49
0.13646217886496714 0.14128063911490055 -0.9518501045780146 83 70 53
0.16820357983872883 0.39092329226721273 -2.0462984506288584 129 100 60
-0.2932973437430853 -0.4263925086506077 -2.249185964820826 111 91 64
0.14444805353609744 -0.41210520531973494 -2.113943802059667 118 97 73
-0.225892908854148 0.28383816623791075 -1.590856793038148 130 108 71
-0.09983656968919823 -0.39159082306252974 -2.026528557572948 106 85 64
-0.33743992303954423 0.14640137694114308 -1.8800918356930316 110 89 60
0.26728649705170754 -0.34890645918766017 -2.100582777970335 92 70 39
-0.08806675543309411 0.42123582025310785 -2.0757141837386897 123 100 60
0.363513959014828 0.03611300967934712 -1.6136322872548015 150 125 87
0.23336426725405413 0.07833623416043922 -1.4309952831493906 69 54 36
-0.17068409169207596 0.006499146089964271 -1.049986015992047 27 13 1
0.1955446139894266 -0.24019086314556454 -1.889550406763134 97 77 44
-0.44696977678508076 0.2894112942909535 -2.2410962832594423 148 116 76
0.32001400870983854 0.44668787673452737 -2.2382379133651877 71 59 33
-0.3163663264774403 0.16465018327094966 -1.8522411434436894 69 48 21
0.024757535090756642 0.37493120629250376 -1.9895082097659806 107 85 48
-0.31093044021133764 0.29148075407237883 -2.149946481900677 115 92 56
0.2163709498907472 -0.4043321814522993 -2.11331641029307 127 99 59
-0.46311737836458944 -0.27292544814510017 -2.2364249551056474 103 85 47
0.10096417461960912 0.14824496359674633 -1.1621816953270845 77 56 33
-0.2133738541392297 -0.48594930914233747 -2.232360087307923 88 65 29
0.3470388088603804 -0.3928376339357561 -2.202149063291039 95 72 30
-0.25559238663861084 0.10922247416642678 -1.5355072471508515 46 30 9
0.3177065922547292 0.21500083306183038 -1.8891787092874606 78 60 38
-0.023183034596392437 -0.3579791834965859 -1.897387832531785 122 98 60
-0.147015404853595 0.23442110110644615 -1.4596251193148548 63 42 15
-0.09855168078411868 -0.2851918127262884 -1.8671642830944524 99 79 44
-0.1518662801692378 0.4606650114187556 -2.1775376530679322 100 80 47
0.06919007633855336 -0.2929476460404006 -1.6896920869072678 101 81 38
-0.05781304491726821 0.10177583891572453 -0.982844119200895 72 59 42
0.19822177941794258 0.26469157336613997 -1.5976395301122006 93 76 57
0.35645664844960645 -0.1464467182866625 -1.6331765201705895 61 36 14
-0.3130342639186578 -0.2681328073874206 -1.9823117229622869 109 85 49
-0.2645269443050141 0.2991615274079197 -1.9786826861811921 120 98 63
0.3839389169328474 -0.030911921095262408 -1.972316884147573 85 65 40
-0.47123517195856235 0.09935806359205597 -2.181437673851695 93 70 30
0.4515584236464525 -0.03630252486543 -2.089459552511677 201 168 114
-0.3129743780148215 0.20515163269975684 -1.5969392712843717 155 125 78
-0.0575192461465322 -0.29916199286868533 -1.5938976037256627 144 121 89
-0.2149360323360432 0.45973692465678695 -2.213564136502611 95 74 30
-0.095830933190685 0.30279942651068886 -1.5808166907756538 79 63 46
0.051342132011410045 0.17199408865208604 -1.2250203642271975 96 82 56
0.3456887795582076 -0.03879062753021199 -1.7700165014137494 37 14 0
-0.03676678514468779 -0.24886435546511956 -1.5530485517852357 78 55 24
-0.24852990662628835 0.17368652444038524 -1.5064586866268728 98 77 50
0.17852383814201048 -0.47186844762468855 -2.20258172632254 109 85 41
0.2928061783695556 0.13509795690833198 -1.58372405186306 126 109 87
0.03470929883931378 0.37945955182673413 -1.9190548176143558 111 88 54
0.4181000756602767 0.14950116228845395 -2.060312705808248 69 55 38
0.3898046281510926 0.045776270597973893 -1.9196540037430956 94 77 51
-0.07168220250674313 0.3787837374258124 -1.869049190172731 136 124 111
0.203364161935363 -0.2566223360532957 -1.5942400463812985 124 104 79
-0.4922128902666463 -0.03461790853483296 -2.1716115657508035 88 64 27
0.07379568316407448 0.4699058856947105 -2.157380983962185 95 75 37
-0.2824992162972656 -0.27023059184824577 -1.9912186255563449 84 64 31
-0.5044409371158434 -0.007775400310902658 -2.178857540953947 90 67 26
-0.15381406699482225 0.4398245286265191 -2.1903587910522377 129 100 56
-0.15621099619425635 0.08509729363933496 -0.965643709495226 90 71 44
-0.11850615909848246 0.3506009552067723 -1.8771082145502096 100 80 47
-0.17578015515494738 0.301104547191129 -1.7656376559434677 76 56 25
-0.053437197307720743 -0.3071235987821718 -1.7807600950800504 107 87 50
0.21542811912544987 0.46677213928647027 -2.2191430747910066 61 42 25
0.15957389717420487 -0.18092928216219775 -1.499205779100651 97 76 51
0.2301845139762641 0.4564604617985799 -2.1791694684323692 113 90 59
-0.09931207633345947 -0.13479806262767213 -1.3860933007333827 120 96 64
-0.10695313712294842 0.33047664705010393 -1.731454176536143 93 70 35
0.20983884731697264 -0.31137546818817996 -1.877003222783469 104 81 50
0.2729457905917286 0.4625836403151744 -2.221429991258412 77 59 32
0.005151272582815469 -0.12271031123354598 -1.3925033736683212 156 125 87
0.030706203421425653 0.12475003683562541 -0.9472218364029301 75 54 33
0.11925483613422118 -0.012969701844341895 -1.2153402123535713 160 134 89
0.0832883892292404 0.3535089198011079 -1.9086967822270033 111 88 54
0.4848464135257672 -0.15641054457966544 -2.178331652826763 120 91 47
-0.46570255837093516 0.1287352162891684 -2.1571637918399706 85 61 23
0.023558142660786284 0.14973421639618073 -1.3330422438184713 56 36 19
-0.10451673509094182 -0.34410346667507363 -1.9147138938376924 91 67 31
0.24934132508917087 0.0723446058283755 -1.459079279474953 102 80 56
-0.46966467360810743 0.2535077957803189 -2.2346466493092425 99 83 60
-0.1568007252369046 -0.5205447115635266 -2.244454822097426 109 90 58
-0.18772873752146682 0.2912929920745195 -1.7531573595587415 111 88 54
-0.4351777490179576 -0.2495927321438906 -2.186737321250478 113 98 75
-0.2588447448540016 0.22193308979991974 -1.7207613065886138 107 84 52
0.07562834856031483 0.40707351653970936 -2.00226318128124 84 61 29
0.36520439058703463 -0.08683152139504251 -1.7660575389980828 126 107 83
0.19899425195551795 -0.37808679874081014 -2.0751938839894084 106 85 56
-0.13194300937179052 0.2670429325640272 -1.5217672996024374 70 46 22
-0.2597674472400825 0.3455232456425307 -2.101686219390591 61 53 31
0.3969120216165081 -0.11817303454886208 -1.993290558704467 79 59 32
-0.3412095511274792 0.14946801475214466 -1.9195250276917966 80 59 32
0.40824401032839785 0.10983404093928154 -2.005570616904442 99 77 40
-0.15504359957649014 0.06634223416724806 -2.015237619398735 81 57 29
-0.3591087618904866 0.26106620498670474 -2.0969517181756574 118 95 61
-0.43165175454244953 0.29811963294422006 -2.2334718050241364 108 83 43
-0.37048975516689125 -0.3746584344882722 -2.217259943063775 128 99 59
0.2666301578518084 -0.26151363793174076 -1.9188899426052104 74 50 26
0.02807746224354124 0.43997445629845283 -2.1122345396791062 134 108 70
0.14363755980516754 0.3835717685883159 -2.019581240827027 76 55 28
-0.14299998445607354 0.4844597079955497 -2.19865264571138 90 76 47
0.15082078929945 -0.003352512163097664 -1.3577870485059085 62 47 20
-0.4051499776100257 -0.3133249688511426 -2.216398207435794 128 104 68
0.11328525699720536 -0.3951415796451823 -2.050283857857247 80 59 30
-0.23131496947968852 0.22186461082646605 -1.8711208172285163 126 103 69
-0.010036957421679735 -0.4231623753566192 -2.0907206736534376 117 102 81
0.07245435461414688 -0.06753014763247196 -1.2777553410882632 50 33 15
0.16471593289778352 0.3944860803271926 -2.173897765165772 109 89 62
-0.41594305479195914 -0.19202438199188682 -2.117011911123529 111 89 53
-0.49637976060373207 -0.21286685373579783 -2.173049614307825 99 77 38
0.26786530916535456 0.13305064675860057 -1.543625169052133 157 129 81
-0.5200691169215738 -0.16247666988100873 -2.279787123686777 194 195 198
-0.13950607975102022 0.09629312762181455 -0.9613383949281231 74 56 34
-0.12628180988582383 0.34580590502210257 -1.8613941394506017 92 72 39
0.3319197472998699 -0.04652522180707388 -1.6049694029967823 119 99 66
-0.06247470620081457 -0.37626464235153806 -1.9814195184945858 99 76 35
-0.06919666352138833 -0.3843059820896688 -1.9900337509476176 114 92 56
0.05270868296056241 -0.299232887527563 -1.696922488842895 104 85 49
0.11174827167988702 -0.24687816710973498 -1.5772875236502446 98 75 35
0.0037015926593935507 0.2533188416140764 -1.4310377898175486 145 114 70
-0.36893420172780156 -0.025370039478312914 -1.6426011040360158 125 104 80
-0.37914273707662816 0.15200025697702488 -2.012800229644526 71 50 23
0.16263830671024593 -0.27888619016726673 -1.7735737362923025 110 87 46
-0.16466907327296984 -0.2756996124089258 -1.8231847246322797 88 67 36
0.16642940026796962 0.3183222041014575 -1.791402435483622 74 56 37
-0.08554874738675033 0.38634144097094014 -1.9709780684705267 84 63 34
-0.2897278979851658 0.017310402709719546 -1.5828736210828882 85 70 47
-0.14948997681355589 -0.31230836206098195 -1.8846475917084902 97 73 39
0.22304564378952624 0.07024518767827197 -1.4277003544119315 107 82 52
0.006032111594601305 -0.20924171324591423 -1.4561660601524342 183 149 104
0.19132177310855902 0.35962628188832557 -1.958264515720152 74 54 29
0.0023367893780696937 0.07406098991426356 -1.150801567877538 96 80 50
-0.4046435799274574 0.35986074119228995 -2.2379741485190636 105 84 48
-0.35278148249220687 0.09673035522241162 -1.9002021022747104 102 81 49
0.12491469892824837 -0.133493281523805 -1.4283244456109818 186 154 102
0.4171832303138044 -0.3297619024928757 -2.2258540644804667 108 85 41
-0.5895785017803923 0.012024631260811642 -2.2172872807529154 75 55 39
0.18830341815588045 0.05137261779810191 -1.1034998769808428 82 62 35
0.1879411600870246 0.29541254954702484 -1.7212000409226118 77 60 38
0.43999319464323805 0.028423031819699577 -2.0451322974799613 85 73 51
0.0013775269658455676 -0.5287479386317366 -2.226271234242812 156 132 88
0.2550997462912809 -0.04772383342134265 -1.5168132620035495 90 67 31
-0.3174706484461672 0.2034321790036483 -1.6010164705182381 189 163 116
0.07130012947139955 0.12042913783798381 -1.0296871059930295 170 164 160
0.22527136078013285 -0.3944163232085032 -2.113972413716238 113 90 48
0.13644222782987964 -0.34217557041422153 -1.635230988756513 113 94 64
-0.4718040854066185 0.267000773939056 -2.2528150583316626 105 91 69
0.13637785436493335 0.3639354845758984 -1.9523448168081012 69 43 18
-0.050517208063146024 -0.20125184267092217 -1.5353952433290763 104 83 52
0.18207235478531456 -0.3181744438081005 -1.8817332858281182 126 103 71
-0.08370081415278949 0.11403771096644023 -1.1667156227383562 52 38 12
0.14324968557913617 0.45995143392533 -2.177053288642688 59 41 19
0.5624023886439206 0.019664179874103183 -2.2492687341635684 75 64 42
-0.1166061987150055 0.3262458043076071 -1.7814295636060795 112 91 59
-0.0966956375391386 -0.0585434138651555 -1.2325563581379395 101 93 81
-0.32279975615608136 0.05649931400789797 -1.7531470709297565 120 110 94
0.10495442112656711 -0.5307424474544054 -2.241813725001863 114 94 43
-0.2719920957031447 0.0070572695703212075 -1.5701749697256917 112 95 66
-0.2931465982295725 0.17314129846138676 -1.726897891130412 111 89 52
0.10183774065649916 0.3582881160440709 -1.8998762641266247 95 75 48
-0.2995608985111483 -0.21090758785792094 -1.9245108934772808 83 68 47
-0.2173140646544235 0.2594004829014658 -1.761619099298521 109 89 52
0.07845462185295883 0.4032362373832814 -1.9951826821482401 83 59 28
-0.3995621496443044 -0.02214353806465145 -2.032652257631574 113 100 86
-0.19770384368295368 0.2921044319023517 -1.8149140875537113 117 95 56
-0.3627274669344236 -0.16974705134148466 -2.027732500853177 156 129 86
-0.4438937432461325 -0.16129018809927748 -2.140086175076474 123 105 83
-0.40509918305700343 0.08769165656426962 -2.0204095125274155 87 63 27
0.19343531093955657 0.3808848725428032 -1.9028413469397176 75 55 30
-0.4766956032834692 0.16400302256091406 -2.195845278219989 95 75 50
-0.23991249361552208 0.16283937876368926 -1.5134343288528913 86 65 35
0.0327013908911745 0.3855850168876938 -1.9256469869401147 112 97 74
-0.12907749516768346 -0.03892672515360916 -1.2022037420813252 190 192 195
0.014188332266417188 -0.1707436055240962 -1.4092622704041333 124 92 55
0.467350722315533 -0.22166104194320027 -2.1471859809668943 113 97 72
0.2713597459841645 0.13032977276567217 -1.5524054666819749 120 96 62
0.34274411165392493 0.13471895380228027 -1.953565717907651 104 83 52
-0.34253540630095514 0.43581068514256943 -2.2200792512089884 148 120 80
-0.26656407627529366 0.42561941467229975 -2.22281990995266 93 71 32
0.11707103842965372 -0.026863758130176513 -1.230641731790853 200 172 125
0.31570085264602715 -0.43579565969351136 -2.232887407406483 92 73 40
-0.04790123795883744 0.36164878618660906 -1.764390943023116 91 68 36
-0.26886343297900955 -0.22664179924908376 -1.8892357080069357 112 99 83
0.2237464633694305 0.31301361823727225 -1.9035930456629389 84 63 34
0.22490080284376862 0.26493973606017246 -1.7212155806263376 66 54 31
0.34668218296978187 0.07581657944619498 -1.792144310382471 114 91 56
-0.33248647993832886 -0.10396748567728178 -1.6174978928490342 145 121 88
-0.08754557141271437 -0.19311189865483241 -1.4663628951522383 116 93 64
-0.19419416065278255 0.302871555747182 -1.819449371527584 131 107 73
-0.11175961769403486 -0.0002913503688944922 -1.349448183058243 38 28 19
0.10960766423088138 -0.04378924795463014 -1.3161833615384153 105 85 61
0.13430402802979713 0.0246197281663115 -1.2981665070022046 35 21 10
-0.13911000276955074 -0.5133558884812384 -2.228600195576095 131 106 67
0.36527443595013914 0.05825329170416571 -1.8283247400217209 93 72 40
-0.2840513431518253 0.16809826026036653 -1.8033979280753973 125 103 66
-0.07368633999735526 -0.027096406113122213 -1.1942420187559943 61 45 20
-0.36977984144130377 0.12239536370128229 -1.9708323482164498 74 53 22
0.5146079441945762 -0.034248996406403436 -2.1869725421029145 102 78 39
0.1059266319681766 -0.5300668435689055 -2.231215010739768 108 94 57
0.5223543201443555 0.2072674541777626 -2.2199745856197635 71 58 49
0.2736842196758017 -0.18280458415297088 -1.7579318141955946 37 20 2
0.13565306319527887 0.38466604391223086 -1.6532505945902791 70 51 24
0.38583687224238994 -0.2683845540392698 -2.1506011982374544 121 98 57
-0.38349671198890883 0.05117279193603762 -1.9684208329628248 70 49 22
-0.3482402834587672 0.3336237071520086 -2.1471386101240078 131 103 56
-0.196179175934749 -0.26424294224661293 -1.8471254490953048 86 65 33
-0.3073291029469428 -0.17780381010098967 -1.92706614723219 64 42 20
0.3456625108974718 -0.013776461084152017 -1.5759091358368924 124 103 74
0.38606991760069753 -0.11987773417641039 -1.9640447242664603 52 33 14
0.06518390722117816 0.48153045961698726 -2.184620965645238 80 60 27
-0.21911631691538927 -0.09188689761894867 -2.316233272928335 194 163 107
0.2411783497159548 0.020602032504003838 -1.4350383691417405 212 184 133
0.5493266789502655 -0.03429628842712494 -2.2303955927582804 100 83 55
-0.034858555321970644 0.3796196679044475 -1.9389997221428552 99 77 44
-0.1263838672089754 -0.0067803550098882405 -1.3642885788614427 99 80 48
-0.33647155322793915 -0.4208505484664649 -2.2306092276759553 113 100 78
0.2829664111883882 -0.0038248845824900763 -1.5388496911104885 126 106 69
-0.3202402937744141 -0.1832954569185484 -1.8727356282398646 90 69 40
-0.12854937175980008 -0.3074381960820851 -1.6128507218710242 121 102 73
-0.03585446554794906 -0.3143759708779722 -1.799512260233489 102 80 43
-0.241077863304449 -0.3180289855286969 -2.0192560844956344 98 75 31
-0.1729860866234662 0.5027911675747976 -2.2531244580691236 116 105 85
-0.046373677652266514 0.5773756400371417 -2.213316591006217 193 193 195
0.1847304001285327 -0.3408337042243893 -1.9435089618771784 117 94 60
-0.20373584865700897 0.2790758921575913 -1.729356053783626 108 86 49
0.0169410411776857 0.3661196695457368 -1.607802856582507 78 57 35
-0.4652166212885562 0.2543789453744968 -2.232495749918422 85 62 30
-0.20199840774361477 -0.3000236726567618 -1.942896581747965 124 111 100
0.26483222241743576 0.24354505136138113 -1.7763772296295839 78 58 33
-0.48117220232411156 0.19185799889589056 -2.2119568825964433 113 90 56
0.3219534482221474 -0.44594513112408957 -2.205045238243591 101 76 36
-0.27941895239320297 0.15885737360854874 -1.5858489294878606 148 128 94
0.22158078847466542 -0.4148809777957801 -2.1181990729510574 79 58 27
-0.3054055078250044 0.21745493372615884 -1.928905460884307 103 80 46
0.23397329581176804 -0.2809595590983092 -1.6064022188567848 93 67 29
0.14270314631514444 0.03282857486721976 -1.339270618844705 28 19 10
-0.17376250144279515 -0.30253167068250186 -1.917947322956962 58 36 13
0.3527658034258521 -0.07327199183769119 -1.882089752871986 102 79 45
0.31734551085163554 -0.25425395711887133 -1.9695684840861665 130 114 91
0.07755378469274794 -0.22498310117245565 -1.5762310652956608 113 90 58
0.1089154966261619 -0.5274657334737889 -2.2475607026519326 116 96 46
0.07061344562528613 0.31468620530428154 -1.5246572898101272 187 165 108
0.017221908692523047 0.22850878153386417 -1.3992656460753259 194 171 127
-0.1668961162060066 -0.5238176435320782 -2.2441414192170925 106 89 59
-0.09936071635830379 -0.3422690392414005 -1.9619460308774659 84 63 34
-0.04265785464726417 0.4190169984139914 -1.9113103605942596 65 41 15
-0.30019975372128294 -0.06342164314801516 -1.7085222361237777 137 114 72
0.19662374885226866 -0.27267233858120377 -1.7840157248169504 123 101 58
0.32017962942426104 -0.39028126825404 -2.1897050326069443 102 86 61
0.29177284992144353 -0.14011768891793097 -1.7125648851285313 58 37 16
-0.11451265564929797 -0.01832995824228538 -1.2966830567832017 25 16 5
-0.0837465464338391 0.49944126932698885 -2.2132268795206396 115 100 76
-0.25762217591926706 0.21352180364789597 -1.8406343657943425 106 84 45
-0.1396433976517883 0.12425429452647128 -1.2528337639361313 121 103 60
-0.4967548010274165 0.06254194757815676 -2.1607754432568584 149 118 71
-0.37365009571968666 -0.10775275270425885 -1.9958694844700613 65 43 19
0.5322730010601322 0.16190335413375298 -2.2533657203535697 136 135 133
-0.373096499136845 -0.18375417123406196 -2.0419654215646057 86 66 31
0.3053783098959527 -0.054569391316848764 -1.5979968132650337 114 95 68
-0.3381197680166439 -0.29689841986047155 -2.123315604037963 87 64 30
-0.48004912664587823 -0.2884828931790045 -2.255326622500835 180 182 181
-0.5054545605882029 -0.0479978073112553 -2.1935709741923732 94 72 35
-0.48720101883823574 -0.1843139498369182 -2.1926563023102523 164 136 87
-0.4169364693433643 -0.14322358606843716 -2.0220270405820724 109 92 66
0.21209771362424176 0.2820621264824852 -1.77301935171333 52 33 10
-0.48003456202983097 -0.17634653460630972 -2.201052949025646 142 118 68
0.025031652558317203 0.3538023780200693 -1.8032006524926474 97 77 42
0.3548533642228799 -0.029658649003059846 -1.6054273465314577 120 96 61
0.09199276092571328 -0.4380165788150579 -2.0255021742967827 128 115 99
-0.4021947770562513 0.0016233440065895129 -2.0281729741904293 93 73 40
-0.028359930854202235 0.47316536915699436 -2.196410973423071 117 96 62
-0.027466367060157485 -0.10731172271313089 -1.365559786915946 230 199 141
-0.08427334316595991 0.08891694950841418 -0.916182002512501 184 156 108
0.047759715564205 -0.3146911813740391 -1.8106421305354519 72 49 18
0.05400275774374256 0.3812378872521634 -1.9304385769697983 103 86 60
-0.29368235566357503 0.3573139300955971 -2.165964992311668 96 73 39
0.33216151127372445 -0.11004288641888792 -1.7961428113775908 80 63 33
-0.15146106328478193 0.3331146106521654 -1.865341002148276 126 102 68
0.07576688930681161 -0.4958810769914964 -2.1960653225505826 100 76 32
-0.20039845110399482 -0.3632369526571991 -2.04130257197668 76 53 22
-0.4843914933506932 -0.01654751654097604 -2.1601754250752685 86 64 27
-0.1561680930336357 0.10133968929537415 -1.3557512829183302 121 113 107
0.24693650453313334 -0.07099147092378773 -1.497006152507179 66 44 22
-0.2420885418241766 0.06893380169218458 -1.4668611763749946 111 93 74
0.38433567961578213 0.16538108839597748 -2.0078024193748747 51 35 19
-0.32342061395151733 -0.2727105458711893 -2.053823759569473 106 85 54
-0.15681585847659676 0.0850327674683918 -1.0735867208529974 63 42 23
-0.2757605535327129 -0.14883382179352103 -1.784151023796461 83 60 27
-0.44888382625681483 0.21044284335808922 -2.116154552727891 150 120 70
-0.29406869237518385 -0.36494756953767593 -2.1665500927918253 102 79 38
0.13603677868860692 -0.2885918110409357 -1.7425038056259212 110 90 58
-0.3742788930149543 -0.07630345750193113 -1.9905194438520377 90 70 37
0.29706810877010625 -0.43876646789153895 -2.2243263849241632 105 83 42
-0.17722916612291967 0.003285024906374278 -1.1027205017212007 31 19 4
-0.01618253142163396 -0.37824443506432676 -1.997651709095762 88 65 33
-0.13366306800780065 0.06908179204778275 -0.9278205194401951 198 174 126
0.3744976754036023 -0.020824023979647076 -1.891507761271591 104 83 54
-0.13971788314296132 0.37615396411157764 -1.6233102712772833 83 64 40
-0.15482240971282027 -0.011858185965712198 -1.1549405384447107 72 55 35
-0.23936245425942834 -0.215082784611428 -1.8086667992725691 74 53 24
-0.01662735941659569 0.1712998283985584 -1.2225231644391716 106 90 42
-0.4166400614829571 0.13265450493043854 -2.1105806416947943 123 95 48
-0.527597464362685 0.039610790491725736 -2.2201044889742794 65 44 15
-0.3823453639899601 0.0357242173526019 -1.9384064195208652 68 44 18
0.3965368657728814 1.181789705325392 -2.2559241572159277 197 197 199
0.18413247095699775 -0.3627675381771862 -2.023871183798096 111 90 63
-0.15728386169062672 -0.3775284254707845 -2.044243378949003 96 73 37
0.1418566646522662 0.15553796919877005 -1.0059542540033986 74 54 27
-0.061904601661708775 -0.33251508991947337 -1.851156446012703 83 62 31
-0.3846615131181056 0.26149237139798215 -2.1549469376543833 115 92 58
0.2120733577079011 -0.38108811757552546 -2.1881350098922225 80 57 25
0.354508659990699 -0.2370035995760806 -2.0467558448684624 74 48 21
0.02584714104674227 -0.13000336331349852 -1.3856529179049974 124 100 69
-0.3096260058269017 -0.3632397143741705 -2.164636755548739 95 73 36
0.20732354662430452 -0.22514664751337307 -1.895604387670123 117 97 64
0.22812664332945748 -0.2559080901150699 -1.5959535030840177 148 123 80
0.3830089651831531 0.0417983865364641 -1.9152231293854463 72 50 26
-0.19370705356301898 -0.14529820510150052 -1.5365883429278608 63 42 21
-0.13845090007082858 -0.030575755751942255 -1.1352369848737691 72 52 23
-0.24117898510171612 0.4332657823656913 -2.2209586107698347 100 78 39
-0.014632555347538758 -0.4094322313945188 -2.0598131994681337 93 70 36
-0.4437108948259709 -0.09488553794755354 -2.140351175607673 88 66 27
-0.13363639752704612 -0.331222171702111 -1.9077095733026894 119 106 89
-0.1850376861868607 0.026570409547541675 -1.403741138606243 59 38 11
-0.24092253889870746 -0.045781376080770014 -1.5378744327863634 63 43 11
0.2863106802166595 0.45184585513279024 -2.223049143770787 86 67 38
-0.0042628850114114795 0.054075189963900046 -0.8988110513940967 124 104 71
0.04823378779878986 -0.2532875525250288 -1.5957212198714548 151 124 81
0.09181528923466013 0.13937299152109067 -1.0625888963512014 191 190 187
0.055746033986179284 -0.24320854554213353 -1.5431682590530356 52 30 6
0.007072894451027637 -0.3342148478449621 -1.5953381879863981 127 107 72
0.18030114735487054 0.07295344141318442 -1.369297728328804 115 99 83
-0.12665856319604044 -0.0006253139443680219 -1.0038556412064563 92 79 63
0.3470359733518385 0.11382419983953096 -1.8240518990344534 95 74 42
0.34608167801669687 -0.43173917588234323 -2.26199950640566 80 68 45
-0.133680225692966 0.3528798720858895 -1.9033771214460762 84 61 30
-0.09449969483785971 -0.2832160640316265 -1.7276782045999965 118 97 54
-0.09745771605253725 -0.2383092109143729 -1.571032761540219 100 76 40
0.11292877836440776 -0.28781282586426044 -1.8532447170829889 98 75 41
0.5467059133881595 -0.12123422076622735 -2.2395501523571935 101 84 54
0.03513848818497969 -0.25727419931145573 -1.5628352721426693 74 50 16
0.02976441541897973 0.33355483996256174 -1.770057381919033 119 95 54
-0.0543455521248627 -0.37500817408586 -1.5658003838233088 112 96 70
-0.16335237704535116 -0.019948532295561833 -1.118403578105647 174 175 173
-0.20720293657680156 0.27509785922093555 -1.7459375970397806 129 108 81
-0.1579871986420639 0.08758059741353479 -0.9951281859050947 90 70 45
-0.26536241751966194 0.08151239007168247 -1.5722136395731305 97 81 56
-0.07347720587555759 0.4273411146529499 -2.0869141106251385 78 61 37
-0.1291707444620668 0.15096666029290598 -1.3719302461347707 125 103 64
0.35039239653097565 0.42812171264377474 -2.2369659941786533 77 65 39
-0.01717515799606748 0.3795405858598922 -1.9201392663125232 76 52 24
-0.19014996985583482 -0.3953467611390623 -2.1104646703702765 132 104 57
0.34231094771357723 0.010350985276411831 -1.7221219965541192 79 63 40
0.1435392548663148 0.15134501727698174 -1.2060164744486372 69 50 20
-0.34390441422320095 0.2591667439392509 -2.085540445718607 94 74 37
-0.25461541961118933 0.17866798139406168 -1.5612354422455603 70 46 18
-0.38638342330294173 0.21542456495484744 -2.0840128395041866 94 71 27
-0.3526684563244481 0.2982018652636565 -2.1606198684649693 91 69 32
0.12813771726987194 -0.019014014393535734 -1.2161860328405858 103 83 58
0.27413470992991185 -0.17976588236114752 -1.7756162054683606 100 79 44
-0.34207119668280594 -0.0795639070924952 -1.6173038097121477 106 88 66
-0.23913585088658054 0.46598223696879554 -2.226896321027865 111 94 67
-0.07573562911633418 -0.38895664024449494 -2.0203332604168875 78 55 21
0.21362903681377968 0.46141146447426434 -2.144024157786353 101 83 61
-0.23316983696921795 -0.19754236420178187 -1.767857222077285 74 48 21
0.6720495323913741 -0.05452462912196109 -1.9871780605498583 92 69 35
-0.052734359252450035 -0.3985343428498649 -2.059742080818155 126 101 61
0.3650753644573512 0.10610754636675122 -1.6890453280726727 93 77 54
0.2941448944662561 -0.3773188069092432 -2.1825040905138606 91 69 32
-0.2155504946185534 0.27445369503221256 -1.8125934713529082 97 81 57
0.4525264766271574 -0.30255535922711385 -2.2255045623536485 130 108 71
0.4216881951445751 -0.2591422268312931 -2.1750511044524705 81 58 23
0.28346131472598757 0.025561286654459434 -1.5296984606675128 77 53 28
0.3172046260720257 -0.12753050572278443 -1.7813666172360687 63 42 15
0.04875144108047701 0.015756566313301013 -1.2119570016521943 85 66 36
-0.1792583581248675 0.3216698723031756 -1.881448756662987 110 89 62
-0.32070883367443276 0.21239386450245704 -1.951300838751314 111 89 52
0.2560813664914728 -0.22435085584798833 -1.5954404518153082 130 110 84
0.47509487064944794 0.15545486984970402 -2.1604043918825933 89 63 35
-0.12670256123740592 0.3474864181173149 -1.6643925728915367 87 66 35
-0.21236876403816463 -0.09189074315548361 -1.480355501198856 158 135 96
0.2579807468770448 0.28030322421767606 -1.6500558210073704 94 72 48
0.2580812891440893 0.21954741261992616 -1.7771527909528928 103 88 66
-0.13651883196457323 -0.3721302375886343 -2.034696370539005 103 80 48
-0.27652424392305436 0.03012897210017542 -1.5459602291695664 42 24 9
0.3921307968318301 -0.10424953078569356 -1.9876190087180834 93 72 41
-0.3750480878510399 -0.35636658859636955 -2.1421067916739496 119 98 68
-0.3101075778978443 -0.3594959829918582 -2.086929426734725 84 61 27
-0.40105110418237405 -0.01821189096239157 -1.9969059798856665 105 84 53
-0.24476500273795204 -0.2704326385355925 -1.9388246242694716 61 41 14
-0.29526512371408375 -0.25226878166748495 -2.0030841144461395 97 76 45
-0.07676512807189088 -0.38429937653641744 -2.0009483374529995 93 73 40
-0.10400010892533276 -0.21872691617654488 -1.5378487556179565 95 72 38
-0.39970380520849513 0.03471636753706197 -1.9898773805148744 114 93 62
-0.23436650332351092 0.38875512352629066 -2.142119202974687 80 57 25
0.42766401355437594 -0.3033133111282416 -2.2234908340306774 111 89 52
-0.332286306610925 -0.173514958131292 -1.9601790581391279 51 33 13
-0.1752947861528702 0.3426674230904096 -1.9263315567776556 108 90 66
0.1764918371220807 0.04038736475220416 -1.1355073978385581 73 56 28
-0.21116933668803173 0.3839561969861657 -2.120429846786517 89 65 31
0.3497638761887077 -0.321322990382573 -2.175843188551726 98 76 37
-0.04289251434018527 0.276142009320802 -1.4893655341898189 148 121 80
-0.38552222960668686 0.3363792333089291 -2.2164638469543756 101 78 37
-0.11944021662606646 0.08328120962199295 -0.9127121956672473 118 102 78
0.3332024416820554 0.3723657393978414 -2.1782452036000026 78 55 23
0.4352088658303842 -0.11013586060130058 -2.0786397142246202 101 78 45
-0.12054400219470549 0.38654835774949126 -2.037209324588447 127 106 79
-0.18127705717655013 0.3396541110050198 -1.9379693164756158 71 47 19
-0.17303561759679062 0.4067766102221547 -2.1198301183818793 82 62 30
0.3397753011735832 0.09941463703688563 -1.7649373143902394 37 19 7
-0.24644151456343538 -0.03987459567158245 -1.5346399848971142 40 21 4
0.0015448619843577674 -0.30937060763648916 -1.5874940983147703 157 128 86
0.20353823222331166 -0.48534045078183663 -2.2240450956191027 109 90 57
-0.4757010328315997 0.08548972521968612 -2.17003428130744 114 91 50
0.018558827181042334 -0.334285035265968 -1.8222766672465067 75 52 21
0.2420024023591938 -0.38939130266348526 -1.9829351681083642 141 131 119
-0.294807799961024 0.3021225724730344 -1.9514695975014953 91 68 32
-0.09698112986041946 0.13848232782197142 -1.1822862640397165 185 185 183
0.14562125117443528 -0.3806854262655495 -1.9135248829198852 92 72 39
-0.21705201888647793 0.40461608287084766 -2.119050670902678 80 57 25
-0.380760781657044 -0.16911484096249982 -2.072843155944267 104 85 46
-0.32762625306306764 0.18621638012373212 -2.0138470380333446 81 58 27
-0.3761110846659254 0.28575647294917095 -2.1392918080006202 84 60 24
0.1966572994857809 0.09378674891040545 -1.1204482864199847 73 56 29
-0.5252693610559654 -0.0540643720577711 -2.209884558148245 98 75 33
-0.03244568693759695 0.20532289841403575 -1.410473978693186 188 163 120
0.4308617199643542 -0.2889086271148121 -2.3243983072070264 104 85 52
0.09361747199839211 0.01076316393155879 -1.2184206744441628 110 88 36
0.26004146424728053 -0.1729420700685373 -1.592753493159621 138 118 83
-0.31150523714551887 0.33689056762145114 -2.1547262405826544 87 65 28
0.18277026126738122 0.10709042258804864 -1.1965805590707053 200 202 201
-0.12642572305896022 0.29279172459437425 -1.901317685216454 91 69 40
-0.34688286188086986 -0.39986521832443056 -2.224741254678149 146 117 73
0.3446375689868766 -0.0428864544642287 -1.80197640740668 107 87 50
0.12007663904592285 0.3463705339969389 -1.8346698154824426 88 65 33
-0.2180088132244744 -0.22591393369758114 -1.5881550412279104 150 131 98
-0.08970098105669062 -0.014973201109220142 -1.1189447851622674 185 184 189
0.04371656784435666 -0.4837957843478907 -2.1931059651058176 118 94 53
0.31813245425607445 -0.16092349164585568 -1.6294242159118757 117 94 63
-0.2743505388878401 0.23608434233411044 -1.8926843191021245 118 97 65
0.470436652090284 -0.07239393990359004 -2.1348843279711067 85 62 30
0.2051565924386411 -0.2738701138841422 -2.145611248457448 74 51 17
0.27297195403086333 -0.580503707378134 -2.1841701259876265 163 161 158
-0.2622623255900402 0.13658469806435908 -1.5582504743529206 60 42 18
0.17252539675096495 0.3571010682073519 -1.6243862795941564 109 92 66
