ply
format ascii 1.0
element vertex 877
property float x
property float y
property float z
property float nx
property float ny
property float nz
property uchar diffuse_red
property uchar diffuse_green
property uchar diffuse_blue
property uchar class
property uchar detection
end_header
-0.0586 0.3423 -1.7984 -0.089 0.922 0.376 90 67 33 0 0
-0.0584 0.3436 -1.8033 -0.196 0.948 0.252 108 85 49 0 0
-0.0533 0.3835 -1.9286 0.122 0.854 0.506 82 58 28 0 0
-0.0521 0.3929 -1.9576 0.251 0.912 0.325 91 68 36 0 0
-0.0468 0.4330 -2.1088 0.143 0.946 0.292 148 120 73 0 0
-0.0440 0.4584 -2.1193 -0.228 0.787 0.573 81 61 25 0 0
-0.0404 0.4863 -2.2139 -0.083 0.925 0.371 90 68 31 0 0
-0.0851 0.1051 -0.9453 0.074 0.994 0.079 91 70 42 0 0
-0.0820 0.1163 -1.1955 0.122 0.767 0.630 93 74 38 0 0
-0.0790 0.1388 -1.2811 -0.205 0.979 -0.012 85 67 38 0 0
-0.0649 0.2585 -1.4822 0.022 0.969 0.245 81 58 22 0 0
-0.0646 0.2606 -1.4865 0.093 0.832 0.547 90 67 29 0 0
-0.0483 0.4053 -1.6453 -0.461 0.601 0.653 87 67 34 0 0
-0.0540 0.3441 -1.7337 -0.213 0.935 0.282 76 56 28 0 0
-0.0438 0.4173 -2.0594 0.189 0.982 0.005 84 61 26 0 0
-0.0442 0.4125 -2.0754 -0.247 0.844 0.477 78 55 24 0 0
-0.0355 0.4872 -2.1816 0.049 0.945 0.323 92 70 33 0 0
-0.0353 0.4889 -2.1865 0.049 0.945 0.323 92 70 33 0 0
-0.0357 0.4849 -2.1960 0.066 0.835 0.546 93 71 34 0 0
-0.0354 0.4859 -2.2138 0.200 0.918 0.342 91 69 32 0 0
-0.0801 0.1079 -0.9393 -0.011 0.933 0.359 96 76 49 0 0
-0.0811 0.0807 -1.1571 0.259 0.914 0.311 43 35 25 0 0
-0.0809 0.0822 -1.1618 0.259 0.914 0.311 50 36 21 0 0
-0.0785 0.1040 -1.1793 0.312 0.820 0.480 87 68 38 0 0
-0.0598 0.2601 -1.4865 0.093 0.832 0.547 87 64 25 0 0
-0.0548 0.3018 -1.5680 -0.558 0.586 0.587 83 62 27 0 0
-0.0528 0.3194 -1.5911 -0.055 0.885 0.463 80 64 40 0 0
-0.0433 0.4077 -1.6436 0.059 0.726 0.685 87 67 34 0 0
-0.0488 0.3467 -1.7318 -0.017 0.870 0.492 73 53 26 0 0
-0.0481 0.3455 -1.8304 0.086 0.950 0.301 93 71 35 0 0
-0.0368 0.4323 -2.1085 0.076 0.911 0.405 150 122 74 0 0
-0.0303 0.4875 -2.2120 -0.146 0.906 0.397 91 69 32 0 0
-0.0237 0.5469 -2.2670 0.447 0.755 0.480 189 189 189 0 0
-0.0779 0.0873 -0.8964 -0.503 0.603 0.619 135 123 106 0 0
-0.0790 0.0618 -1.0552 0.738 0.564 -0.370 73 63 47 0 0
-0.0795 0.0572 -1.0619 0.773 0.585 -0.247 91 84 74 0 0
-0.0759 0.0829 -1.1665 0.405 0.853 0.329 83 61 30 0 0
-0.0754 0.0866 -1.1755 0.250 0.919 0.303 61 43 14 0 0
-0.0487 0.3136 -1.5775 -0.431 0.786 0.443 95 72 41 0 0
-0.0478 0.3212 -1.5953 -0.074 0.873 0.483 96 83 59 0 0
-0.0393 0.4004 -1.6312 0.164 0.878 0.451 74 53 24 0 0
-0.0439 0.3465 -1.7315 -0.032 0.889 0.456 77 58 31 0 0
-0.0430 0.3468 -1.8292 -0.354 0.848 0.394 95 72 37 0 0
-0.0319 0.4317 -2.1024 -0.095 0.949 0.300 99 77 39 0 0
-0.0319 0.4318 -2.1085 0.083 0.945 0.316 143 115 69 0 0
-0.0317 0.4332 -2.1135 0.356 0.837 0.416 166 133 85 0 0
-0.0315 0.4344 -2.1187 0.399 0.711 0.579 166 136 93 0 0
-0.0256 0.4837 -2.2147 -0.001 0.969 0.247 90 68 31 0 0
-0.0232 0.5078 -2.2131 0.129 0.931 0.340 89 68 31 0 0
-0.0728 0.0904 -0.8953 -0.462 0.560 0.688 132 117 98 0 0
-0.0711 0.1038 -0.9352 0.112 0.979 0.168 79 59 32 0 0
-0.0745 0.0592 -1.0507 0.712 0.560 -0.424 103 98 87 0 0
-0.0739 0.0599 -1.1020 0.241 0.923 0.299 28 22 19 0 0
-0.0737 0.0613 -1.1067 0.241 0.923 0.299 33 25 21 0 0
-0.0735 0.0633 -1.1111 0.110 0.892 0.439 43 36 27 0 0
-0.0707 0.0848 -1.1760 0.335 0.896 0.292 71 52 22 0 0
-0.0705 0.0868 -1.1804 0.333 0.766 0.549 68 53 20 0 0
-0.0639 0.1479 -1.2184 0.119 0.815 0.567 145 125 68 0 0
-0.0484 0.2765 -1.4935 -0.342 0.709 0.616 168 136 86 0 0
-0.0451 0.3035 -1.5554 -0.544 0.711 0.447 97 73 33 0 0
-0.0435 0.3167 -1.5810 -0.192 0.962 0.196 71 52 26 0 0
-0.0343 0.4024 -1.6406 0.018 0.903 0.430 83 61 29 0 0
-0.0391 0.3463 -1.7313 0.074 0.864 0.497 64 47 23 0 0
-0.0355 0.3698 -1.8542 -0.071 0.974 0.214 98 75 41 0 0
-0.0354 0.3709 -1.8593 -0.071 0.974 0.214 99 76 41 0 0
-0.0143 0.5402 -2.2782 -0.159 0.858 0.488 195 195 195 0 0
-0.0663 0.1053 -0.9296 -0.015 0.902 0.432 87 66 38 0 0
-0.0664 0.1033 -0.9352 0.112 0.979 0.168 77 57 30 0 0
-0.0704 0.0512 -1.0533 0.719 0.566 -0.403 182 184 184 0 0
-0.0713 0.0373 -1.0997 0.669 0.743 -0.011 176 176 177 0 0
-0.0705 0.0444 -1.1023 0.754 0.539 0.375 116 114 112 0 0
-0.0694 0.0562 -1.1031 0.448 0.823 0.350 33 28 25 0 0
-0.0691 0.0580 -1.1077 0.448 0.823 0.350 39 31 27 0 0
-0.0594 0.1456 -1.2139 0.011 0.982 0.188 185 161 109 0 0
-0.0443 0.2718 -1.4632 0.018 0.948 0.318 103 81 40 0 0
-0.0400 0.3060 -1.5537 -0.459 0.798 0.391 106 79 39 0 0
-0.0338 0.3489 -1.7407 0.282 0.863 0.420 84 63 36 0 0
-0.0301 0.3743 -1.8625 -0.049 0.916 0.398 101 78 44 0 0
-0.0285 0.3901 -1.8633 0.140 0.782 0.608 101 78 44 0 0
-0.0284 0.3909 -1.8686 0.292 0.943 0.161 95 72 39 0 0
-0.0217 0.4356 -2.0863 0.137 0.793 0.594 82 59 28 0 0
-0.0219 0.4319 -2.1075 0.095 0.995 0.015 127 99 54 0 0
-0.0160 0.4836 -2.1766 -0.341 0.852 0.397 89 69 32 0 0
-0.0158 0.4849 -2.1818 0.206 0.785 0.584 88 70 34 0 0
-0.0151 0.4914 -2.1888 0.213 0.851 0.479 90 68 34 0 0
-0.0101 0.5363 -2.2437 0.018 0.867 0.497 91 73 37 0 0
-0.0615 0.1053 -0.9294 -0.015 0.902 0.432 90 69 40 0 0
-0.0655 0.0512 -1.0480 0.636 0.602 -0.482 182 183 185 0 0
-0.0527 0.1623 -1.2275 0.320 0.628 0.709 100 80 44 0 0
-0.0525 0.1504 -1.3550 0.507 0.194 0.839 183 147 90 0 0
-0.0516 0.1591 -1.3564 0.007 0.720 0.694 178 147 102 0 0
-0.0446 0.2246 -1.4112 0.245 0.891 0.383 207 176 122 0 0
-0.0404 0.2637 -1.4509 0.158 0.741 0.652 104 82 43 0 0
-0.0353 0.3051 -1.5484 -0.278 0.677 0.681 196 162 105 0 0
-0.0288 0.3482 -1.7579 0.211 0.948 -0.240 116 91 52 0 0
-0.0261 0.3662 -1.8501 0.295 0.751 0.591 86 63 31 0 0
-0.0262 0.3639 -1.8575 0.008 0.965 0.260 91 68 36 0 0
-0.0235 0.3897 -1.8749 0.416 0.885 0.209 92 69 37 0 0
-0.0171 0.4291 -2.1093 0.159 0.972 0.175 116 89 42 0 0
-0.0109 0.4842 -2.1819 -0.058 0.768 0.638 88 70 34 0 0
-0.0566 0.1073 -0.9286 -0.232 0.919 0.320 96 75 48 0 0
-0.0566 0.1071 -0.9336 -0.356 0.886 0.296 85 64 36 0 0
-0.0564 0.1035 -0.9793 -0.015 0.950 -0.312 64 47 22 0 0
-0.0523 0.1196 -1.1980 0.110 0.826 0.552 144 120 66 0 0
-0.0516 0.1262 -1.2057 0.036 0.789 0.614 155 131 76 0 0
-0.0400 0.2231 -1.4009 0.100 0.952 0.289 203 172 122 0 0
-0.0337 0.2787 -1.4861 0.044 0.823 0.566 146 116 72 0 0
-0.0307 0.3034 -1.5436 -0.462 0.515 0.722 188 154 93 0 0
-0.0302 0.3079 -1.5465 -0.462 0.515 0.722 198 166 108 0 0
-0.0299 0.3103 -1.5507 -0.515 0.795 0.320 130 104 56 0 0
-0.0247 0.3574 -1.6116 0.042 0.632 0.774 151 122 80 0 0
-0.0243 0.3613 -1.6148 0.042 0.632 0.774 146 118 78 0 0
-0.0239 0.3549 -1.6966 0.052 0.893 -0.448 102 82 55 0 0
-0.0237 0.3521 -1.7437 0.173 0.886 0.431 83 62 31 0 0
-0.0235 0.3514 -1.7670 0.175 0.901 0.396 80 56 24 0 0
-0.0225 0.3592 -1.7906 -0.300 0.945 0.127 88 68 31 0 0
-0.0214 0.3625 -1.8522 -0.086 0.925 0.369 85 62 31 0 0
-0.0119 0.4340 -2.0867 -0.619 0.783 -0.059 82 59 28 0 0
-0.0017 0.5231 -2.2292 -0.087 0.923 0.376 90 70 33 0 0
-0.0009 0.5297 -2.2360 0.079 0.824 0.560 92 73 37 0 0
-0.0573 0.0273 -1.1131 0.172 0.686 0.707 145 146 147 0 0
-0.0468 0.1259 -1.2056 0.036 0.789 0.614 149 124 70 0 0
-0.0326 0.2483 -1.4204 -0.034 0.950 0.311 150 122 75 0 0
-0.0306 0.2655 -1.4440 -0.094 0.909 0.406 106 83 46 0 0
-0.0281 0.2848 -1.4988 0.064 0.789 0.610 201 171 117 0 0
-0.0243 0.3154 -1.5749 -0.783 0.502 0.368 105 82 40 0 0
-0.0182 0.3751 -1.6118 -0.109 0.492 0.864 115 93 60 0 0
-0.0153 0.4001 -1.6517 -0.035 0.977 -0.209 89 65 36 0 0
-0.0154 0.3988 -1.6580 -0.090 0.976 -0.198 88 65 37 0 0
-0.0192 0.3532 -1.6973 0.399 0.826 -0.398 99 79 51 0 0
-0.0185 0.3496 -1.7908 0.289 0.823 0.489 83 63 30 0 0
-0.0161 0.3652 -1.8617 -0.066 0.971 0.231 86 63 31 0 0
-0.0136 0.3843 -1.9190 0.167 0.902 0.398 84 60 32 0 0
0.0044 0.5330 -2.2389 0.308 0.935 0.175 94 76 40 0 0
0.0067 0.5559 -2.2562 -0.472 0.730 0.494 173 172 169 0 0
-0.0493 0.0889 -0.8948 0.343 0.738 0.581 122 103 83 0 0
-0.0463 0.1099 -0.9767 -0.324 0.729 -0.603 66 48 22 0 0
-0.0530 0.0208 -1.1101 -0.346 0.656 0.671 184 185 187 0 0
-0.0526 0.0242 -1.1140 0.548 0.640 0.539 184 185 187 0 0
-0.0505 0.0440 -1.1329 -0.010 0.747 0.665 132 131 132 0 0
-0.0501 0.0473 -1.1369 -0.066 0.808 0.585 153 152 153 0 0
-0.0498 0.0501 -1.1410 0.081 0.810 0.581 161 160 161 0 0
-0.0364 0.1794 -1.2456 -0.037 0.956 0.292 134 110 72 0 0
-0.0198 0.3152 -1.5473 -0.557 0.716 0.422 139 110 65 0 0
-0.0102 0.4032 -1.6550 -0.421 0.906 0.039 93 70 43 0 0
-0.0143 0.3461 -1.7582 0.341 0.913 -0.224 115 92 51 0 0
-0.0047 0.4120 -2.0298 -0.121 0.840 0.529 82 57 26 0 0
0.0121 0.5607 -2.2577 -0.408 0.866 0.288 189 190 190 0 0
-0.0448 0.0863 -0.8954 0.462 0.747 0.478 123 105 83 0 0
-0.0421 0.1102 -0.9320 -0.190 0.954 0.232 82 61 33 0 0
-0.0419 0.1114 -0.9365 -0.190 0.954 0.232 86 65 36 0 0
-0.0418 0.1071 -0.9775 0.066 0.737 -0.673 70 51 25 0 0
-0.0458 0.0409 -1.1338 0.650 0.539 0.536 185 186 190 0 0
-0.0376 0.1206 -1.2021 -0.243 0.819 0.520 124 102 40 0 0
-0.0231 0.2464 -1.4154 0.010 0.831 0.556 172 142 95 0 0
-0.0208 0.2679 -1.4421 0.077 0.939 0.334 109 85 48 0 0
-0.0149 0.3112 -1.5877 0.088 0.652 0.753 71 49 20 0 0
-0.0095 0.3451 -1.7585 0.088 0.971 -0.225 114 90 50 0 0
-0.0010 0.4000 -2.0143 0.551 0.649 0.525 88 64 33 0 0
0.0181 0.5731 -2.2525 -0.294 0.956 -0.014 199 199 198 0 0
-0.0419 0.0453 -1.0284 0.363 0.662 -0.656 181 182 184 0 0
-0.0430 0.0195 -1.1258 0.744 0.485 0.460 185 186 188 0 0
-0.0415 0.0353 -1.1252 -0.059 0.903 0.425 186 187 189 0 0
-0.0360 0.0868 -1.1840 0.006 0.863 0.505 86 73 51 0 0
-0.0275 0.1687 -1.2602 0.369 0.926 0.074 65 46 15 0 0
-0.0280 0.1624 -1.2682 -0.403 0.915 -0.031 67 48 18 0 0
-0.0139 0.2827 -1.4936 0.006 0.977 0.212 138 114 76 0 0
-0.0137 0.2842 -1.4982 0.081 0.973 0.215 192 169 127 0 0
-0.0136 0.2822 -1.5157 -0.025 0.820 0.572 82 57 27 0 0
-0.0107 0.3100 -1.5441 0.231 0.972 0.031 160 129 70 0 0
-0.0106 0.3108 -1.5491 0.267 0.951 0.157 148 121 69 0 0
-0.0045 0.3492 -1.7384 -0.130 0.949 0.286 74 54 28 0 0
0.0015 0.3865 -1.9222 -0.070 0.913 0.401 83 60 29 0 0
0.0018 0.3897 -1.9259 -0.209 0.821 0.531 82 59 28 0 0
0.0035 0.3944 -2.0180 0.157 0.652 0.742 89 65 34 0 0
0.0100 0.4506 -2.1208 0.004 0.864 0.503 80 61 28 0 0
0.0223 0.5634 -2.2606 -0.055 0.951 -0.305 198 198 198 0 0
0.0231 0.5707 -2.2728 0.806 0.162 0.570 208 208 208 0 0
-0.0325 0.1064 -0.9674 -0.298 0.953 -0.056 75 54 27 0 0
-0.0374 0.0411 -1.0297 0.318 0.658 -0.682 181 182 184 0 0
-0.0320 0.0787 -1.1712 0.115 0.783 0.611 124 110 70 0 0
-0.0316 0.0825 -1.1750 0.127 0.752 0.646 79 65 41 0 0
-0.0283 0.1160 -1.1982 -0.180 0.940 0.290 121 103 49 0 0
-0.0222 0.1737 -1.2578 -0.431 0.826 -0.363 62 42 13 0 0
-0.0216 0.1679 -1.3399 0.119 0.825 0.553 165 134 76 0 0
-0.0214 0.1695 -1.3445 0.242 0.899 0.365 177 143 84 0 0
-0.0168 0.2142 -1.3824 -0.014 0.791 0.611 134 111 83 0 0
-0.0083 0.2824 -1.5481 -0.693 0.516 0.504 118 95 56 0 0
-0.0053 0.3122 -1.5700 -0.453 0.776 0.439 124 98 60 0 0
-0.0052 0.3129 -1.5751 0.569 0.787 -0.239 100 74 36 0 0
-0.0053 0.3110 -1.5817 0.573 0.819 -0.029 104 78 45 0 0
-0.0050 0.3130 -1.5861 -0.093 0.920 0.380 96 76 44 0 0
-0.0000 0.3499 -1.7036 0.293 0.955 0.047 95 75 47 0 0
0.0086 0.3955 -2.0169 -0.181 0.759 0.626 89 66 35 0 0
0.0274 0.5671 -2.2569 0.073 0.949 -0.307 197 197 197 0 0
-0.0315 0.0553 -1.0144 0.552 0.630 -0.546 182 182 182 0 0
-0.0321 0.0467 -1.0275 0.460 0.648 -0.607 181 182 184 0 0
-0.0281 0.0691 -1.1642 -0.465 0.583 0.667 94 84 64 0 0
-0.0258 0.0902 -1.1874 -0.048 0.838 0.543 74 63 35 0 0
-0.0195 0.1536 -1.2347 0.237 0.675 0.699 89 74 27 0 0
-0.0194 0.1548 -1.2394 0.301 0.891 0.339 113 90 55 0 0
-0.0172 0.1621 -1.3369 -0.306 0.883 0.357 147 118 63 0 0
-0.0047 0.2811 -1.4722 -0.182 0.964 0.193 67 44 16 0 0
-0.0009 0.3093 -1.5603 -0.352 0.836 0.422 74 53 21 0 0
-0.0006 0.3116 -1.5646 -0.352 0.836 0.422 83 62 28 0 0
-0.0003 0.3143 -1.5685 -0.453 0.776 0.439 124 98 59 0 0
-0.0006 0.3096 -1.5767 -0.017 1.000 -0.021 108 79 41 0 0
-0.0004 0.3107 -1.5816 -0.244 0.896 0.372 86 61 27 0 0
0.0048 0.3476 -1.7160 0.168 0.984 0.061 71 54 28 0 0
0.0052 0.3502 -1.7257 -0.120 0.974 0.194 73 56 30 0 0
0.0090 0.3676 -1.8758 0.056 0.987 0.148 82 61 30 0 0
0.0188 0.4416 -2.0965 -0.179 0.961 0.209 104 79 36 0 0
0.0191 0.4432 -2.1075 -0.081 0.907 0.412 190 155 99 0 0
0.0194 0.4454 -2.1118 -0.073 0.873 0.482 178 148 100 0 0
0.0197 0.4477 -2.1161 -0.020 0.883 0.469 111 90 52 0 0
0.0199 0.4482 -2.1280 -0.079 0.950 0.303 83 60 28 0 0
-0.0264 0.0797 -0.8966 -0.076 0.609 0.790 121 104 83 0 0
-0.0241 0.0902 -0.9823 0.328 0.676 -0.660 90 68 42 0 0
-0.0244 0.0855 -0.9889 0.139 0.653 -0.744 115 101 83 0 0
-0.0273 0.0476 -1.0168 0.596 0.575 -0.561 181 182 183 0 0
-0.0271 0.0478 -1.0270 0.805 0.422 -0.417 181 182 185 0 0
-0.0226 0.0746 -1.1671 -0.231 0.778 0.585 79 64 41 0 0
-0.0072 0.2129 -1.3824 -0.098 0.868 0.487 118 101 66 0 0
0.0003 0.2815 -1.4825 -0.180 0.915 0.362 165 136 93 0 0
0.0006 0.2830 -1.4925 -0.282 0.950 0.136 211 185 133 0 0
0.0008 0.2841 -1.4974 -0.245 0.952 0.186 199 174 125 0 0
0.0009 0.2842 -1.5027 -0.237 0.952 0.193 180 156 107 0 0
0.0027 0.3017 -1.5205 0.372 0.875 0.308 78 53 24 0 0
0.0039 0.3089 -1.5602 -0.601 0.633 0.488 77 55 22 0 0
0.0047 0.3163 -1.5671 -0.640 0.549 0.538 109 84 48 0 0
0.0105 0.3752 -1.6098 0.032 0.336 0.941 96 78 53 0 0
0.0110 0.3812 -1.6117 0.116 0.519 0.847 100 80 53 0 0
0.0101 0.3499 -1.7256 0.015 0.980 0.198 70 50 28 0 0
0.0232 0.4409 -2.0601 0.247 0.830 0.500 87 63 32 0 0
0.0236 0.4381 -2.0988 -0.066 0.902 0.426 115 87 45 0 0
-0.0040 0.1968 -1.3685 0.155 0.770 0.619 106 82 50 0 0
0.0074 0.2999 -1.5266 0.061 0.922 0.381 76 52 20 0 0
0.0097 0.3197 -1.5648 -0.667 0.590 0.455 116 91 55 0 0
0.0240 0.4064 -1.9895 0.066 0.970 0.236 88 63 33 0 0
0.0242 0.4076 -1.9946 0.066 0.970 0.236 87 62 31 0 0
0.0380 0.5215 -2.2394 0.266 0.836 0.480 89 70 37 0 0
0.0419 0.5649 -2.2513 -0.083 0.422 0.903 183 183 183 0 0
-0.0111 0.0920 -1.1807 0.416 0.804 0.425 83 68 42 0 0
-0.0111 0.0912 -1.1863 -0.024 0.921 0.388 90 77 51 0 0
-0.0026 0.1605 -1.3423 0.280 0.604 0.746 169 146 92 0 0
0.0054 0.2419 -1.4106 0.092 0.807 0.583 148 118 72 0 0
0.0098 0.2789 -1.4832 0.329 0.943 0.050 160 134 89 0 0
0.0108 0.2866 -1.5063 0.050 0.874 0.483 89 64 27 0 0
0.0120 0.2962 -1.5283 0.068 0.993 0.092 78 54 22 0 0
0.0195 0.3440 -1.7343 0.057 0.958 0.280 53 35 15 0 0
0.0199 0.3392 -1.7831 0.044 0.975 0.218 64 42 18 0 0
0.0273 0.3936 -1.9507 0.054 0.956 0.287 76 53 22 0 0
0.0324 0.4274 -2.0880 -0.249 0.909 0.336 84 59 28 0 0
0.0020 0.1803 -1.2327 0.200 0.942 0.269 136 113 82 0 0
0.0023 0.1819 -1.2373 0.081 0.859 0.505 123 100 65 0 0
0.0021 0.1595 -1.3371 0.517 0.740 0.430 134 111 62 0 0
0.0149 0.2847 -1.4745 0.037 0.939 0.343 76 55 24 0 0
0.0196 0.3233 -1.5622 -0.120 0.993 0.009 103 77 43 0 0
0.0272 0.4004 -1.6266 0.173 0.916 0.362 77 57 23 0 0
0.0380 0.4318 -2.1025 -0.115 0.783 0.611 109 87 46 0 0
0.0406 0.4568 -2.1317 -0.100 0.930 0.354 82 59 25 0 0
0.0444 0.4888 -2.1979 0.170 0.817 0.551 83 60 28 0 0
0.0514 0.5609 -2.2539 -0.249 0.968 0.026 182 182 182 0 0
-0.0016 0.0879 -1.1819 -0.121 0.921 0.371 70 57 31 0 0
0.0072 0.1837 -1.2362 0.144 0.585 0.798 136 115 77 0 0
0.0072 0.1607 -1.3416 -0.085 0.789 0.609 146 119 67 0 0
0.0104 0.1948 -1.3632 -0.035 0.826 0.562 147 123 89 0 0
0.0249 0.3294 -1.5584 0.628 0.778 0.020 102 76 41 0 0
0.0283 0.3609 -1.6060 -0.043 0.564 0.825 108 88 66 0 0
0.0293 0.3456 -1.7326 0.239 0.871 0.429 53 35 15 0 0
0.0323 0.3618 -1.8254 -0.041 0.964 0.263 79 55 28 0 0
0.0533 0.5254 -2.2471 -0.041 0.946 0.321 88 73 39 0 0
0.0564 0.5627 -2.2518 -0.416 0.908 -0.048 181 179 181 0 0
0.0012 0.1192 -0.9322 -0.179 0.982 0.067 84 63 36 0 0
0.0015 0.1218 -0.9412 -0.236 0.928 0.288 83 64 35 0 0
0.0013 0.1100 -0.9796 -0.356 0.744 -0.566 98 84 60 0 0
-0.0018 0.0645 -1.0100 -0.227 0.616 -0.755 181 182 184 0 0
0.0057 0.1145 -1.1971 -0.194 0.826 0.529 92 72 25 0 0
0.0116 0.1603 -1.3148 -0.043 0.963 0.266 66 48 22 0 0
0.0154 0.1960 -1.3677 0.061 0.835 0.547 128 107 75 0 0
0.0243 0.2831 -1.4693 0.388 0.786 0.482 69 49 21 0 0
0.0299 0.3239 -1.5942 0.243 0.613 0.752 105 82 45 0 0
0.0349 0.3461 -1.7661 -0.001 0.999 -0.033 111 84 45 0 0
0.0349 0.3454 -1.7723 -0.240 0.961 -0.139 64 43 12 0 0
0.0348 0.3416 -1.7805 -0.145 0.938 -0.315 61 39 15 0 0
0.0394 0.3734 -1.8930 0.080 0.935 0.345 85 62 32 0 0
0.0447 0.4091 -2.0219 -0.169 0.682 0.712 83 58 28 0 0
0.0548 0.4935 -2.1992 0.104 0.846 0.522 80 57 25 0 0
-0.0009 0.0419 -0.8971 -0.685 0.598 -0.416 178 178 180 0 0
0.0064 0.1144 -0.9779 -0.145 0.914 -0.378 96 80 56 0 0
0.0034 0.0690 -1.0083 -0.472 0.586 -0.659 181 182 184 0 0
0.0293 0.2858 -1.4676 0.088 0.817 0.570 70 49 23 0 0
0.0379 0.3608 -1.6053 0.060 0.667 0.742 131 111 80 0 0
0.0382 0.3645 -1.6087 0.060 0.667 0.742 115 98 72 0 0
0.0424 0.3631 -1.8354 0.143 0.959 0.245 76 52 24 0 0
0.0494 0.4096 -2.0091 0.052 0.998 0.032 85 60 29 0 0
0.0499 0.4126 -2.0189 -0.075 0.964 0.255 83 58 28 0 0
0.0502 0.4157 -2.0226 0.217 0.721 0.658 84 59 29 0 0
0.0501 0.4128 -2.0308 0.243 0.863 0.443 85 60 30 0 0
0.0555 0.4572 -2.1300 0.203 0.952 0.228 86 63 31 0 0
0.0092 0.1087 -0.9059 0.165 0.834 0.526 158 133 100 0 0
0.0112 0.1254 -0.9396 0.133 0.968 0.212 73 53 28 0 0
0.0114 0.1193 -0.9711 -0.180 0.912 -0.369 94 76 41 0 0
0.0113 0.1170 -0.9768 -0.180 0.912 -0.369 90 73 47 0 0
0.0112 0.1138 -0.9829 -0.315 0.896 -0.312 123 115 104 0 0
0.0113 0.1147 -0.9875 -0.411 0.868 0.280 180 182 181 0 0
0.0280 0.2258 -1.3956 0.056 0.819 0.571 211 189 149 0 0
0.0337 0.2785 -1.4766 0.342 0.903 0.260 79 59 24 0 0
0.0386 0.3161 -1.5759 0.160 0.933 0.321 76 51 20 0 0
0.0425 0.3581 -1.6066 0.256 0.546 0.797 120 96 65 0 0
0.0428 0.3619 -1.6099 0.005 0.881 0.473 121 100 72 0 0
0.0463 0.3987 -1.6427 0.028 0.980 0.196 94 71 39 0 0
0.0459 0.3875 -1.6662 0.213 0.711 -0.670 111 89 56 0 0
0.0452 0.3755 -1.6792 0.213 0.711 -0.670 80 64 39 0 0
0.0446 0.3633 -1.6922 0.213 0.711 -0.670 77 62 42 0 0
0.0439 0.3447 -1.7321 -0.095 0.975 0.200 62 43 21 0 0
0.0443 0.3481 -1.7413 -0.226 0.879 0.419 80 58 28 0 0
0.0493 0.3722 -1.8989 0.252 0.921 0.298 82 59 28 0 0
0.0553 0.4132 -2.0422 0.066 0.898 0.435 113 88 43 0 0
0.0558 0.4186 -2.0441 0.133 0.909 0.396 153 123 75 0 0
0.0568 0.4237 -2.0765 0.345 0.764 0.545 81 58 26 0 0
0.0162 0.1193 -0.9759 -0.311 0.907 -0.285 101 84 56 0 0
0.0162 0.1180 -0.9813 -0.331 0.910 -0.249 111 101 88 0 0
0.0165 0.1204 -0.9854 -0.138 0.413 0.900 177 178 176 0 0
0.0257 0.1649 -1.2748 -0.164 0.984 -0.070 56 50 31 0 0
0.0263 0.1592 -1.3252 0.502 0.840 0.204 41 25 9 0 0
0.0264 0.1565 -1.3371 -0.137 0.976 0.170 127 101 59 0 0
0.0382 0.2758 -1.4723 0.372 0.898 0.234 71 49 21 0 0
0.0384 0.2768 -1.4771 0.342 0.903 0.260 76 55 23 0 0
0.0411 0.2937 -1.5443 -0.245 0.969 -0.043 190 167 113 0 0
0.0412 0.2935 -1.5499 -0.245 0.969 -0.043 192 165 106 0 0
0.0441 0.3237 -1.5823 -0.233 0.970 0.068 85 61 27 0 0
0.0444 0.3242 -1.5930 -0.096 0.892 0.442 115 93 46 0 0
0.0474 0.3600 -1.6052 0.144 0.772 0.619 126 101 70 0 0
0.0479 0.3662 -1.6070 -0.217 0.669 0.711 132 110 81 0 0
0.0511 0.4016 -1.6352 0.136 0.962 0.236 81 58 27 0 0
0.0511 0.3985 -1.6426 0.168 0.971 0.172 93 70 38 0 0
0.0503 0.3819 -1.6693 0.404 0.681 -0.611 100 79 46 0 0
0.0498 0.3712 -1.6814 0.294 0.696 -0.655 84 68 43 0 0
0.0503 0.3476 -1.7986 0.066 0.975 0.211 90 66 39 0 0
0.0597 0.4121 -2.0185 -0.204 0.840 0.503 82 57 26 0 0
0.0592 0.3991 -2.0403 0.135 0.916 0.378 83 59 27 0 0
0.0604 0.4141 -2.0410 -0.069 0.990 0.121 113 88 43 0 0
0.0606 0.4159 -2.0458 -0.090 0.991 0.098 153 123 74 0 0
0.0607 0.4164 -2.0514 -0.090 0.991 0.098 137 110 65 0 0
0.0615 0.4225 -2.0649 0.157 0.926 0.343 82 59 26 0 0
0.0698 0.4925 -2.2111 0.335 0.902 0.272 80 57 26 0 0
0.0211 0.1200 -0.9804 -0.367 0.917 -0.154 98 88 70 0 0
0.0212 0.1211 -0.9849 -0.134 0.453 0.881 159 157 152 0 0
0.0174 0.0127 -1.1892 -0.197 -0.201 0.960 119 111 100 0 0
0.0237 0.0988 -1.1815 -0.041 0.925 0.378 50 41 21 0 0
0.0295 0.1662 -1.2164 0.314 0.916 0.249 127 102 60 0 0
0.0297 0.1678 -1.2210 0.258 0.875 0.409 173 151 111 0 0
0.0304 0.1621 -1.2758 0.264 0.965 0.000 52 47 28 0 0
0.0312 0.1618 -1.3131 -0.310 0.907 -0.286 73 52 31 0 0
0.0312 0.1604 -1.3190 0.019 0.991 -0.135 59 41 22 0 0
0.0312 0.1596 -1.3247 0.019 0.991 -0.135 41 25 8 0 0
0.0427 0.2735 -1.4624 0.306 0.803 0.512 93 70 39 0 0
0.0430 0.2747 -1.4726 0.471 0.856 0.212 72 49 24 0 0
0.0444 0.2859 -1.4991 0.070 0.909 0.412 76 55 25 0 0
0.0446 0.2874 -1.5038 0.160 0.955 0.251 66 44 20 0 0
0.0448 0.2886 -1.5086 0.160 0.955 0.251 68 47 22 0 0
0.0449 0.2898 -1.5133 0.160 0.955 0.251 72 50 23 0 0
0.0467 0.3009 -1.5564 0.172 0.793 0.584 82 58 20 0 0
0.0473 0.3074 -1.5637 0.075 0.740 0.668 75 50 21 0 0
0.0490 0.3237 -1.5875 0.220 0.875 0.430 129 105 64 0 0
0.0498 0.3307 -1.6000 0.664 0.524 0.533 150 126 80 0 0
0.0548 0.3767 -1.6722 0.443 0.669 -0.597 96 76 42 0 0
0.0543 0.3666 -1.6840 0.321 0.706 -0.631 79 64 39 0 0
0.0536 0.3480 -1.7180 -0.085 0.994 0.068 74 54 30 0 0
0.0547 0.3441 -1.7832 -0.120 0.961 0.248 85 62 31 0 0
0.0550 0.3476 -1.7867 -0.105 0.966 0.237 87 62 35 0 0
0.0652 0.4121 -2.0421 0.459 0.797 0.392 110 85 39 0 0
0.0656 0.4160 -2.0452 0.487 0.873 -0.002 160 130 83 0 0
0.0660 0.4192 -2.0549 0.007 0.867 0.497 98 76 38 0 0
0.0763 0.5102 -2.2206 0.210 0.827 0.522 65 45 19 0 0
0.0280 0.0944 -1.1726 -0.269 0.788 0.554 78 64 43 0 0
0.0286 0.1003 -1.1807 -0.269 0.788 0.554 60 47 25 0 0
0.0352 0.1635 -1.2697 0.044 0.991 -0.130 33 26 6 0 0
0.0353 0.1614 -1.2811 0.176 0.980 0.090 36 31 15 0 0
0.0362 0.1646 -1.3115 0.057 0.961 -0.271 62 41 20 0 0
0.0361 0.1580 -1.3305 0.491 0.870 0.039 77 56 26 0 0
0.0361 0.1564 -1.3366 0.179 0.758 0.627 129 99 55 0 0
0.0474 0.2720 -1.4629 0.034 0.946 0.323 89 65 36 0 0
0.0494 0.2870 -1.5036 0.001 0.979 0.204 55 37 17 0 0
0.0521 0.3069 -1.5637 0.075 0.740 0.668 69 46 16 0 0
0.0549 0.3350 -1.5972 0.515 0.692 0.506 148 124 77 0 0
0.0560 0.3466 -1.6069 0.066 0.801 0.595 125 103 72 0 0
0.0592 0.3704 -1.6757 0.372 0.697 -0.613 106 85 52 0 0
0.0588 0.3620 -1.6865 0.357 0.708 -0.609 86 70 46 0 0
0.0590 0.3496 -1.7393 0.027 0.986 0.167 84 62 31 0 0
0.0600 0.3483 -1.7859 0.005 0.978 0.210 93 67 41 0 0
0.0635 0.3678 -1.8832 -0.042 0.908 0.417 80 59 28 0 0
0.0639 0.3700 -1.8934 -0.159 0.964 0.213 84 61 30 0 0
0.0679 0.3975 -1.9864 0.407 0.767 0.496 87 64 32 0 0
0.0702 0.4130 -2.0410 0.453 0.891 0.023 107 83 36 0 0
0.0704 0.4144 -2.0461 0.492 0.851 0.187 140 110 63 0 0
0.0707 0.4162 -2.0507 0.358 0.828 0.431 128 100 58 0 0
0.0749 0.4518 -2.1264 -0.201 0.958 0.205 80 57 27 0 0
0.0784 0.4829 -2.1812 0.258 0.923 0.284 79 59 29 0 0
0.0838 0.5359 -2.2539 0.162 0.708 0.688 80 68 40 0 0
0.0857 0.5567 -2.2668 -0.209 0.021 0.978 201 201 203 0 0
0.0312 0.1312 -0.9762 0.254 0.966 -0.037 92 78 54 0 0
0.0312 0.1272 -0.9874 -0.157 0.604 0.781 173 172 167 0 0
0.0330 0.0961 -1.1717 -0.293 0.861 0.416 106 88 65 0 0
0.0336 0.1015 -1.1800 -0.269 0.788 0.554 77 63 36 0 0
0.0407 0.1775 -1.2528 0.185 0.803 -0.566 44 31 13 0 0
0.0402 0.1681 -1.2621 0.288 0.826 -0.484 39 31 12 0 0
0.0410 0.1564 -1.3363 0.170 0.737 0.654 139 108 64 0 0
0.0540 0.2863 -1.4983 0.114 0.969 0.220 48 29 12 0 0
0.0542 0.2881 -1.5028 -0.134 0.922 0.364 93 71 49 0 0
0.0619 0.3613 -1.6090 -0.015 0.410 0.912 98 82 61 0 0
0.0648 0.3946 -1.6330 0.076 0.960 0.271 75 51 24 0 0
0.0638 0.3676 -1.6771 0.411 0.680 -0.607 108 89 54 0 0
0.0639 0.3495 -1.7390 0.193 0.913 0.360 86 64 31 0 0
0.0638 0.3385 -1.7689 0.061 0.991 0.116 83 58 26 0 0
0.0675 0.3614 -1.8638 0.272 0.882 0.384 81 58 27 0 0
0.0682 0.3657 -1.8784 0.009 0.934 0.358 81 60 29 0 0
0.0684 0.3678 -1.8828 -0.042 0.908 0.417 80 59 28 0 0
0.0733 0.4015 -1.9951 0.451 0.746 0.490 82 57 27 0 0
0.0736 0.4032 -1.9999 0.417 0.833 0.363 80 55 25 0 0
0.0798 0.4515 -2.1263 0.427 0.864 0.266 78 57 25 0 0
0.0846 0.4936 -2.2027 0.026 0.971 0.236 71 49 25 0 0
0.0864 0.5104 -2.2319 0.181 0.876 0.447 64 46 24 0 0
0.0883 0.5329 -2.2436 -0.170 0.879 0.445 78 65 33 0 0
0.0330 0.1142 -0.8983 0.259 0.821 0.508 173 150 121 0 0
0.0359 0.1300 -0.9764 0.254 0.966 -0.037 94 77 49 0 0
0.0352 0.0583 -1.1706 -0.138 -0.054 0.989 120 112 104 0 0
0.0378 0.0953 -1.1717 0.085 0.828 0.554 103 86 63 0 0
0.0438 0.1657 -1.2159 -0.055 0.951 0.304 108 92 52 0 0
0.0441 0.1684 -1.2199 -0.181 0.922 0.341 125 108 72 0 0
0.0454 0.1760 -1.2532 0.259 0.788 -0.558 50 37 18 0 0
0.0571 0.2699 -1.4742 0.019 0.992 0.125 71 51 24 0 0
0.0614 0.3030 -1.5598 0.061 0.998 -0.004 78 55 26 0 0
0.0624 0.3100 -1.5833 0.563 0.731 0.385 84 61 27 0 0
0.0629 0.3142 -1.5920 0.580 0.760 0.292 131 108 67 0 0
0.0634 0.3195 -1.5944 0.349 0.581 0.735 113 89 47 0 0
0.0637 0.3235 -1.5977 0.349 0.581 0.735 132 107 62 0 0
0.0687 0.3372 -1.7751 0.121 0.986 -0.116 54 32 11 0 0
0.0709 0.3499 -1.8303 -0.241 0.913 0.328 85 60 29 0 0
0.0719 0.3617 -1.8399 0.076 0.926 0.371 78 55 25 0 0
0.0746 0.3743 -1.9191 0.282 0.908 0.310 80 55 25 0 0
0.0777 0.3961 -1.9867 0.348 0.718 0.603 83 58 28 0 0
0.0790 0.3970 -2.0402 0.091 0.952 0.293 78 54 18 0 0
0.0930 0.5275 -2.2478 -0.018 0.869 0.494 77 64 32 0 0
0.0932 0.5299 -2.2519 -0.018 0.869 0.494 80 68 38 0 0
0.0375 0.1123 -0.8987 0.211 0.851 0.482 181 157 123 0 0
0.0405 0.1312 -0.9708 0.125 0.963 0.241 71 53 24 0 0
0.0481 0.1610 -1.2072 0.110 0.993 0.049 152 133 94 0 0
0.0484 0.1643 -1.2110 -0.168 0.876 0.451 104 88 52 0 0
0.0497 0.1656 -1.2627 0.170 0.841 -0.513 50 39 19 0 0
0.0567 0.2196 -1.4024 -0.009 0.934 0.356 148 120 77 0 0
0.0672 0.3063 -1.5907 -0.200 0.581 0.789 94 72 36 0 0
0.0766 0.3595 -1.8352 0.076 0.926 0.371 81 58 27 0 0
0.0768 0.3613 -1.8398 0.076 0.926 0.371 79 56 26 0 0
0.0818 0.3937 -1.9582 -0.153 0.922 0.356 75 51 23 0 0
0.0826 0.3954 -1.9868 0.260 0.745 0.614 80 54 27 0 0
0.0829 0.3984 -1.9906 0.260 0.745 0.614 77 52 24 0 0
0.0839 0.3965 -2.0402 0.091 0.952 0.293 80 56 21 0 0
0.0892 0.4465 -2.1171 0.335 0.817 0.470 77 56 25 0 0
0.0895 0.4489 -2.1214 0.335 0.817 0.470 71 50 23 0 0
0.0903 0.4543 -2.1415 0.074 0.905 0.420 72 50 26 0 0
0.0939 0.4899 -2.1863 0.161 0.898 0.410 75 53 29 0 0
0.0958 0.5064 -2.2220 0.107 0.860 0.499 46 33 17 0 0
0.0467 0.0855 -1.1647 -0.049 0.409 0.911 119 107 88 0 0
0.0472 0.0909 -1.1678 0.072 0.821 0.567 70 54 26 0 0
0.0575 0.1777 -1.3525 -0.176 0.941 0.288 143 117 77 0 0
0.0678 0.2778 -1.4965 0.056 0.768 0.638 178 151 106 0 0
0.0683 0.2840 -1.4986 0.065 0.873 0.483 95 72 40 0 0
0.0709 0.3037 -1.5533 0.275 0.932 0.236 76 53 21 0 0
0.0751 0.3455 -1.6063 -0.144 0.396 0.907 118 103 75 0 0
0.0812 0.3536 -1.8388 0.188 0.954 0.234 83 60 29 0 0
0.0862 0.3770 -1.9819 -0.094 0.796 0.598 80 57 26 0 0
0.0865 0.3799 -1.9857 -0.094 0.796 0.598 78 55 24 0 0
0.0876 0.3952 -1.9866 0.376 0.756 0.536 77 51 24 0 0
0.0936 0.4403 -2.1094 0.335 0.817 0.470 130 109 73 0 0
0.0939 0.4439 -2.1127 0.331 0.731 0.597 95 73 41 0 0
0.0944 0.4473 -2.1222 0.335 0.817 0.470 73 52 25 0 0
0.0489 0.1254 -0.9429 -0.204 0.935 0.290 90 70 38 0 0
0.0491 0.1269 -0.9473 -0.137 0.945 0.297 83 64 33 0 0
0.0531 0.1040 -1.1728 -0.072 0.626 0.776 85 68 31 0 0
0.0596 0.1618 -1.2796 0.133 0.839 0.528 30 25 10 0 0
0.0825 0.3548 -1.6892 -0.190 0.822 -0.537 88 71 44 0 0
0.0850 0.3508 -1.7997 -0.144 0.988 0.056 99 77 43 0 0
0.0854 0.3516 -1.8165 0.110 0.756 0.645 60 41 19 0 0
0.0856 0.3515 -1.8223 -0.007 0.907 0.421 87 63 32 0 0
0.0885 0.3672 -1.8993 0.114 0.934 0.338 84 58 31 0 0
0.0909 0.3804 -1.9611 -0.176 0.874 0.453 74 50 24 0 0
0.0921 0.3904 -1.9837 0.424 0.811 0.402 76 53 24 0 0
0.0932 0.4003 -2.0003 0.310 0.812 0.494 75 49 22 0 0
0.0934 0.4007 -2.0061 0.171 0.863 0.475 74 48 21 0 0
0.0971 0.4253 -2.0902 -0.037 0.999 0.007 76 51 23 0 0
0.0985 0.4387 -2.1102 0.335 0.817 0.470 123 103 72 0 0
0.0515 0.1126 -0.8932 -0.129 0.928 0.350 119 101 78 0 0
0.0517 0.1142 -0.8975 -0.133 0.956 0.262 181 160 128 0 0
0.0642 0.1583 -1.2809 0.068 0.997 0.025 27 23 7 0 0
0.0765 0.2683 -1.4847 -0.145 0.781 0.608 102 77 46 0 0
0.0895 0.3437 -1.8040 0.282 0.957 0.071 94 75 42 0 0
0.0897 0.3448 -1.8091 0.238 0.948 0.209 65 49 22 0 0
0.0899 0.3467 -1.8136 0.260 0.881 0.396 43 28 9 0 0
0.0936 0.3682 -1.9041 0.149 0.930 0.336 78 52 25 0 0
0.0959 0.3816 -1.9598 0.204 0.916 0.344 74 50 24 0 0
0.0596 0.0679 -1.1395 -0.885 0.454 0.102 190 191 193 0 0
0.0763 0.2213 -1.4058 -0.060 0.882 0.467 139 115 79 0 0
0.0836 0.2903 -1.5161 0.090 0.942 0.322 75 52 21 0 0
0.0840 0.2927 -1.5256 0.604 0.682 0.411 76 53 20 0 0
0.0865 0.3061 -1.5895 -0.275 0.681 0.679 95 71 25 0 0
0.0867 0.3074 -1.5943 0.237 0.391 0.889 141 114 71 0 0
0.0875 0.3182 -1.5991 0.362 0.213 0.908 142 117 74 0 0
0.0924 0.3598 -1.6855 0.218 0.798 -0.561 84 67 42 0 0
0.0926 0.3392 -1.7435 0.032 0.982 0.184 93 69 36 0 0
0.0930 0.3416 -1.7533 0.194 0.938 0.287 113 87 50 0 0
0.0933 0.3444 -1.7572 0.089 0.851 0.517 116 88 52 0 0
0.0934 0.3433 -1.7637 0.262 0.960 0.098 81 57 30 0 0
0.0935 0.3438 -1.7691 0.262 0.960 0.098 56 36 12 0 0
0.1008 0.3803 -1.9603 0.083 0.943 0.323 73 49 23 0 0
0.1036 0.4020 -2.0163 -0.030 0.872 0.489 73 49 21 0 0
0.1047 0.4051 -2.0502 -0.011 0.827 0.563 138 107 67 0 0
0.1050 0.4077 -2.0542 0.030 0.847 0.531 123 97 64 0 0
0.1061 0.4189 -2.0700 0.247 0.929 0.275 68 46 18 0 0
0.0700 0.1400 -1.1784 0.017 0.949 0.316 112 89 44 0 0
0.0887 0.2900 -1.5268 0.636 0.642 0.428 78 56 24 0 0
0.0909 0.3014 -1.5863 0.720 0.655 0.231 83 59 23 0 0
0.0912 0.3031 -1.5909 0.539 0.646 0.540 93 69 26 0 0
0.0914 0.3044 -1.5957 0.445 0.439 0.781 144 118 76 0 0
0.0917 0.3077 -1.5993 0.388 0.133 0.912 110 83 43 0 0
0.0922 0.3155 -1.6004 0.362 0.213 0.908 155 128 82 0 0
0.0974 0.3632 -1.6830 0.133 0.773 -0.621 84 68 43 0 0
0.0974 0.3390 -1.7432 0.032 0.982 0.184 86 62 28 0 0
0.0976 0.3399 -1.7483 0.032 0.982 0.184 95 72 37 0 0
0.0981 0.3438 -1.7573 0.096 0.895 0.436 117 93 55 0 0
0.0716 0.1013 -1.1469 -0.298 0.845 0.444 188 189 190 0 0
0.0905 0.2653 -1.4745 0.191 0.884 0.427 73 54 24 0 0
0.0929 0.2774 -1.5334 0.104 0.981 0.162 78 55 23 0 0
0.0964 0.3045 -1.6009 0.388 0.133 0.912 112 85 43 0 0
0.1017 0.3829 -1.6210 0.230 0.800 0.555 121 98 62 0 0
0.1010 0.3370 -1.6988 0.020 0.886 -0.464 82 65 41 0 0
0.1023 0.3388 -1.7430 0.290 0.956 0.049 91 67 33 0 0
0.1050 0.3444 -1.8314 0.423 0.895 0.139 88 63 32 0 0
0.1106 0.3784 -1.9609 0.209 0.893 0.399 72 47 22 0 0
0.1133 0.3972 -2.0190 0.192 0.959 0.206 70 48 21 0 0
0.1135 0.3928 -2.0344 0.084 0.772 0.630 70 45 18 0 0
0.1143 0.4048 -2.0374 0.100 0.971 0.219 77 59 29 0 0
0.1162 0.4195 -2.0748 0.195 0.910 0.365 54 34 10 0 0
0.1166 0.4207 -2.0860 0.089 0.946 0.312 60 39 15 0 0
0.1169 0.4243 -2.0893 0.229 0.950 0.214 64 42 17 0 0
0.1267 0.5184 -2.2400 0.032 0.752 0.658 57 42 20 0 0
0.0752 0.1539 -0.9863 0.234 0.924 0.303 95 77 49 0 0
0.0758 0.0961 -1.1332 -0.607 0.693 0.390 186 186 188 0 0
0.0978 0.2805 -1.5314 0.111 0.909 0.401 79 55 24 0 0
0.1077 0.3937 -1.6415 0.121 0.967 0.226 85 64 35 0 0
0.1082 0.3978 -1.6500 -0.262 0.342 0.902 98 77 49 0 0
0.1057 0.3336 -1.7006 0.160 0.883 -0.442 84 68 44 0 0
0.1057 0.3297 -1.7086 0.131 0.927 -0.350 75 60 38 0 0
0.1069 0.3370 -1.7381 0.074 0.982 0.175 77 54 26 0 0
0.1071 0.3373 -1.7436 0.290 0.956 0.049 89 65 31 0 0
0.1100 0.3455 -1.8303 0.053 0.942 0.332 91 66 35 0 0
0.1102 0.3472 -1.8350 0.053 0.942 0.332 90 66 34 0 0
0.1219 0.4248 -2.0885 0.182 0.891 0.415 62 41 16 0 0
0.1228 0.4321 -2.1072 0.060 0.978 0.200 114 89 54 0 0
0.0928 0.1852 -1.3792 0.225 0.737 0.637 141 118 82 0 0
0.0975 0.2403 -1.4328 0.172 0.919 0.354 89 64 32 0 0
0.1010 0.2707 -1.4928 -0.229 0.734 0.639 138 112 83 0 0
0.1013 0.2740 -1.4964 -0.229 0.734 0.639 115 91 62 0 0
0.1125 0.3924 -1.6475 0.227 0.820 0.526 83 63 34 0 0
0.1114 0.3537 -1.6879 0.034 0.744 -0.668 90 73 50 0 0
0.1108 0.3357 -1.7046 -0.196 0.823 -0.533 81 66 44 0 0
0.1110 0.3283 -1.7261 0.255 0.807 0.533 64 47 29 0 0
0.1128 0.3329 -1.7804 0.034 0.938 0.344 85 61 30 0 0
0.1146 0.3423 -1.8263 0.423 0.726 0.542 87 61 31 0 0
0.1165 0.3528 -1.8717 -0.002 0.967 0.254 81 58 27 0 0
0.1277 0.4307 -2.1078 0.173 0.983 0.057 112 86 52 0 0
0.0922 0.1274 -1.3036 0.764 0.621 0.175 62 49 28 0 0
0.1020 0.2364 -1.4291 0.051 0.975 0.217 98 74 38 0 0
0.1097 0.2957 -1.5773 -0.063 0.974 0.216 70 46 20 0 0
0.1162 0.3541 -1.6872 -0.015 0.738 -0.674 88 72 49 0 0
0.1156 0.3337 -1.7054 -0.101 0.867 -0.487 82 67 46 0 0
0.1168 0.3374 -1.7428 0.016 0.998 0.066 84 61 30 0 0
0.1168 0.3313 -1.7524 0.240 0.970 0.046 105 82 49 0 0
0.1197 0.3422 -1.8318 0.239 0.855 0.460 89 64 34 0 0
0.1219 0.3534 -1.8885 0.319 0.789 0.525 83 60 29 0 0
0.1280 0.3967 -2.0122 0.270 0.922 0.279 61 39 17 0 0
0.1324 0.4290 -2.1027 0.321 0.936 0.147 110 83 46 0 0
0.1329 0.4308 -2.1135 0.280 0.646 0.710 119 96 67 0 0
0.1412 0.5141 -2.2361 0.315 0.935 0.162 63 48 25 0 0
0.1414 0.5161 -2.2406 0.284 0.844 0.454 63 49 24 0 0
0.0972 0.1379 -1.2881 0.779 0.577 0.246 56 43 23 0 0
0.1068 0.2362 -1.4289 0.005 0.976 0.219 95 72 38 0 0
0.1081 0.2467 -1.4505 0.005 0.921 0.391 74 51 26 0 0
0.1114 0.2772 -1.5050 0.101 0.879 0.466 73 50 20 0 0
0.1119 0.2735 -1.5288 0.411 0.780 0.471 72 51 18 0 0
0.1121 0.2759 -1.5330 0.411 0.780 0.471 78 54 21 0 0
0.1214 0.3854 -1.6401 0.078 0.877 0.474 90 69 40 0 0
0.1212 0.3583 -1.6843 0.094 0.742 -0.664 83 67 44 0 0
0.1228 0.3312 -1.7923 0.276 0.870 0.410 95 71 38 0 0
0.1254 0.3517 -1.8425 -0.057 0.948 0.314 81 58 27 0 0
0.1263 0.3472 -1.8806 0.290 0.845 0.448 79 56 25 0 0
0.1266 0.3494 -1.8850 0.373 0.814 0.445 83 60 29 0 0
0.1268 0.3516 -1.8894 0.373 0.814 0.445 83 60 29 0 0
0.1305 0.3733 -1.9749 0.104 0.952 0.288 69 47 23 0 0
0.1341 0.3993 -2.0460 0.154 0.929 0.336 117 95 56 0 0
0.1452 0.4977 -2.2373 -0.039 0.938 0.344 50 36 20 0 0
0.1464 0.5177 -2.2388 0.079 0.903 0.421 60 48 24 0 0
0.1012 0.1653 -1.2079 0.199 0.909 0.366 114 89 55 0 0
0.1019 0.1349 -1.2892 0.802 0.490 0.340 59 44 24 0 0
0.1022 0.1301 -1.3073 0.606 0.786 -0.120 65 50 27 0 0
0.1116 0.2354 -1.4290 0.119 0.941 0.317 103 80 47 0 0
0.1118 0.2369 -1.4337 0.119 0.941 0.317 79 56 22 0 0
0.1265 0.3867 -1.6500 0.389 0.918 0.078 96 76 51 0 0
0.1252 0.3221 -1.7233 0.121 0.931 0.345 72 56 37 0 0
0.1261 0.3288 -1.7419 0.286 0.873 0.395 91 70 42 0 0
0.1310 0.3466 -1.8748 -0.065 0.895 0.441 79 56 25 0 0
0.1315 0.3503 -1.8840 -0.036 0.970 0.239 78 55 24 0 0
0.1318 0.3525 -1.8884 -0.037 0.896 0.443 78 55 24 0 0
0.1355 0.3736 -1.9743 0.234 0.859 0.455 68 46 23 0 0
0.1361 0.3744 -1.9917 -0.234 0.726 0.647 56 34 15 0 0
0.1393 0.4019 -2.0497 0.244 0.926 0.287 128 105 73 0 0
0.1455 0.4551 -2.1607 0.200 0.859 0.472 48 32 16 0 0
0.1479 0.4792 -2.1965 -0.005 0.930 0.367 54 38 23 0 0
0.1482 0.4816 -2.2007 0.026 0.736 0.676 60 44 29 0 0
0.1499 0.4960 -2.2320 -0.039 0.938 0.344 51 38 22 0 0
0.1502 0.4979 -2.2366 -0.098 0.891 0.444 58 46 28 0 0
0.1513 0.5191 -2.2371 0.074 0.905 0.419 61 50 28 0 0
0.1060 0.1241 -1.2830 0.495 0.848 0.189 47 35 16 0 0
0.1062 0.1252 -1.2878 0.547 0.714 0.437 70 55 34 0 0
0.1066 0.1288 -1.2916 0.678 0.678 0.284 57 39 17 0 0
0.1067 0.1285 -1.2970 0.580 0.794 0.183 72 55 34 0 0
0.1112 0.1714 -1.3685 0.041 0.715 0.698 131 111 81 0 0
0.1119 0.1786 -1.3812 -0.150 0.889 0.433 136 116 85 0 0
0.1164 0.2348 -1.4291 0.212 0.944 0.253 99 76 41 0 0
0.1277 0.3430 -1.6097 -0.165 0.374 0.912 151 126 96 0 0
0.1281 0.3488 -1.6118 0.007 0.396 0.918 120 94 63 0 0
0.1313 0.3878 -1.6490 0.093 0.924 -0.371 96 76 49 0 0
0.1300 0.3213 -1.7235 0.130 0.967 0.219 74 58 39 0 0
0.1365 0.3510 -1.8832 -0.146 0.978 0.151 78 53 24 0 0
0.1367 0.3521 -1.8883 0.000 0.982 0.190 77 54 23 0 0
0.1428 0.3905 -2.0216 0.364 0.813 0.454 53 34 14 0 0
0.1486 0.4362 -2.1325 0.073 0.980 0.183 48 32 16 0 0
0.1566 0.5186 -2.2495 -0.294 0.933 0.207 69 60 32 0 0
0.1112 0.1239 -1.2935 0.671 0.661 0.336 76 58 32 0 0
0.1115 0.1262 -1.2978 0.580 0.759 0.294 77 61 36 0 0
0.1163 0.1728 -1.3729 0.132 0.689 0.712 135 110 70 0 0
0.1194 0.2113 -1.4082 -0.001 0.869 0.495 117 91 53 0 0
0.1291 0.2930 -1.5831 0.210 0.770 0.603 85 62 26 0 0
0.1298 0.3004 -1.5954 0.317 0.903 0.289 117 92 52 0 0
0.1359 0.3839 -1.6511 0.094 0.946 -0.311 84 62 38 0 0
0.1478 0.3918 -2.0202 0.042 0.990 0.135 49 31 11 0 0
0.1490 0.3993 -2.0448 0.096 0.878 0.469 116 92 58 0 0
0.1492 0.4015 -2.0492 0.111 0.892 0.439 117 93 60 0 0
0.1500 0.4044 -2.0713 0.224 0.865 0.449 49 32 12 0 0
0.1564 0.4628 -2.1782 -0.073 0.963 0.261 46 30 14 0 0
0.1600 0.4983 -2.2353 0.022 0.954 0.299 67 55 32 0 0
0.1623 0.5279 -2.2597 0.404 0.888 0.220 144 141 131 0 0
0.1097 0.1450 -1.0573 0.082 0.988 -0.129 103 83 53 0 0
0.1343 0.2990 -1.5848 0.123 0.986 0.109 83 62 28 0 0
0.1345 0.3001 -1.5897 0.088 0.975 0.203 111 88 55 0 0
0.1390 0.3710 -1.6200 0.105 0.780 0.616 107 84 43 0 0
0.1401 0.3770 -1.6439 0.219 0.950 0.222 94 74 41 0 0
0.1395 0.3144 -1.7270 0.402 0.899 0.173 62 46 24 0 0
0.1413 0.3190 -1.7757 0.046 0.984 0.172 65 45 18 0 0
0.1438 0.3342 -1.8294 -0.040 0.992 0.121 85 62 32 0 0
0.1445 0.3402 -1.8429 0.158 0.967 0.200 80 56 27 0 0
0.1674 0.5257 -2.2674 -0.335 0.762 0.554 179 178 176 0 0
0.1189 0.1539 -1.1807 -0.061 0.903 0.426 73 55 25 0 0
0.1356 0.2503 -1.5509 0.336 0.864 0.375 140 116 64 0 0
0.1358 0.2528 -1.5551 0.359 0.820 0.446 163 132 79 0 0
0.1361 0.2550 -1.5594 0.359 0.820 0.446 147 118 74 0 0
0.1387 0.2927 -1.5826 0.149 0.733 0.664 92 71 36 0 0
0.1390 0.2956 -1.5864 -0.016 0.888 0.460 88 67 34 0 0
0.1427 0.3540 -1.6133 -0.206 0.497 0.843 137 118 85 0 0
0.1448 0.3587 -1.6712 0.465 0.628 -0.624 88 71 47 0 0
0.1456 0.3226 -1.7501 -0.053 0.987 0.153 94 70 38 0 0
0.1462 0.3178 -1.7761 0.119 0.991 -0.064 63 43 16 0 0
0.1485 0.3340 -1.8234 0.088 0.996 0.019 80 57 26 0 0
0.1487 0.3338 -1.8293 -0.015 0.971 0.238 84 61 31 0 0
0.1561 0.3881 -1.9742 -0.085 0.803 0.590 54 36 14 0 0
0.1609 0.4111 -2.0897 0.277 0.956 0.099 61 40 20 0 0
0.1611 0.4116 -2.0953 0.277 0.956 0.099 68 48 27 0 0
0.1696 0.4943 -2.2316 0.267 0.877 0.399 64 49 30 0 0
0.1723 0.5251 -2.2674 0.475 0.842 0.258 181 180 178 0 0
0.1346 0.2167 -1.4208 0.070 0.890 0.450 94 72 37 0 0
0.1350 0.2177 -1.4311 0.095 0.983 0.155 100 79 47 0 0
0.1390 0.2495 -1.5071 0.217 0.918 0.331 77 52 27 0 0
0.1407 0.2527 -1.5548 -0.247 0.719 0.650 155 126 78 0 0
0.1410 0.2555 -1.5588 0.012 0.854 0.520 125 97 57 0 0
0.1491 0.3711 -1.6357 0.178 0.947 0.267 85 61 32 0 0
0.1493 0.3742 -1.6394 0.195 0.935 0.296 94 73 45 0 0
0.1520 0.3175 -1.8048 0.148 0.916 0.372 113 91 55 0 0
0.1555 0.3409 -1.8768 0.312 0.880 0.358 79 58 31 0 0
0.1602 0.3461 -2.0103 -0.281 0.875 0.395 49 32 12 0 0
0.1761 0.5099 -2.2552 -0.040 0.882 0.470 66 57 29 0 0
0.1200 0.1429 -0.9439 -0.010 0.950 0.313 79 58 34 0 0
0.1223 0.1518 -0.9997 -0.112 0.991 -0.069 82 62 37 0 0
0.1226 0.1468 -1.0162 0.357 0.765 0.536 84 67 39 0 0
0.1279 0.1590 -1.1576 -0.298 0.898 0.324 77 57 27 0 0
0.1392 0.2163 -1.4153 -0.006 0.935 0.355 104 83 51 0 0
0.1437 0.2344 -1.5258 0.153 0.889 0.431 67 44 18 0 0
0.1447 0.2550 -1.5257 0.140 0.990 0.031 70 49 21 0 0
0.1453 0.2580 -1.5406 0.679 0.729 0.091 85 64 31 0 0
0.1494 0.3029 -1.5983 0.148 0.454 0.879 130 106 68 0 0
0.1525 0.3569 -1.6164 0.215 0.497 0.841 150 128 95 0 0
0.1539 0.3325 -1.6922 -0.098 0.759 -0.643 73 58 35 0 0
0.1581 0.3315 -1.8185 0.156 0.942 0.298 81 58 27 0 0
0.1585 0.3313 -1.8302 0.064 0.962 0.266 84 60 31 0 0
0.1680 0.3906 -2.0316 0.304 0.927 0.221 79 55 28 0 0
0.1715 0.4130 -2.1056 -0.096 0.921 0.377 103 77 38 0 0
0.1775 0.4783 -2.1946 0.126 0.816 0.564 50 34 18 0 0
0.1787 0.4848 -2.2201 -0.027 0.946 0.324 56 41 22 0 0
0.1246 0.1429 -0.9437 0.086 0.965 0.246 81 59 31 0 0
0.1291 0.1494 -1.0649 -0.235 0.972 -0.020 69 53 27 0 0
0.1312 0.1562 -1.1177 -0.339 0.864 0.373 72 53 24 0 0
0.1316 0.1578 -1.1272 -0.335 0.934 0.125 72 50 21 0 0
0.1327 0.1603 -1.1568 -0.298 0.898 0.324 82 61 33 0 0
0.1485 0.2306 -1.5275 0.401 0.879 0.257 63 41 17 0 0
0.1495 0.2520 -1.5271 0.062 0.868 0.493 66 45 19 0 0
0.1494 0.2417 -1.5381 -0.146 0.966 0.211 71 50 23 0 0
0.1498 0.2511 -1.5385 -0.107 0.851 0.515 66 46 17 0 0
0.1501 0.2549 -1.5420 0.435 0.775 0.459 94 71 41 0 0
0.1540 0.3028 -1.5924 0.268 0.785 0.558 110 87 51 0 0
0.1630 0.3299 -1.8192 0.171 0.928 0.330 76 52 23 0 0
0.1781 0.4315 -2.1275 0.088 0.847 0.525 48 33 14 0 0
0.1286 0.1380 -0.9306 0.082 0.908 0.411 127 103 68 0 0
0.1293 0.1445 -0.9430 0.323 0.880 0.348 78 54 25 0 0
0.1588 0.3014 -1.5929 0.257 0.829 0.497 122 97 55 0 0
0.1590 0.3045 -1.5967 0.226 0.668 0.709 147 122 78 0 0
0.1630 0.3657 -1.6325 0.236 0.935 0.266 67 45 22 0 0
0.1632 0.3670 -1.6372 0.236 0.935 0.266 79 56 31 0 0
0.1676 0.3286 -1.8139 0.268 0.858 0.437 82 60 30 0 0
0.1802 0.4039 -2.0813 0.128 0.974 0.185 51 33 16 0 0
0.1911 0.5133 -2.2571 0.137 0.990 -0.020 89 80 63 0 0
0.1555 0.2266 -1.4525 0.319 0.809 0.493 69 48 28 0 0
0.1557 0.2290 -1.4567 0.319 0.809 0.493 56 36 12 0 0
0.1560 0.2315 -1.4608 0.314 0.827 0.466 68 47 22 0 0
0.1730 0.3329 -1.8223 -0.067 0.965 0.252 80 59 30 0 0
0.1762 0.3348 -1.9089 0.055 0.948 0.313 67 45 21 0 0
0.1800 0.3602 -1.9864 0.235 0.891 0.389 59 41 18 0 0
0.1902 0.4509 -2.1663 0.173 0.936 0.306 54 39 20 0 0
0.1905 0.4528 -2.1709 0.115 0.944 0.310 53 38 19 0 0
0.1907 0.4539 -2.1763 0.154 0.803 0.576 53 38 19 0 0
0.1397 0.1447 -0.9718 0.339 0.939 0.064 71 50 23 0 0
0.1464 0.1617 -1.1403 0.203 0.979 -0.025 67 47 22 0 0
0.1654 0.2537 -1.5638 0.312 0.950 0.023 76 53 22 0 0
0.1779 0.3327 -1.8220 -0.003 0.938 0.347 80 59 30 0 0
0.1847 0.3574 -1.9821 0.160 0.960 0.229 62 45 20 0 0
0.1849 0.3583 -1.9874 0.199 0.894 0.401 61 43 19 0 0
0.1905 0.3973 -2.0977 0.056 0.976 0.212 78 57 30 0 0
0.1908 0.4060 -2.0971 0.171 0.959 0.224 79 57 25 0 0
0.1717 0.2760 -1.5787 0.256 0.584 0.770 86 66 34 0 0
0.1734 0.2980 -1.5994 0.314 0.574 0.756 143 115 75 0 0
0.1779 0.3693 -1.6459 0.268 0.960 -0.081 106 82 51 0 0
0.1845 0.3300 -1.8702 0.297 0.917 0.265 73 51 27 0 0
0.1847 0.3313 -1.8751 0.174 0.916 0.362 76 55 28 0 0
0.1877 0.3447 -1.9429 0.507 0.755 0.416 63 41 20 0 0
0.1894 0.3551 -1.9773 0.186 0.970 0.153 67 50 24 0 0
0.1896 0.3559 -1.9827 0.186 0.970 0.153 63 45 20 0 0
0.1899 0.3574 -1.9877 0.199 0.894 0.401 60 43 18 0 0
0.2036 0.4844 -2.2244 0.161 0.931 0.329 59 44 25 0 0
0.1486 0.1383 -0.9687 0.172 0.976 0.131 73 52 27 0 0
0.1491 0.1411 -0.9775 -0.223 0.890 0.397 71 47 22 0 0
0.1734 0.2388 -1.5326 0.162 0.926 0.340 69 50 23 0 0
0.1742 0.2461 -1.5452 0.642 0.492 0.588 156 130 83 0 0
0.1744 0.2502 -1.5485 0.673 0.532 0.513 148 119 77 0 0
0.1781 0.2925 -1.6023 -0.069 0.508 0.858 141 114 74 0 0
0.1825 0.3346 -1.6777 0.266 0.697 -0.666 80 59 37 0 0
0.1930 0.3488 -1.9455 0.259 0.938 0.231 63 43 18 0 0
0.1932 0.3501 -1.9506 0.308 0.923 0.230 64 44 19 0 0
0.1937 0.3529 -1.9605 0.254 0.961 0.113 63 43 18 0 0
0.1939 0.3525 -1.9668 0.108 0.992 0.069 64 44 19 0 0
0.1941 0.3529 -1.9725 0.108 0.992 0.069 67 50 24 0 0
0.1944 0.3532 -1.9782 0.108 0.992 0.069 69 52 26 0 0
0.1946 0.3550 -1.9830 0.186 0.970 0.153 63 45 21 0 0
0.1950 0.3545 -1.9954 0.343 0.935 0.093 58 40 16 0 0
0.1974 0.3685 -2.0455 0.108 0.854 0.508 101 75 36 0 0
0.1977 0.3710 -2.0498 0.108 0.854 0.508 117 91 51 0 0
0.1979 0.3735 -2.0540 0.108 0.854 0.508 109 85 49 0 0
0.1982 0.3762 -2.0581 0.083 0.954 0.287 69 48 20 0 0
0.1997 0.3867 -2.0867 -0.068 0.961 0.268 41 24 8 0 0
0.2108 0.5045 -2.2629 0.358 0.807 0.470 117 112 101 0 0
0.2110 0.5053 -2.2684 0.078 0.701 0.708 159 158 154 0 0
0.1535 0.1389 -0.9732 0.018 0.928 0.373 76 56 29 0 0
0.1593 0.1638 -1.1033 -0.256 0.852 0.457 70 50 23 0 0
0.1596 0.1665 -1.1073 -0.177 0.884 0.432 72 51 27 0 0
0.1620 0.0617 -1.2747 0.740 0.522 -0.425 201 200 200 0 0
0.1783 0.2381 -1.5327 0.438 0.893 0.104 65 44 20 0 0
0.1953 0.3351 -1.8895 -0.368 0.894 0.254 79 57 32 0 0
0.1956 0.3376 -1.8937 -0.330 0.805 0.492 74 52 26 0 0
0.1993 0.3517 -1.9789 0.261 0.923 0.283 68 50 25 0 0
0.1995 0.3520 -1.9847 0.290 0.952 0.094 64 46 22 0 0
0.2000 0.3530 -1.9961 0.291 0.956 0.040 60 42 18 0 0
0.2023 0.3773 -2.0326 0.170 0.765 0.621 85 63 28 0 0
0.2032 0.3737 -2.0595 0.239 0.949 0.205 69 47 19 0 0
0.2034 0.3762 -2.0637 0.326 0.887 0.328 57 37 12 0 0
0.2046 0.3865 -2.0864 -0.108 0.933 0.342 46 26 9 0 0
0.2049 0.3883 -2.0911 -0.208 0.874 0.439 53 34 14 0 0
0.2127 0.4744 -2.2132 0.339 0.773 0.537 59 42 21 0 0
0.2154 0.5005 -2.2596 0.323 0.659 0.679 91 84 69 0 0
0.2157 0.5028 -2.2638 0.358 0.807 0.470 127 123 113 0 0
0.2162 0.5064 -2.2733 -0.017 0.772 0.635 184 184 183 0 0
0.1584 0.1410 -0.9771 0.195 0.923 0.333 80 59 34 0 0
0.1631 0.1629 -1.0783 0.281 0.958 -0.056 74 53 32 0 0
0.1632 0.1631 -1.0833 0.138 0.966 -0.221 74 54 31 0 0
0.1634 0.1627 -1.0884 0.137 0.980 -0.147 69 49 25 0 0
0.1666 0.0670 -1.2614 0.697 0.548 -0.462 149 147 144 0 0
0.1666 0.0585 -1.2704 0.740 0.522 -0.425 195 195 194 0 0
0.1757 0.1708 -1.4029 0.212 0.937 0.277 144 114 80 0 0
0.1847 0.2443 -1.5677 0.475 0.646 0.598 85 62 28 0 0
0.1968 0.3028 -1.8286 0.120 0.671 0.732 75 54 28 0 0
0.2045 0.3530 -1.9836 0.297 0.955 0.005 64 46 22 0 0
0.2099 0.3890 -2.0902 0.069 0.920 0.386 67 46 23 0 0
0.2111 0.4011 -2.1115 0.112 0.836 0.538 146 117 73 0 0
0.2211 0.5083 -2.2711 0.014 0.651 0.759 187 187 187 0 0
0.1713 0.0577 -1.2651 0.664 0.573 -0.480 198 199 202 0 0
0.1853 0.2131 -1.4849 -0.021 0.870 0.492 108 85 46 0 0
0.2008 0.2975 -1.8083 0.078 0.980 -0.184 85 65 35 0 0
0.2117 0.3643 -2.0293 0.712 0.664 0.229 59 43 19 0 0
0.2213 0.4579 -2.1950 0.195 0.864 0.464 62 44 21 0 0
0.2216 0.4602 -2.1993 0.195 0.864 0.464 61 43 20 0 0
0.2255 0.5007 -2.2648 0.279 0.874 0.397 152 148 140 0 0
0.1761 0.0497 -1.2682 0.620 0.603 -0.503 199 200 204 0 0
0.1901 0.2125 -1.4849 -0.066 0.943 0.327 135 109 69 0 0
0.2031 0.2855 -1.7519 0.073 0.992 0.102 91 75 42 0 0
0.2033 0.2827 -1.7594 0.156 0.972 0.175 99 78 46 0 0
0.2061 0.2949 -1.8213 0.117 0.816 0.566 77 56 28 0 0
0.2117 0.3251 -1.9367 0.196 0.939 0.283 65 43 20 0 0
0.2211 0.3978 -2.1132 0.334 0.638 0.694 154 124 80 0 0
0.2283 0.4815 -2.2246 0.346 0.862 0.371 66 51 29 0 0
0.2300 0.4945 -2.2571 0.007 0.849 0.528 82 75 58 0 0
0.2302 0.4967 -2.2615 0.026 0.916 0.401 117 112 101 0 0
0.2305 0.4987 -2.2661 0.026 0.916 0.401 159 155 150 0 0
0.2307 0.4983 -2.2726 0.336 0.698 0.632 180 179 179 0 0
0.1806 0.0607 -1.2473 0.634 0.672 -0.382 197 197 198 0 0
0.1933 0.1972 -1.4542 0.434 0.715 0.549 99 78 46 0 0
0.1950 0.2127 -1.4845 -0.066 0.943 0.327 149 123 79 0 0
0.2034 0.3237 -1.6048 0.066 0.462 0.884 160 138 100 0 0
0.2103 0.2901 -1.8065 0.179 0.939 0.292 88 69 39 0 0
0.2167 0.3242 -1.9370 0.196 0.939 0.283 66 44 20 0 0
0.2223 0.3565 -2.0524 0.602 0.798 -0.008 119 94 57 0 0
0.2226 0.3578 -2.0575 0.704 0.680 0.205 97 74 40 0 0
0.2260 0.3946 -2.1153 0.458 0.763 0.456 152 122 82 0 0
0.2270 0.4067 -2.1304 -0.131 0.903 0.410 70 49 19 0 0
0.2332 0.4768 -2.2281 0.353 0.722 0.596 67 51 28 0 0
0.2349 0.4911 -2.2596 0.311 0.862 0.400 85 78 62 0 0
0.2352 0.4938 -2.2636 0.257 0.913 0.317 126 122 112 0 0
0.2363 0.5224 -2.2700 -0.527 0.647 0.551 203 204 206 0 0
0.1744 0.0916 -0.9484 0.804 0.466 0.371 89 76 58 0 0
0.1795 0.1303 -1.0444 0.632 0.666 0.397 93 80 59 0 0
0.1853 0.0579 -1.2428 0.646 0.657 -0.389 199 198 202 0 0
0.2134 0.2846 -1.7633 -0.377 0.782 0.496 79 58 29 0 0
0.2153 0.2890 -1.8069 0.082 0.943 0.324 81 62 32 0 0
0.2155 0.2895 -1.8124 -0.076 0.961 0.264 82 63 33 0 0
0.2158 0.2889 -1.8186 0.035 0.985 0.170 79 58 29 0 0
0.2167 0.2969 -1.8368 0.381 0.730 0.568 73 53 29 0 0
0.2209 0.3189 -1.9223 0.205 0.925 0.320 62 40 17 0 0
0.2305 0.3902 -2.1059 0.358 0.929 0.097 138 108 65 0 0
0.2394 0.4882 -2.2492 0.052 0.939 0.339 59 46 29 0 0
0.2399 0.4894 -2.2606 0.262 0.940 0.219 91 84 68 0 0
0.2401 0.4905 -2.2659 0.262 0.940 0.219 131 128 119 0 0
0.2404 0.4916 -2.2712 0.114 0.873 0.474 166 164 167 0 0
0.2412 0.5245 -2.2677 -0.527 0.647 0.551 203 204 206 0 0
0.2067 0.2091 -1.5354 0.405 0.861 0.309 77 57 29 0 0
0.2171 0.2718 -1.7421 0.198 0.912 0.358 78 61 37 0 0
0.2176 0.2787 -1.7494 0.415 0.888 0.200 91 76 50 0 0
0.2212 0.2887 -1.8301 -0.204 0.904 0.376 71 50 25 0 0
0.2236 0.3031 -1.8794 -0.020 0.937 0.348 70 50 25 0 0
0.2256 0.3150 -1.9187 -0.059 0.959 0.278 70 48 25 0 0
0.2451 0.4911 -2.2649 0.325 0.886 0.329 137 135 127 0 0
0.2453 0.4922 -2.2703 0.165 0.715 0.679 171 171 170 0 0
0.2113 0.2031 -1.5327 0.217 0.954 0.208 81 60 35 0 0
0.2169 0.2965 -1.6030 0.038 0.432 0.901 132 107 74 0 0
0.2198 0.3394 -1.6443 0.359 0.933 -0.025 81 61 38 0 0
0.2232 0.2756 -1.7682 0.600 0.664 0.447 78 59 30 0 0
0.2308 0.3187 -1.9218 -0.183 0.936 0.300 73 51 27 0 0
0.2311 0.3203 -1.9266 -0.183 0.936 0.300 73 51 27 0 0
0.2316 0.3199 -1.9388 -0.095 0.967 0.236 72 51 26 0 0
0.2318 0.3200 -1.9447 0.238 0.893 0.382 70 50 24 0 0
0.2459 0.4463 -2.1962 0.198 0.873 0.447 75 54 25 0 0
0.2464 0.4513 -2.2045 0.172 0.856 0.488 75 54 27 0 0
