ply
format ascii 1.0
element vertex 671
property float x
property float y
property float z
property uchar diffuse_red
property uchar diffuse_green
property uchar diffuse_blue
end_header
0.08201086446363959 -0.4517927651239969 -2.1573273033694136 116 97 71
0.06094502914930433 -0.45834355150142253 -2.1472543988799453 116 97 70
0.04965167193438447 -0.461993480102655 -2.14468875721106 117 97 70
0.038743268082312654 -0.4655273282567024 -2.1423816574289622 116 97 69
0.03582551451428362 -0.46669242460951404 -2.146278482820385 117 96 66
0.022404675311772593 -0.4709671729898044 -2.1419409297734364 117 96 65
0.020925047536393127 -0.47170507584815824 -2.1469363523122906 117 97 65
0.06262774971338969 -0.4596667541424466 -2.1859668495443056 116 96 64
0.09100475147821085 -0.45157924124818943 -2.214662230485202 117 96 64
0.0546044320148279 -0.4626498334515302 -2.1921508053747956 116 96 64
0.02296884413068534 -0.47230469872604525 -2.173271619940581 116 96 63
0.007069363087858105 -0.4773041276616929 -2.166802526575091 116 96 63
0.005926109707973359 -0.47794269641192194 -2.172066928576763 117 96 64
-0.004497263086321812 -0.48132102951301636 -2.169895544826762 122 100 69
-0.0037353557712846985 -0.4813967495849146 -2.1766784856159567 121 98 66
-0.011455938349039907 -0.4839753084328161 -2.1766351477294967 119 97 64
-0.02217224198357326 -0.487435965210603 -2.1741436845442816 119 96 62
-0.0213674676015273 -0.4874986801915136 -2.180953798392439 118 95 61
-0.025363718298887727 -0.488976658104232 -2.183873090734027 117 94 60
-0.03136996608955933 -0.491046219562794 -2.185144350542375 117 94 60
-0.03482452773022526 -0.4923635945543971 -2.1884837085913933 118 95 61
-0.04018656180219937 -0.4942420475855489 -2.1902523131231146 118 95 60
-0.042615204578133725 -0.495256726787683 -2.1944175099999965 116 94 58
-0.04593841428275314 -0.49653439578080494 -2.1978430830368505 115 93 58
-0.052711100371311215 -0.4988258474815006 -2.1984102053953634 116 93 59
-0.05534713864923324 -0.49990059374965384 -2.2023853650329634 116 93 59
-0.058681840248754114 -0.5011804315305344 -2.2057766024028505 116 93 59
-0.058078333133582793 -0.501303540116137 -2.2124454364477515 117 94 60
-0.05921514317058163 -0.5019380705713201 -2.21767114884463 118 95 62
-0.06401161848426262 -0.5036466009025482 -2.2198322858850457 119 96 63
-0.07976059095288668 -0.5085668946750282 -2.2127713906772275 121 98 64
-0.08455818417380467 -0.5102732357897454 -2.2148799120342733 124 101 66
-0.08651014453388062 -0.5111449510923181 -2.2193812075950783 125 102 67
-0.09286610560502151 -0.5133068756975978 -2.220148840003818 121 99 66
-0.09217843947639359 -0.5134050937094774 -2.2268841966471546 118 96 64
-0.09231775547217114 -0.5137460059911001 -2.2329270509949057 115 94 63
-0.10709479421069124 -0.5183706097769772 -2.2264653617926884 113 93 61
-0.11089357010577927 -0.5197810939454968 -2.2293541441710687 109 89 59
-0.11655326420699186 -0.5217352706959661 -2.2306347201051 112 92 61
-0.11917491041855133 -0.5228006559034328 -2.234516460877871 116 96 64
-0.11780104593707263 -0.5226985659411492 -2.24184840707141 117 98 66
-0.11623147159533487 -0.5225400907175927 -2.2493657873102917 112 94 62
-0.10860434521677753 -0.5206140632060089 -2.2621641757498585 108 90 58
-0.1036306455155176 -0.5194645596194238 -2.272695938754053 106 87 58
-0.09660683055250885 -0.517718655646498 -2.2850521472322822 109 88 61
-0.1018870438627083 -0.5195624572866142 -2.28667084048136 113 96 72
-0.11574905845676031 -0.5239067830426395 -2.2807342331797313 119 106 87
-0.12480104003064563 -0.5268469516706397 -2.2789782628929354 129 122 108
-0.1342336213359141 -0.5298963138914067 -2.276852240429543 144 140 133
-0.14294810056881946 -0.532734884524548 -2.2753265126161746 161 157 153
-0.15249002566832337 -0.5358126622844706 -2.2730335096452623 173 171 170
-0.15852799870432166 -0.5378694335540295 -2.2738244813341066 184 183 184
-0.16051280887956265 -0.5387467368917427 -2.27821507391838 191 191 192
-0.17024997694191446 -0.541877223059429 -2.27566435561684 196 196 198
-0.17242555543485671 -0.5428090235884445 -2.279864662587785 199 199 202
-0.17025617903215828 -0.5424789509950874 -2.287975181624871 201 201 203
-0.18646282769262518 -0.5474842683616428 -2.2795191077076713 203 203 204
-0.23581355449876318 -0.5621037685518596 -2.240996966063394 206 206 206
-0.19424775353484663 -0.5503411864639802 -2.284748903299335 207 207 207
-0.20301354731135296 -0.5531819109548173 -2.2829152592738553 208 208 207
-0.22002776244471467 -0.5584115583460285 -2.2735229033691025 208 208 208
-0.23366721529749462 -0.5626599517047755 -2.267144098234262 208 208 208
-0.24050732077225162 -0.5649365958577919 -2.266944573324655 209 209 209
-0.2378654109025239 -0.5644673895041946 -2.275441352010701 209 209 209
-0.2372138555929897 -0.564575162719655 -2.2821250731538907 210 210 210
-0.2543756919936496 -0.5698355737997839 -2.272351273302208 211 211 211
-0.26386298746727527 -0.5728736038629861 -2.26961713954118 211 211 211
-1.5038117766262653 -0.9498990848482403 -1.5010234444481618 216 216 216
-1.4724806613293164 -0.9415003499752603 -1.5436014280822241 216 216 216
-1.4680767370415628 -0.9404764216962798 -1.5528012772481374 216 216 216
0.029438458598645578 -0.41395636975031025 -1.1153277209788524 189 190 192
0.027587421337288642 -0.4147694913295328 -1.1193161070909134 189 190 192
0.03229948870928953 -0.4135092142708032 -1.1260042923174902 190 191 193
0.4947235662443933 -0.2679577001883387 -1.327382137636842 191 192 194
0.5521852034944723 -0.2500872824699084 -1.3569002071782255 192 193 195
0.47488310164148895 -0.27475579672560485 -1.3302481731937257 192 193 195
-0.005340856472547506 -0.42721575715523863 -1.1482806102027259 194 195 197
-0.019360487413928262 -0.43186246643781345 -1.1470411232067999 195 196 198
-0.007968035265659534 -0.428500326307268 -1.1566559571111397 196 197 199
-0.002486081631653758 -0.4270021737281856 -1.1637720219533252 197 198 200
0.17422000681803737 -0.37158522211290446 -1.244939647731015 197 198 200
0.2046015037572344 -0.3622650200125479 -1.2632167159283094 197 198 200
0.18290128682025392 -0.3693424689824332 -1.2589073800510004 198 199 201
0.21338097496773092 -0.3599978969617996 -1.277363174505802 199 200 202
0.19688637995661562 -0.36543552428646275 -1.2752935007609727 200 201 203
0.26454154629702986 -0.38506492960923394 -2.156022070390207 149 136 125
0.25618735811569093 -0.38788749768727554 -2.156399033639813 148 134 121
0.23843736197575527 -0.39353357487776375 -2.1498991750736742 146 133 119
0.2234588696581934 -0.39834345131362076 -2.145358239877744 143 130 114
0.20773759206883113 -0.40337380680928786 -2.1402168014060474 138 126 110
0.1935836200938914 -0.4079306097347578 -2.1361691088244172 136 123 107
0.18322087877252025 -0.4113466646651984 -2.1348659560603895 134 121 105
0.17335992080395246 -0.4146103936707951 -2.133898102561126 134 119 103
0.16486154075526527 -0.41746369825819357 -2.133907560005154 132 116 100
0.15887288491989704 -0.4195629623132808 -2.135757012261642 130 114 98
0.14552394305228877 -0.42386806689595335 -2.1320950718451144 127 111 95
0.14049133516351608 -0.42567838568797783 -2.1346100233585648 124 108 92
0.1304334807193337 -0.42899362187290485 -2.1333386910645187 124 108 91
0.13246905675796683 -0.4286853175100943 -2.1411395661130164 122 106 87
0.128009771328919 -0.4303223390238299 -2.1440531318706935 123 106 88
0.1173641164711503 -0.4338102963516984 -2.142270105393937 122 105 86
0.10638772736427271 -0.43739537976907183 -2.140197962251444 120 103 85
0.0980336698493034 -0.4401943220752966 -2.1400843995388175 122 105 87
0.09200620264299342 -0.44229637171136726 -2.1417207848216453 123 105 85
0.0902456991135292 -0.44312238740097826 -2.1466095540676795 120 102 79
0.09043941181364301 -0.44336465598511504 -2.153001614777755 116 97 72
0.07958087325398733 -0.4469080233865646 -2.15088465875847 111 92 65
0.052042330818108384 -0.45542899086002536 -2.135834365793423 110 93 65
0.040954927366926075 -0.45903509055605485 -2.133424196862456 116 97 69
0.028639581623231214 -0.46300555843297936 -2.1300188292474562 117 97 70
0.03020738482969265 -0.46283374946670003 -2.137392601691074 117 96 67
0.0225904348114897 -0.4654006889092984 -2.1376001898255876 117 96 66
0.031205459696309168 -0.4631294237067949 -2.150512201894469 117 97 64
0.022821527293525934 -0.4659241724968415 -2.1501028015274755 117 97 64
0.07679112240090324 -0.45015019500445763 -2.1988447878395605 117 97 64
0.07118760693500803 -0.45212131289552915 -2.20071801367029 117 97 64
0.03665637268181565 -0.46269934683709973 -2.1796285016702766 117 97 64
0.028353679246891916 -0.46546864843522295 -2.179257046215631 116 96 63
0.0030935826029786506 -0.47327871011436995 -2.1653290344121348 117 97 64
-0.0005493944757291036 -0.4746584145229755 -2.1685902298026747 118 97 64
-0.00650037130132286 -0.4767235218163457 -2.16999229185642 122 99 67
-0.013189598348752107 -0.4790070377683186 -2.170782451405636 121 98 64
-0.018276808418157153 -0.4808138849056854 -2.172843916424141 120 97 63
-0.021363677691538796 -0.4820263685677109 -2.1765099182128225 119 96 62
-0.033993893365258265 -0.48606996855593193 -2.1724271129259822 120 97 63
-0.03353151575039004 -0.48622831439588954 -2.1789495183696572 120 97 63
-0.03608383902385093 -0.48728095082773354 -2.183023142194453 120 97 63
-0.04049352577628362 -0.4888839003086334 -2.185574312117562 119 96 62
-0.0426403801869647 -0.4898159706529536 -2.189971330839388 118 95 61
-0.049211069259356366 -0.4920580446554686 -2.1907271784824993 118 95 61
-0.05154895229399126 -0.4930461071141534 -2.1949549829739197 117 94 60
-0.059250901530835676 -0.49562137121048244 -2.1947422043758498 117 94 60
-0.05846804829935659 -0.4956855764952594 -2.201544195061998 117 94 60
-0.06805162464978887 -0.498815615819029 -2.19973235345007 116 93 59
-0.06556143206781628 -0.4983752547857909 -2.2079607938628367 117 94 60
-0.07858675002731996 -0.5025201604138261 -2.2032263452783236 118 95 63
-0.06859387294409547 -0.49986413736564766 -2.2177562135510667 120 97 64
-0.08662476052056911 -0.5054845190507724 -2.2087604724964653 123 100 66
-0.07816798398043912 -0.5032840702694381 -2.2220405260679117 125 102 68
-0.08387660933737418 -0.505264970503063 -2.2233832788858128 124 101 67
-0.11938283997912924 -0.5160324108194838 -2.199425452693954 123 100 67
-0.11767191480898409 -0.5158210682281723 -2.206976271768582 121 98 66
-0.11562213443730696 -0.5155107019027813 -2.2148334412037674 117 96 64
-0.11870724439000402 -0.5167137935714331 -2.2183163655361855 112 92 61
-0.1155216090187231 -0.5160702099483389 -2.2271736798824464 108 89 57
-0.12534420921368017 -0.5192565950723881 -2.2248648429230378 112 92 61
-0.12596674183126366 -0.5197343236452003 -2.230455065471591 113 92 61
-0.12167780337324463 -0.5187678480563604 -2.2402999998624202 115 94 63
-0.12993265865349035 -0.521490613444872 -2.2392945886563016 117 96 65
-0.11934381336277611 -0.5186741355746496 -2.254648335749965 115 96 65
-0.11558820746283327 -0.5178679063004183 -2.264102422585951 112 93 63
-0.10663964984854246 -0.5155380661232422 -2.2781249919847992 112 92 65
-0.10265838996646093 -0.5146688203585229 -2.287843959245591 110 91 65
-0.11339441555813201 -0.5181193327412188 -2.284651007252351 110 95 71
-0.12526060527771754 -0.5218993193485969 -2.2804197887673974 118 107 90
-0.13417716434998828 -0.5248122191541273 -2.2787488478952773 131 124 112
-0.14399284506650223 -0.5279870296900353 -2.27624756548363 146 141 134
-0.15120148156972846 -0.5303962630845541 -2.276025865717045 162 159 157
-0.15829063985900027 -0.5327692940763397 -2.2758854070090035 175 175 173
-0.16309279627018125 -0.5344716618374681 -2.2777640577207556 184 184 184
-0.1682626825882142 -0.5362809719386288 -2.2792994480131217 191 191 192
-0.17569441728816892 -0.5387511202379744 -2.2787869992382634 194 195 197
-0.1702351655089025 -0.5374509072658126 -2.2898618737485945 198 199 201
-0.19483213202076005 -0.5449367975502701 -2.273821255620742 202 202 204
-0.20015095082158513 -0.5467853255859334 -2.275132459280094 204 204 206
-0.198342880584097 -0.5465517889450644 -2.2828999598490465 205 205 207
-0.2029906144015421 -0.5482036681791149 -2.284806694235751 207 207 207
-0.2326029286558759 -0.5571394921690836 -2.2639052004945364 208 208 208
-0.23756616116474177 -0.5588791884674773 -2.2654355676276534 208 208 208
-0.24218840628300098 -0.5605187479851891 -2.2672640212212576 209 209 209
-0.24585504954115606 -0.5618791641673287 -2.269958748517108 209 209 209
-0.23184235971922018 -0.5580887234255084 -2.2889609619906794 210 210 210
-0.23232824706035832 -0.5585241390182547 -2.294625192940845 210 210 210
-0.2707851393996249 -0.5700128334034527 -2.265066430975241 211 211 211
-0.28236778161110726 -0.5736732521112381 -2.260328025590864 212 212 212
-1.4994289009987332 -0.9460573240177625 -1.5078478430796378 216 216 216
-1.4675104586427647 -0.9374271589472327 -1.5512104226622467 216 216 216
-1.4630884410171223 -0.9363872665574935 -1.5604574753910911 216 216 216
0.03266040032490422 -0.40830681240502154 -1.1173589325536915 189 190 192
0.030601944452196272 -0.40918637930210855 -1.1212713019254932 190 191 193
0.49026270340798805 -0.2636871524366743 -1.320816907386429 191 192 194
0.5099492475538551 -0.2577021139137636 -1.3345584940842108 191 192 194
0.47616254219850784 -0.2686906254435529 -1.3260843672508265 192 193 195
0.47877390342363824 -0.268125829821478 -1.332736533576202 192 193 195
0.4809997552329024 -0.26768408838132707 -1.3392429834443025 193 194 196
0.024339034830055284 -0.41275883065047947 -1.1520694193135006 193 194 196
-0.04883967816865911 -0.43618548446382266 -1.125844316932087 194 195 197
-0.04518505121745631 -0.435248705418792 -1.1320692598875568 194 195 197
-0.023060154846480774 -0.4284603847916508 -1.1462062991114061 195 196 198
0.017408206526386805 -0.41586530345359174 -1.1682982532699893 196 197 199
0.11749544283157437 -0.3843965168735217 -1.2162257256920186 197 198 200
0.11701717111979615 -0.3847844969272202 -1.2210053299282502 197 198 200
0.17534527400185246 -0.3665590946454147 -1.251333865228633 197 198 200
0.1669000271146946 -0.36947352313639414 -1.2527521297485813 198 199 201
0.18123717119027422 -0.3651795008130142 -1.2641237782919648 199 200 202
0.13655494786376837 -0.37955439922083734 -1.249603574198381 200 201 203
0.2553691815133836 -0.3819555635261816 -2.1445826265067676 153 141 129
0.2362714424344069 -0.38804178685865365 -2.1371583726327215 152 138 126
0.22937874425733518 -0.39043102449889805 -2.1385391177580244 147 133 119
0.21210580621772235 -0.39595949909820083 -2.132325819937909 142 129 113
0.19468285423391973 -0.40153022262738797 -2.125937027902787 139 126 110
0.18046224375186826 -0.40612968338429983 -2.121832069402936 135 121 105
0.1721465832044673 -0.4089421139523563 -2.12202116998669 131 116 101
0.16407736509106907 -0.41167880825204783 -2.1223651407070285 130 115 100
0.15753967563372406 -0.41395174138207236 -2.123817127218335 128 113 97
0.14985674085405376 -0.41656950082876526 -2.124399148306529 126 110 94
0.1412735082100285 -0.4194578038650605 -2.1242860900720744 123 107 91
0.13027282931242345 -0.42307407603458436 -2.122338578543099 122 106 90
0.12110778671807798 -0.4261348877487507 -2.121727260871077 121 106 88
0.11599109979523525 -0.427973714815329 -2.1241269191427454 119 104 85
0.11547520661002342 -0.428425330788984 -2.1299805859157024 119 103 83
0.11078229034325637 -0.4301356953118083 -2.132683861014075 117 101 80
0.10077225879082208 -0.4334468549797969 -2.1313448045537693 117 101 80
0.09288989226552202 -0.43611578689395825 -2.13158824467836 117 100 80
0.08794980055707213 -0.4378979951105707 -2.134049386362763 115 98 78
0.0833913107123253 -0.43956479113038144 -2.1367895655018874 114 96 75
0.09143485632428705 -0.43744103373409227 -2.149183644320937 111 93 69
0.08257261077498701 -0.4404019925906326 -2.148619316395072 109 89 63
0.04009744509366264 -0.4534634011671593 -2.122095851820457 110 92 64
0.04096176354783587 -0.4534957712563393 -2.128920553744103 115 96 67
0.030712862619975412 -0.4568663205416422 -2.127135864097941 118 99 70
0.026737862089955877 -0.45835158833353506 -2.130196108291427 118 97 69
0.022218616143877545 -0.45999977558762845 -2.1328229112957 117 96 67
0.01825504862378713 -0.4614807249899383 -2.1358733750106316 117 96 66
0.023862556691338632 -0.46009091196072643 -2.1464268357793115 116 96 64
0.03031549371723463 -0.45844927636176225 -2.1576800778524214 116 96 63
0.04771397829127022 -0.45352924547912854 -2.1776113612364068 117 97 64
0.04552938012558083 -0.45448002396952025 -2.18212840500333 116 96 63
0.02668941622461385 -0.46041855396002407 -2.173422728681136 117 97 64
0.021145006160476765 -0.4623732849164358 -2.1752259494701898 118 98 65
0.006674545455920944 -0.4669984241666417 -2.1698867028879905 118 98 65
-0.0002555820398982833 -0.46936521353322874 -2.1705282517313 121 100 67
-0.012572178426648484 -0.4733417082833707 -2.1668224264562825 120 97 65
-0.021184924029510777 -0.4762087806874944 -2.1660520976704576 120 97 63
-0.02308007388685951 -0.4770670531725542 -2.170676136312229 120 97 63
-0.02852204020540594 -0.47898483460501146 -2.1724284992982463 119 96 62
-0.03139512401393052 -0.4801347867958753 -2.1762512730890915 119 96 62
-0.039275871853495126 -0.48277932253950967 -2.1759919538862373 121 98 64
-0.04328286262561387 -0.48426669501350333 -2.178869222685189 121 98 64
-0.045212635512617116 -0.48513403884856343 -2.1834384307034838 120 97 63
-0.04983936113667908 -0.4868055471720057 -2.185793020225889 121 98 64
-0.05638650516084198 -0.489048880762821 -2.186553869234828 122 99 65
-0.060966377907764824 -0.490705066802591 -2.188918434348848 122 99 65
-0.07103709411832482 -0.49399608363503456 -2.186723513399576 121 98 64
-0.06960279504431477 -0.4938599224646026 -2.194046251198931 120 97 63
-0.07812562978335547 -0.4966879671289477 -2.193092190575129 117 94 60
-0.07618262780686103 -0.4964008701935085 -2.2008483958000182 117 94 60
-0.08004283836617498 -0.4978405181252053 -2.203762754054802 118 95 60
-0.08346223169447842 -0.4991487007378262 -2.2070385746139176 120 97 63
-0.08946941268146058 -0.5012256020486494 -2.208128382768207 123 100 66
-0.09543616661572862 -0.5032896010361505 -2.2092335127607328 125 102 68
-0.10333695621960648 -0.5059270402846394 -2.208682173461983 125 102 68
-0.10577742582650318 -0.5069422869300106 -2.2127398112101675 124 101 67
-0.10821718745622533 -0.5079572189766608 -2.2167958486278896 122 99 65
-0.11065587269298915 -0.5089717271439442 -2.2208506002955564 120 97 64
-0.1163010633765853 -0.5109368961655687 -2.2221576458515253 116 96 64
-0.12302404045072968 -0.5132206981228253 -2.222521981347634 114 95 63
-0.12372528224502066 -0.5137192696528576 -2.228048259157187 114 94 63
-0.12516689768508948 -0.5144374049301366 -2.232941335508924 113 92 61
-0.1267302406263432 -0.515191696819574 -2.2377315137301417 114 93 62
-0.13598539378948982 -0.5182224721766469 -2.235846661918658 117 96 65
-0.13594375637172595 -0.5185012646677898 -2.242019408932031 118 98 67
-0.1279376294238439 -0.5164252140497012 -2.2551532108901524 115 95 64
-0.12284485014317903 -0.5152126369215484 -2.265784778352738 113 93 63
-0.11539059805393148 -0.5133038485245777 -2.278522463668864 111 92 63
-0.10788950787839768 -0.5113833639864902 -2.2913464572678786 108 91 64
-0.12116760289386641 -0.5156005282077607 -2.2858808884233737 109 96 74
-0.13393272132175582 -0.5196637145752177 -2.280815032150372 121 111 93
-0.14441079481351882 -0.5230496653789982 -2.277726366946457 133 125 112
-0.15222493837761997 -0.5256480036245749 -2.276966549701745 151 146 141
-0.15868002671490644 -0.5278443349744263 -2.277390809571304 165 164 159
-0.16424067168168288 -0.5297760444610804 -2.278593371210054 176 176 172
-0.17110769077916266 -0.5320917670716359 -2.278606936028862 186 186 185
-0.1777946986314266 -0.5343533534526206 -2.278758593331787 191 192 193
-0.18108671674206123 -0.5356145148705496 -2.2819484264335985 196 196 198
-0.19889195363343493 -0.541145748040645 -2.272010451694008 200 200 202
-0.20349088032233675 -0.5427890101009117 -2.2739671754437065 203 203 205
-0.20498290232007166 -0.5435181956006314 -2.278734968132742 204 204 207
-0.21606860958429064 -0.547067011533821 -2.2747612417306504 206 206 207
-0.20836585592520446 -0.5450940634640116 -2.2879124611485095 207 207 207
-0.21224373496794735 -0.5465241451325733 -2.2904996033913756 208 208 208
-0.2391818611233959 -0.5547230176545065 -2.2718908768648394 209 209 209
-0.2502588204327532 -0.558261931848417 -2.2677705933756016 209 209 209
-0.24313930646408755 -0.5564614474094857 -2.2804124432127773 210 210 210
-0.23953391674786667 -0.5556933986879371 -2.28984425320688 210 210 210
-1.4940061085017757 -0.9419022242576258 -1.5159775485594886 216 216 216
-1.4625165361969095 -0.933320591640425 -1.5588630628879472 216 216 216
-1.4580505188595914 -0.9322574171356846 -1.5681898483258383 216 216 216
0.036391577221016075 -0.40247696871569105 -1.1196008735524219 189 190 192
0.5070675011578195 -0.2534282685981319 -1.3398326091459003 192 193 195
0.05969382475971036 -0.39661401614079317 -1.162898781886428 193 194 196
0.056713762110275845 -0.3977910941847433 -1.166490925860639 193 194 196
-0.06730846882833533 -0.4375463941420066 -1.1187426814403079 194 195 197
-0.06705240640357679 -0.4376820201821341 -1.123492850231051 195 196 198
-0.10221999257309963 -0.4491023446350869 -1.1131019999033887 195 196 198
0.10964237904171986 -0.38184489529289223 -1.208663160943573 196 197 199
0.09148720451491421 -0.3878579548278378 -1.2058061779807785 197 198 200
0.073540241861632 -0.39380205192889167 -1.2029819194527305 197 198 200
0.18673271684535786 -0.3580115794324953 -1.2571018233913571 197 198 200
0.12923929750558516 -0.37654261116590915 -1.2371362852156003 198 199 201
0.14134260514717506 -0.37292849918371773 -1.247470928763416 199 200 202
0.12620512212565566 -0.3779786558519022 -1.2458701351223826 200 201 203
0.15546100593112666 -0.3689142073202136 -1.2638323092053403 200 201 203
0.246250340686336 -0.37886503324284077 -2.133210500450761 152 141 129
0.22510250229034368 -0.38560850388864176 -2.1243108919103424 150 138 126
0.21268222459904496 -0.3896897252987393 -2.1216636941700555 144 131 118
0.19797796855767635 -0.3944643245690189 -2.1173092074079323 140 127 112
0.18593024376440037 -0.3984277328385997 -2.114839811657835 136 123 107
0.1758003634623294 -0.40180553282220866 -2.113731744285474 135 121 105
0.16509330501279296 -0.4053572716845826 -2.1121648234727224 135 119 104
0.15846749287602158 -0.4076661896530058 -2.1135669918906554 133 117 102
0.148806303139436 -0.41089689971376464 -2.112706646052013 132 116 101
0.14094400199130497 -0.41357940538762916 -2.113146289238744 130 114 98
0.1349068384595683 -0.4157062821616608 -2.11491717149417 125 109 93
0.12966755561764343 -0.4175900469569414 -2.1172654874158727 123 107 91
0.12529093636989652 -0.4192112772995164 -2.120244887544251 121 105 89
0.11884495773788639 -0.42146003287126405 -2.1216625166401886 120 105 86
0.11099075238147393 -0.4241351039894071 -2.1220018755895973 119 104 84
0.10411775438381421 -0.426511412707369 -2.123055802425603 119 103 82
0.10468242264925565 -0.4266318875929059 -2.1297146882629936 118 101 80
0.09947585376557344 -0.4285019473380977 -2.132006829501147 117 101 78
0.09253892469654834 -0.4308955827094245 -2.1329684880192694 115 99 76
0.08717312321780657 -0.4328123841618788 -2.135107444372462 111 95 72
0.08053697168773777 -0.43511309733773285 -2.1362595121445107 104 86 64
0.07231140101487787 -0.4378938889526826 -2.1361712851469505 102 84 59
0.06317311131080283 -0.4409495296673357 -2.1353529933913196 106 86 60
0.06435256003455525 -0.4408832205256924 -2.14246829301496 115 95 66
0.038223872384997026 -0.4490737317074223 -2.1284553225939966 118 99 69
0.030517865114104148 -0.45169134776801223 -2.1286391387838535 118 98 69
0.025628395359158618 -0.4534568320350281 -2.1309907715739973 117 96 67
0.017903500585615517 -0.45607806476502216 -2.1311152311978567 116 95 66
0.010730650450717638 -0.4585314287851428 -2.1316464265339143 116 95 65
0.027332313500717076 -0.4538083776833827 -2.1508280640812125 115 95 63
0.048799739181471735 -0.4476212441750461 -2.1739264105354397 115 95 62
0.03419374511666451 -0.45231869217310466 -2.1686343104904076 116 96 63
0.03184347039276425 -0.4533184975938608 -2.1729946549675945 117 97 64
0.024901548497994863 -0.45570208901240633 -2.1737055936509693 117 97 64
0.01352653503464718 -0.4594202349431362 -2.170862216776821 118 98 65
-0.0006578611893727215 -0.4639825034605828 -2.1657316534894537 119 99 66
-0.008506096176439382 -0.46663458232415295 -2.165622942766617 120 99 67
-0.01554537836516845 -0.46904195644007596 -2.166137729297036 122 99 67
-0.025255593486433914 -0.4722518142764348 -2.164477201440848 121 98 64
-0.030839483109163623 -0.47421905161894473 -2.166116145446531 120 97 63
-0.034599806087463936 -0.4756372881867134 -2.169216582587739 119 96 62
-0.037214846084288156 -0.4767109543549817 -2.1732397566170976 119 96 62
-0.03796516518906856 -0.47722428202080464 -2.178779886660681 120 97 63
-0.0509638579912749 -0.481416264126231 -2.1743150042831205 121 98 64
-0.05046832672351076 -0.4815547958513288 -2.180859563729351 121 98 64
-0.051960766391016544 -0.4822904558532621 -2.1857816426247623 122 99 65
-0.06559086001100811 -0.4866674306458463 -2.180701841238463 122 99 65
-0.06898344682125879 -0.4879718190775231 -2.1840299537730345 122 99 65
-0.07864364461520534 -0.4911547821710575 -2.182156608304874 122 99 65
-0.08066356315474199 -0.49204653612112664 -2.1865980762391812 122 99 65
-0.09051918983839247 -0.4952855365164106 -2.1845083158188636 120 97 63
-0.08648413485086515 -0.4943632586022394 -2.19399207164252 116 93 59
-0.10390240594388567 -0.49986414882954194 -2.185522660079388 118 96 59
-0.11009055081559371 -0.5020012574416752 -2.1864199664010027 122 100 63
-0.08668986534313627 -0.49528676197681415 -2.2122356624929647 122 100 65
-0.09387228563852601 -0.4977225635730465 -2.2123223839635413 124 101 67
-0.1027803182253002 -0.5006730154827411 -2.210922267995683 125 102 68
-0.10772199370320845 -0.5024368240473727 -2.2128604433727768 126 103 69
-0.11441083749536074 -0.5047218295164554 -2.213295722327819 123 100 66
-0.1174656361453591 -0.5059207671946233 -2.2168142885664777 123 99 65
-0.12661878593332487 -0.5089395957455618 -2.2151019604518893 119 97 64
-0.13112704039576506 -0.5105710208834723 -2.217346942190258 116 95 63
-0.136401779731381 -0.5124304798904651 -2.218919443019038 115 94 63
-0.13696779554236593 -0.5128853887075528 -2.224544621137564 113 92 61
-0.1392009708410038 -0.513837452743783 -2.2287320016336474 114 93 62
-0.14302019618906692 -0.5152619534135415 -2.231540182237848 117 96 65
-0.14078242406579056 -0.5148822827968509 -2.239615975767348 121 100 69
-0.1419026308312321 -0.5155031697924204 -2.244778498188461 121 100 69
-0.14362862942811683 -0.5163045121521994 -2.249414410135195 117 96 65
-0.12989561792318693 -0.5125074374946722 -2.267629026347125 117 96 65
-0.11974438920225383 -0.5097789225615128 -2.282764336515076 112 94 65
-0.11475114545744491 -0.5085862766470441 -2.2934028275194565 110 95 69
-0.12847802415406562 -0.5129574234744267 -2.2874983652279965 115 103 79
-0.1401601678089699 -0.5167186149102683 -2.2833529447239855 124 114 95
-0.1505666519931258 -0.5200988750367231 -2.280296501279679 138 132 120
-0.15885725213328927 -0.5228492628921235 -2.2790882386224887 152 149 141
-0.16716469125252187 -0.5256032157780941 -2.277834334997776 166 164 160
-0.17324337018966174 -0.5276947675700787 -2.2785501330305857 178 177 174
-0.18036171398768974 -0.5300935899642625 -2.2783102728726683 187 187 187
-0.19629821151040738 -0.5351043571419907 -2.270087836786076 193 193 195
-0.20145349263708823 -0.5369183270402337 -2.2715525597355657 197 197 199
-0.20647369529316056 -0.5386915658569927 -2.2731241624496974 201 201 203
-0.2093733906020404 -0.5398364467379945 -2.276609746439923 204 204 206
-0.2129998587232914 -0.5411961423335641 -2.279427680582999 205 205 206
-0.21589240105097418 -0.5423383813513246 -2.2829085621188443 206 206 206
-0.2156571126266963 -0.5425556602480545 -2.2892530708999574 208 208 208
-0.24257005382674812 -0.5507966597203322 -2.270645592357666 208 208 208
-0.24723886016907365 -0.5524605742812516 -2.2724233271993666 208 208 208
-0.2582667354749394 -0.556001710733157 -2.2683090973908966 209 209 209
-0.24790341505180635 -0.5532263099872395 -2.283976893875572 210 210 210
-0.3838164850720158 -0.5938860254162631 -2.1695348467500337 212 212 212
-0.3818788929930782 -0.5935852462763632 -2.177124768944269 212 212 212
-1.4894414249911376 -0.9379590139180185 -1.5230546428906493 216 216 216
-1.4618388253758414 -0.9303964529579298 -1.5611467901932323 216 216 216
-1.4558795425676587 -0.9289032788793973 -1.5723523944959124 216 216 216
0.3183360161393651 -0.3077681761556456 -1.2460828130914954 190 191 193
0.3325902176340408 -0.30343741251143175 -1.2572555452660312 191 192 194
0.33764630947909646 -0.3020601885602756 -1.2646613655369123 191 192 194
0.039742441643485116 -0.3980772080201173 -1.1504416764926397 192 193 195
0.03987351591128063 -0.3982574169159895 -1.1553105807438375 193 194 196
0.0164842101634482 -0.405976161293352 -1.1502454873182524 194 195 197
-0.11289776814539679 -0.4476532465778481 -1.100122217355799 194 195 197
-0.11312183899020256 -0.44793577509777793 -1.1045918417931462 195 196 198
-0.09999692686248352 -0.44394346586843536 -1.1147786805472617 195 196 198
0.08093121553197108 -0.38622737166456067 -1.1971155413433434 196 197 199
0.05582911641197774 -0.3944896868153092 -1.1912101109494133 197 198 200
0.057496505908628814 -0.39418168021445177 -1.1968186514310712 197 198 200
0.14634496524700358 -0.36598242029527595 -1.2403582133284645 197 198 200
0.14825481025511594 -0.36560510840974236 -1.2462512043184406 198 199 201
0.131462739751198 -0.3712086624990717 -1.243957223273028 199 200 202
0.12377565822423436 -0.3738990511302609 -1.2456188742955447 200 201 203
0.13388667206113064 -0.3709001627602473 -1.2551270242930725 200 201 203
0.25067589991222294 -0.3713588323888226 -2.1252157457873 152 142 130
0.23275333812732424 -0.3771525631133498 -2.118715144146047 149 139 127
0.21258617522565526 -0.383631512990983 -2.1105257125012318 147 135 123
0.2025048585202568 -0.387014786139556 -2.1095625187412894 141 128 116
0.19209899807917108 -0.3904959327547708 -2.108329115379861 138 122 109
0.1780201191978883 -0.3951007431031194 -2.1043838166001287 137 122 106
0.16792985055348442 -0.3984815401797339 -2.1033010570569437 136 121 105
0.15772332783402276 -0.40189632714831924 -2.102098347478346 135 119 104
0.14761945426055267 -0.40527806475643857 -2.100935760592186 133 117 101
0.1413254405795531 -0.4074924714600146 -2.10254702380684 132 116 100
0.13310641753732222 -0.41029483728140553 -2.1027164829159455 128 112 96
0.1273524489104313 -0.41234221919345115 -2.104687223396118 127 110 94
0.11994423617601047 -0.4148945113096644 -2.105411408170053 123 107 91
0.10643469407704897 -0.4193101023051283 -2.1015605595185374 122 105 88
0.09809166182034335 -0.4221451694314394 -2.1015250395968916 120 104 85
0.08786510740620124 -0.42555412467759746 -2.1000484743402925 119 103 83
0.11221032725993318 -0.4184078798951729 -2.1245549109559407 118 102 81
0.10227139354800485 -0.42172925877627565 -2.1232996645376443 116 100 80
0.09501427302677479 -0.42423091639525407 -2.1240398402780243 113 98 75
0.08080392148875559 -0.4288519593708126 -2.119477862799723 109 94 69
0.07393931872700343 -0.4312311195016841 -2.120455491322117 105 89 66
0.06656037933953007 -0.4337660392592485 -2.121018968291851 103 86 64
0.06178622135321832 -0.43550631586036703 -2.1235537497492625 105 86 61
0.05538606347284192 -0.4377412267514861 -2.1248274056455596 110 90 65
0.05030523459205527 -0.4395735773034145 -2.1270979865984163 112 92 65
0.04651306528706123 -0.44101310760841383 -2.1303505942265875 112 91 62
0.0446290804956192 -0.4418717319202141 -2.1350738700164533 112 91 60
0.03343761192347039 -0.4455611233733276 -2.1325652915965962 112 91 60
0.02798366708762967 -0.447504228785812 -2.13448695473907 112 91 60
0.02113195481075214 -0.44987144494070525 -2.135300800875204 112 92 60
0.009466188044698454 -0.453700285672215 -2.132319652436862 114 94 61
0.017132176166896662 -0.4516556749797857 -2.1444909753181616 114 94 61
0.025197655332550695 -0.44949178985819854 -2.1570209245949674 114 94 61
0.00875312432580111 -0.45476908631295715 -2.15021944127575 115 95 62
0.02227207476841986 -0.45095223277648916 -2.1671089560201784 117 97 64
0.006198717301369339 -0.45611405640159536 -2.160539887724356 117 97 64
-0.0029443523630773294 -0.4591716889710071 -2.159433122567235 118 98 65
-0.017322618515757893 -0.46381457772815415 -2.154107658820714 118 98 65
-0.009668568570382896 -0.4617793453314553 -2.1663942021225386 117 97 64
-0.020376302924054568 -0.4653076105484389 -2.1639581411207782 122 102 69
-0.028788178157597266 -0.4681389094210577 -2.1633339673410408 122 101 68
-0.03431248564178957 -0.4700948716618108 -2.1650159035089187 120 100 67
-0.03768633871402216 -0.47139943546868546 -2.168425876078463 119 97 65
-0.04258942131538068 -0.4731662391619267 -2.1705857356733387 120 97 63
-0.04188971886224213 -0.4732384034924919 -2.177302214775789 121 98 64
-0.05121968951819289 -0.47634258588846384 -2.175827247898154 121 98 64
-0.05730017952628974 -0.4784634067006818 -2.1769839313032686 121 98 64
-0.05701721946574678 -0.4786613739364138 -2.183356142360534 122 99 65
-0.0663239067764112 -0.48175521007982847 -2.181828545189062 122 99 65
-0.07791952326916507 -0.4855383307320895 -2.178373702034284 122 99 65
-0.08240929792133234 -0.48717546170801523 -2.180768710191283 123 100 66
-0.0864634017276531 -0.4886806534419209 -2.183514474131104 122 99 65
-0.09047939399932237 -0.4901739090174286 -2.186282378210481 119 96 62
-0.09920355575160877 -0.4930857318722353 -2.1851024586048844 117 94 60
-0.10633230970134011 -0.49551542994419456 -2.185229324589819 119 96 62
-0.11134460398239965 -0.4973065872687298 -2.1871123684369276 122 99 65
-0.10432677999533702 -0.4954751939138243 -2.1991285024633678 124 101 67
-0.11064137399657159 -0.4976582761133412 -2.1999096650539802 126 103 69
-0.11353521157101842 -0.49881127491661637 -2.203571874438548 127 104 70
-0.11538670403736173 -0.49965059391154837 -2.2081162800180185 126 103 69
-0.118728309184715 -0.5009379183587115 -2.211390333485199 125 101 67
-0.1212182416256119 -0.5019689935561344 -2.215386294712227 122 98 64
-0.12852434643973765 -0.5044468168963004 -2.2152494216830485 118 95 61
-0.13980664917468522 -0.5081175600706764 -2.211667904942778 115 95 62
-0.140965784386882 -0.5087473006014431 -2.2167718043461586 115 95 63
-0.14418189382074909 -0.5099944918092745 -2.2201008002792664 117 96 65
-0.14504839767806255 -0.5105365719372981 -2.225461101651448 116 95 64
-0.14702571162258704 -0.5114119897122897 -2.229860774265104 118 97 66
-0.1487582443080121 -0.5122140268917201 -2.2344737503968535 120 100 66
-0.14937852728870948 -0.5126828273324402 -2.240060143873287 123 103 68
-0.14400946028337358 -0.5113578735181659 -2.250903262176415 122 101 69
-0.13830918419695926 -0.5099353642975049 -2.2620725699587876 119 98 67
-0.13035582465370543 -0.5078401603434286 -2.2752644742279458 118 98 67
-0.1408490463389126 -0.511266517875572 -2.2722008573179626 112 94 65
-0.12994209125905887 -0.5082902575082489 -2.288061269251249 113 98 70
-0.13542958440163433 -0.5102185663588423 -2.2894153375777275 116 104 79
-0.1466487986158619 -0.5138591592821282 -2.285645377476463 124 116 99
-0.1569607811674033 -0.5172266440413555 -2.2826413328276347 137 133 122
-0.16607042326975907 -0.5202331851312398 -2.280674058967552 154 150 145
-0.17567336535847689 -0.5233853973270701 -2.278229039038954 169 166 163
-0.18260056187019935 -0.5257373807027655 -2.2781569829975434 180 180 180
-0.198399607027059 -0.530734856702662 -2.2700482593072784 187 188 190
-0.20408729687951155 -0.5327139835565838 -2.271028656708178 194 194 194
-0.21007482248017084 -0.5347816445124987 -2.271718517115601 199 199 199
-0.21589781976194478 -0.5367993660521844 -2.272538381781731 203 203 203
-0.21533783899033304 -0.5369149432779576 -2.2791661853670035 204 204 204
-0.21885509524996644 -0.5382450881593639 -2.2820741094200683 206 206 206
-0.21930233461930265 -0.5386611175312832 -2.28779188533607 207 207 207
-0.24643255806272296 -0.5470163475134603 -2.268961953769788 207 207 207
-0.12149924599368511 -0.5101403618330473 -2.390318362027164 209 209 209
-0.2611889156285777 -0.55196513374024 -2.2674779515828742 209 209 209
-0.2641668372094802 -0.5531299713837512 -2.270777325260194 209 209 209
-0.13367553481711725 -0.5146448492891538 -2.398212536268846 210 210 210
-0.3802771053451433 -0.5881699073893909 -2.174631645611883 211 211 211
-0.3861314615624095 -0.5901752451868179 -2.1749523047703794 211 211 211
-1.4824757108802833 -0.9333124601627151 -1.5331349627770656 216 216 216
-1.456701921913231 -0.9262049276089913 -1.569001373190369 216 216 216
-1.4506834869412497 -0.9246805842712937 -1.5803080736617794 216 216 216
0.04816756469551836 -0.38936655708751833 -1.125857971097221 189 190 192
0.32935682342643946 -0.2990711769432626 -1.2514318965176066 190 191 193
0.32415474007564327 -0.3009904552771697 -1.254573300113015 191 192 194
0.3361023745976062 -0.29737818289089274 -1.2648366251006675 191 192 194
0.03521285499212362 -0.3946379574671667 -1.1444840416392688 192 193 195
0.061480740416419766 -0.3863890371038263 -1.1603049030809995 192 193 195
0.03250506117617036 -0.39594829055287106 -1.152957022815431 193 194 196
0.017876512747720785 -0.4008806146863243 -1.1515817436970344 194 195 197
-0.07044619189761794 -0.42954905042493424 -1.118865930599288 194 195 197
-0.09296790228288851 -0.43701328513634363 -1.113905563547376 195 196 198
-0.10424423849863784 -0.4408536628743201 -1.1136871877909094 195 196 198
0.04579192277838995 -0.39276966475057845 -1.1827893595362688 196 197 199
0.025386962427979776 -0.39955747473534264 -1.1788468914635124 197 198 200
0.02112889120918332 -0.40114757118499783 -1.181837886933096 197 198 200
0.12443725947542789 -0.36813997010924093 -1.2316359002461896 198 199 201
-0.010917518709226692 -0.41189287677274683 -1.1775111966225065 198 199 201
0.10028006964236869 -0.3763637194125422 -1.2310921638598138 199 200 202
0.08806969042003082 -0.38051547588090334 -1.2307079215599868 199 200 202
0.2674806209598529 -0.36001757799785195 -2.1260400750874235 153 142 131
0.2344357682274507 -0.37051596838373113 -2.1088017311921363 148 137 125
0.2191255174234672 -0.3755327338833999 -2.104168488615831 142 132 119
0.18902535104712415 -0.3851118470139246 -2.0888232828546163 140 129 115
0.18603349293466576 -0.3863210886039694 -2.0929453598517966 137 125 111
0.17972093182616633 -0.3885544431910682 -2.094656904735566 132 118 104
0.170632924926446 -0.3916427936090237 -2.0943326720583677 132 116 102
0.15830033836411728 -0.39572992904391047 -2.091612501364887 132 116 101
0.1501221002223464 -0.39853484051213234 -2.0918857715621537 129 113 98
0.1401853309321226 -0.40188027691185574 -2.0908427407886823 127 111 95
0.1284635021708197 -0.40577388151886035 -2.088452332089609 126 110 94
0.12338336705238473 -0.40762085284493915 -2.0909201285397447 125 109 93
0.11894024103092271 -0.4092711787787532 -2.0938461583492267 122 106 90
0.11450438951265551 -0.4109187935680309 -2.0967671965372903 122 105 89
0.11921253164705281 -0.40975359525857247 -2.106484474818084 122 105 87
0.10113981597593058 -0.4155939888815641 -2.0992238259597036 121 104 86
0.09157015336657737 -0.41881766776175233 -2.098259682507103 121 104 84
0.08222652687524046 -0.4219703883038189 -2.097432203639661 117 101 79
0.07382211205627176 -0.4248331558737062 -2.097279967526653 118 101 80
0.0822401267101831 -0.42252914959284893 -2.109807261454953 117 100 79
0.07174954425482905 -0.4260314207186465 -2.1080555263883642 114 97 75
0.06274574176725989 -0.42907575844584 -2.1073960897942534 113 95 73
0.05515518734264968 -0.4316851661283763 -2.1077827331576886 115 95 71
0.04755196365319281 -0.4342973360034568 -2.108135029238349 116 96 70
0.04507502427806509 -0.435336890682056 -2.1123918110582034 115 95 70
0.04131221505068583 -0.436770414489304 -2.115658139601103 115 95 68
0.04534794761742422 -0.43581449004864015 -2.1249290661261906 114 95 66
0.04147727831013892 -0.43728113583914036 -2.128113971660746 114 93 63
0.03640692524443401 -0.4391146884757209 -2.1303603941454865 113 92 61
0.028258234310845065 -0.44188973415548366 -2.1301992703609405 113 92 61
0.034661361500816334 -0.4402114924419994 -2.1413598856972933 112 91 60
0.02843183729255505 -0.4423985637858295 -2.1426775982916015 111 91 58
0.013304008219794827 -0.4473053315919225 -2.13699642658077 110 90 57
0.00802441339279747 -0.44919943401561035 -2.139003519063713 110 90 57
0.009913256704954354 -0.44890267025333597 -2.1466513047743065 112 92 59
0.02887546755895809 -0.44339198872799285 -2.1678251254693435 115 95 62
0.016127139004834756 -0.44756772305749537 -2.1639329861814636 117 97 64
-0.003656477001896974 -0.4538885817435369 -2.15439406168611 117 97 64
-0.01379744292233509 -0.45726359834952174 -2.1524692993114525 117 97 64
-0.02956843918393748 -0.4623541849583049 -2.146001976154268 117 97 64
-0.0291965331245001 -0.46251973559854975 -2.152427514555566 117 97 64
-0.023190895507348763 -0.4609685668584223 -2.1633981266773104 120 100 67
-0.03367527563856154 -0.46444365552604977 -2.1610958521010297 122 102 69
-0.04002823329449601 -0.46665854285610414 -2.1620987980403044 122 102 69
-0.04372955078648744 -0.4680651069853617 -2.1652341453282533 123 101 69
-0.04685134192979057 -0.4692949120086062 -2.16883340883677 121 98 65
-0.05986997614118661 -0.4735359637007644 -2.16434868523747 121 98 64
-0.06409697898870015 -0.47510044539879615 -2.1670100683186004 121 98 64
-0.06132037670211932 -0.4745348196574845 -2.1754104655106805 121 98 64
-0.064041856481313 -0.47564145941176084 -2.179306727189278 121 98 64
-0.08078092169570084 -0.4810074238863777 -2.1716275958335736 122 99 65
-0.07699520379537383 -0.4801356416231224 -2.1808716010408586 123 100 66
-0.08487046559168054 -0.4828059998795708 -2.180461733215967 124 101 67
-0.09265041706670685 -0.4854461798595319 -2.1801038243183126 122 99 65
-0.09404833915610344 -0.48614854238204663 -2.1850467791451536 118 95 61
-0.1016296764842114 -0.4887266907397549 -2.1848159460655134 119 96 62
-0.10923821881492546 -0.49131189672870484 -2.184536097455548 120 97 63
-0.11673564018809901 -0.4938622188972263 -2.1843234297636522 122 99 65
-0.10630658161510453 -0.4909793069734012 -2.199217821355622 124 101 67
-0.11148996671259259 -0.49282823298256995 -2.2009541876574135 125 102 68
-0.12097700471263573 -0.4959796388470119 -2.199022260528886 125 102 68
-0.08833628125663728 -0.4863774571631599 -2.232914689694529 125 102 68
-0.09476335149206405 -0.48860423992225893 -2.2336230791573106 124 100 66
-0.16617662472039146 -0.5104872954141172 -2.1786869925782146 123 100 66
-0.15321632153088566 -0.5068429120727056 -2.195839919614171 120 97 63
-0.1416085012593712 -0.5036105497924468 -2.2118993086363923 116 96 61
-0.14408375759418823 -0.5046364525818532 -2.215868852547946 116 96 63
-0.14772728619377817 -0.5060151216370692 -2.2188249018820247 117 96 65
-0.15247839758736592 -0.5077278525940927 -2.220811784513276 117 96 64
-0.15216158836916016 -0.5079103002281184 -2.2271952407283133 118 97 65
-0.15555760174924804 -0.509213497691438 -2.2303499131572773 118 98 65
-0.16075428497316546 -0.5110594956025358 -2.2319222298820973 121 101 66
-0.16429872709212456 -0.5124066212209668 -2.2349285735278555 123 103 70
-0.15842311005326548 -0.5109141933314232 -2.246214273567686 125 104 73
-0.1546045273037443 -0.5100432398246965 -2.255722965231546 123 103 72
-0.14916325661582064 -0.5086848258187175 -2.2666946954452882 119 100 69
-0.15140613210447862 -0.5096415129320974 -2.2708867659189127 115 97 66
-0.13987677453003278 -0.5064532188084381 -2.2873256394291417 114 98 69
-0.1425974540103121 -0.5075550451911917 -2.291122178693231 116 104 82
-0.15674708874263177 -0.5120938757023142 -2.284695708439111 125 118 101
-0.15768380638523682 -0.5126577973893969 -2.290056829111582 139 134 125
-0.1757790118847109 -0.5183784407136776 -2.2799972216585487 155 151 145
-0.185103541751507 -0.5214607101157618 -2.277765522787449 168 167 164
-0.2009214924769369 -0.5264913224892873 -2.2696287259572014 181 182 181
-0.20687725590024542 -0.5285583349145381 -2.270362550552631 189 189 189
-0.2129065083855386 -0.5306465068466614 -2.2710099782822697 195 195 195
-0.2196311942516872 -0.5329423744506314 -2.271003713282292 200 200 200
-0.21905701137032513 -0.5330485672483217 -2.277642526133182 202 202 202
-0.2222661571504344 -0.5342893480464549 -2.280827719099615 204 204 204
-0.23455401442452178 -0.5382501167919518 -2.2756673988573977 206 206 206
-0.24947533754294338 -0.5429973424020214 -2.2680306938703243 207 207 207
-0.13746838780276194 -0.5097382937108459 -2.377544192492223 208 208 208
-0.2628426603184224 -0.5475520445940906 -2.267820101177708 209 209 209
-0.3186538057258405 -0.564525912644686 -2.22206923178634 209 209 209
-0.15125672975826077 -0.5147325826364878 -2.383831418255901 210 210 210
-0.14286572181065105 -0.5125135695036765 -2.398023019172815 211 211 211
-0.39761240128712466 -0.5889342776907492 -2.1660118290095376 211 211 211
-0.3951563041077003 -0.5884631321495757 -2.174083706014357 212 212 212
-1.4815225461328114 -0.9303421177079898 -1.5357393852991184 216 216 216
-1.451512905326017 -0.9219708480438487 -1.5769356565050707 216 216 216
-1.4454343689393152 -0.9204147622166535 -1.5883449992947243 216 216 216
0.05072181130156386 -0.3838531175590404 -1.1276284004734003 189 190 192
0.4660476212816288 -0.24956584195854747 -1.3086545082773469 190 191 193
0.31526155259441435 -0.29871298638733024 -1.2516980457522442 191 192 194
0.31573680793407133 -0.2987960413794809 -1.2571786729573227 191 192 194
0.03961625985719969 -0.38853368781546466 -1.1470660248212634 192 193 195
0.06196796672441185 -0.38150663428762366 -1.1612621110082222 192 193 195
0.09167165765310137 -0.37210149399385795 -1.1786410609306868 193 194 196
0.03437552809689587 -0.390880454734216 -1.1593128762358675 194 195 197
-0.09937423816912394 -0.43440791999167877 -1.1073017580187643 194 195 197
-0.10090847763948846 -0.435110947503502 -1.1112436011171418 195 196 198
-0.10435720659320319 -0.4364336513446585 -1.1143657886621936 195 196 198
0.017816979639673325 -0.3971065746843011 -1.1715268976196627 196 197 199
-0.005276270914733816 -0.4047937557521152 -1.1663722027782668 197 198 200
-0.0010257835408036264 -0.40363390786124065 -1.1730024892930575 197 198 200
0.09863326926671889 -0.37162504758691706 -1.2212054678459103 198 199 201
-0.03368342757727366 -0.414622284087429 -1.1683291880926712 198 199 201
0.019540134492905814 -0.39763457781960376 -1.1964522508895532 199 200 202
0.03091466086275746 -0.39417735844949586 -1.20632229714144 199 200 202
0.23884112208040797 -0.36303353883692874 -2.100829404750128 153 141 129
0.22630247254632962 -0.3672163701192856 -2.098231567572279 148 135 123
0.19497382531856555 -0.3772357222269817 -2.082122913839684 144 132 118
0.18218560595549016 -0.3814902295152433 -2.0792154140898513 143 131 116
0.17308071400391267 -0.38459887534668263 -2.078917358912238 138 126 110
0.15980543991160123 -0.38900079156125345 -2.0755732257303294 136 124 108
0.15581943219077132 -0.3905177271045969 -2.078918216047553 134 119 104
0.1479204467503925 -0.3932482547701872 -2.079408368741347 131 115 100
0.1369475967449888 -0.3969309840261836 -2.0776304129791434 129 113 98
0.1304458074157232 -0.39922574784512443 -2.079085803539004 126 110 95
0.11653947763890371 -0.40381465931902394 -2.0750869209927982 125 109 94
0.11134246249402802 -0.405702681110178 -2.077448086026541 122 106 90
0.10830475212320967 -0.4069212420407296 -2.0813899344029796 117 101 85
0.10613320156750516 -0.40787140280989 -2.0859689600156655 119 103 87
0.10660214469529294 -0.4080041665707166 -2.0925087494665497 123 106 88
0.10545544464732826 -0.4086373987257801 -2.097856073452512 120 103 83
0.08662701710103782 -0.41474077351175676 -2.0899964997921634 116 99 79
0.07760233170589459 -0.4178089494393585 -2.08940956413485 116 99 77
0.06911582413667294 -0.4207093624116421 -2.089196347159655 116 100 77
0.06010699611330761 -0.42376992680637915 -2.0885609779930308 119 103 80
0.0539175551486355 -0.42595802865293425 -2.090026189072541 120 104 81
