ply
format ascii 1.0
element vertex 868
property float x
property float y
property float z
property float nx
property float ny
property float nz
property uchar diffuse_red
property uchar diffuse_green
property uchar diffuse_blue
property uchar class
property uchar detection
end_header
-0.1074 0.3989 -2.0646 -0.298 0.950 -0.091 78 56 25 0 0
-0.1093 0.4023 -2.0797 -0.666 0.541 0.514 82 59 28 0 0
-0.1125 0.4071 -2.0812 -0.572 0.671 0.472 81 58 27 0 0
-0.1637 0.4891 -2.2221 -0.438 0.654 0.617 85 65 28 0 0
-0.1734 0.5049 -2.2555 -0.290 0.946 0.145 93 74 40 0 0
-0.1729 0.5048 -2.2745 -0.377 0.853 -0.361 168 166 161 0 0
0.0916 0.0658 -0.8929 -0.134 0.150 0.980 178 176 178 0 0
0.0497 0.1302 -0.9360 -0.468 0.761 0.449 75 53 31 0 0
0.0493 0.1310 -0.9404 -0.406 0.895 0.183 81 59 37 0 0
0.0790 0.0930 -1.1171 -0.388 0.918 -0.078 142 142 143 0 0
0.0333 0.1650 -1.2097 -0.244 0.747 0.619 170 143 98 0 0
0.0326 0.1677 -1.2543 -0.227 0.873 -0.431 96 79 50 0 0
0.0397 0.1579 -1.2748 -0.300 0.954 0.020 66 61 41 0 0
-0.0121 0.2407 -1.4166 -0.386 0.857 0.342 123 100 59 0 0
-0.0337 0.2749 -1.4645 -0.128 0.800 0.587 89 63 30 0 0
-0.1027 0.3841 -1.6206 -0.128 0.704 0.699 135 111 68 0 0
-0.1042 0.3865 -1.6242 -0.401 0.638 0.658 82 58 23 0 0
-0.1066 0.3905 -1.6375 -0.492 0.869 0.052 86 63 33 0 0
-0.1062 0.3902 -1.6432 -0.441 0.881 0.169 85 62 31 0 0
-0.0706 0.3403 -1.7358 -0.390 0.886 0.252 65 44 23 0 0
-0.0684 0.3378 -1.7603 -0.662 0.409 0.628 116 93 56 0 0
-0.0713 0.3424 -1.7625 -0.544 0.584 0.602 103 79 44 0 0
-0.0741 0.3476 -1.7926 -0.455 0.853 0.256 84 64 32 0 0
-0.0793 0.3576 -1.8535 -0.345 0.836 0.427 94 71 37 0 0
-0.0878 0.3732 -1.9281 -0.351 0.877 0.329 86 62 34 0 0
-0.0884 0.3743 -1.9331 -0.355 0.889 0.288 82 58 31 0 0
-0.0968 0.3888 -1.9857 -0.548 0.723 0.420 82 59 28 0 0
-0.1057 0.4050 -2.0613 -0.017 1.000 0.012 78 56 25 0 0
-0.1058 0.4058 -2.0788 -0.666 0.541 0.514 82 59 28 0 0
-0.1145 0.4186 -2.0728 -0.521 0.793 -0.315 81 58 27 0 0
-0.1612 0.4940 -2.2196 -0.200 0.968 0.148 85 65 27 0 0
-0.1565 0.4875 -2.2327 -0.226 0.903 0.365 85 67 27 0 0
-0.1596 0.4923 -2.2401 -0.198 0.670 0.715 89 72 28 0 0
-0.1703 0.5089 -2.2539 -0.373 0.916 0.148 92 76 40 0 0
-0.1715 0.5109 -2.2581 -0.338 0.692 0.638 94 80 51 0 0
0.0538 0.1324 -0.9360 -0.413 0.852 0.321 87 67 43 0 0
0.0458 0.1572 -1.2764 0.067 0.987 0.144 75 69 51 0 0
-0.0076 0.2421 -1.4068 -0.582 0.565 0.585 129 103 64 0 0
-0.0655 0.3419 -1.7534 -0.490 0.818 0.302 107 85 53 0 0
-0.0664 0.3433 -1.7580 -0.481 0.847 0.226 114 92 55 0 0
-0.0680 0.3459 -1.7617 -0.027 0.961 0.276 96 72 39 0 0
-0.0752 0.3600 -1.8478 -0.606 0.639 0.474 83 62 28 0 0
-0.0771 0.3636 -1.8681 -0.726 0.486 0.487 91 68 36 0 0
-0.0926 0.3914 -1.9916 -0.167 0.781 0.602 79 56 25 0 0
-0.0948 0.3962 -2.0294 -0.291 0.855 0.430 78 55 26 0 0
-0.1124 0.4239 -2.0642 -0.589 0.736 -0.335 80 58 27 0 0
-0.1098 0.4217 -2.1090 -0.404 0.833 0.378 139 109 68 0 0
-0.1107 0.4232 -2.1137 -0.442 0.857 0.266 152 122 84 0 0
-0.1273 0.4494 -2.1496 -0.511 0.754 0.412 81 58 24 0 0
-0.1373 0.4656 -2.1830 -0.394 0.737 0.549 82 59 25 0 0
-0.1657 0.5108 -2.2546 -0.336 0.848 0.410 90 73 37 0 0
-0.1672 0.5132 -2.2584 -0.338 0.692 0.638 93 79 52 0 0
0.0622 0.1273 -0.9199 -0.625 0.755 0.200 78 56 32 0 0
0.0610 0.1294 -0.9286 -0.540 0.816 0.205 83 63 40 0 0
0.0606 0.1303 -0.9330 -0.540 0.816 0.205 72 54 33 0 0
0.0502 0.1593 -1.2766 0.136 0.940 0.313 65 59 39 0 0
0.0550 0.1538 -1.3213 0.359 0.933 0.018 75 57 32 0 0
-0.0253 0.2793 -1.4700 -0.352 0.896 0.269 77 53 23 0 0
-0.0356 0.2976 -1.5438 0.052 0.825 0.562 141 109 64 0 0
-0.0808 0.3676 -1.6090 -0.150 0.326 0.933 132 110 72 0 0
-0.0974 0.3937 -1.6441 -0.478 0.859 0.186 95 72 40 0 0
-0.0746 0.3611 -1.6793 -0.163 0.809 -0.565 104 81 54 0 0
-0.0624 0.3453 -1.7414 -0.236 0.966 0.102 78 58 29 0 0
-0.0616 0.3445 -1.7533 -0.251 0.900 0.357 107 86 53 0 0
-0.0601 0.3438 -1.7881 -0.360 0.887 0.288 85 65 34 0 0
-0.0756 0.3700 -1.8706 -0.428 0.873 0.234 96 73 41 0 0
-0.0752 0.3713 -1.9164 -0.306 0.832 0.462 83 62 32 0 0
-0.0813 0.3817 -1.9488 -0.324 0.835 0.444 77 53 27 0 0
-0.0816 0.3825 -1.9600 -0.155 0.899 0.410 89 68 39 0 0
-0.0840 0.3866 -1.9742 -0.443 0.804 0.396 84 60 32 0 0
-0.0877 0.3930 -1.9925 -0.319 0.743 0.589 79 56 25 0 0
-0.0889 0.3953 -2.0083 -0.542 0.839 0.044 80 57 26 0 0
-0.0898 0.3970 -2.0188 -0.700 0.672 0.242 77 54 23 0 0
-0.0925 0.4013 -2.0270 -0.518 0.632 0.577 78 54 26 0 0
-0.1041 0.4208 -2.0816 -0.143 0.988 0.055 78 56 27 0 0
-0.1058 0.4242 -2.1029 -0.487 0.686 0.540 131 106 66 0 0
-0.1169 0.4427 -2.1526 -0.295 0.698 0.652 82 59 26 0 0
-0.1242 0.4543 -2.1721 -0.308 0.846 0.436 83 60 26 0 0
-0.1358 0.4721 -2.1852 -0.203 0.955 0.218 81 58 24 0 0
-0.1626 0.5150 -2.2591 -0.137 0.707 0.693 98 85 59 0 0
0.0646 0.1325 -0.9330 -0.534 0.763 0.363 49 31 18 0 0
0.0692 0.1288 -1.0111 -0.772 0.273 -0.574 79 60 29 0 0
0.0797 0.1157 -1.0754 -0.912 0.408 0.031 41 35 23 0 0
0.0611 0.1513 -1.2717 0.521 0.798 0.303 79 71 51 0 0
0.0436 0.1807 -1.3553 -0.404 0.749 0.525 131 109 78 0 0
-0.0090 0.2619 -1.4294 -0.380 0.733 0.563 94 72 35 0 0
-0.0108 0.2651 -1.4433 -0.362 0.921 0.146 103 77 42 0 0
-0.0111 0.2658 -1.4482 -0.362 0.867 0.342 102 76 41 0 0
-0.0119 0.2672 -1.4526 -0.362 0.867 0.342 96 70 35 0 0
-0.0128 0.2686 -1.4570 -0.362 0.867 0.342 90 64 30 0 0
-0.0181 0.2769 -1.4678 -0.003 0.739 0.674 91 66 35 0 0
-0.0367 0.3073 -1.5336 -0.072 0.955 0.288 80 53 24 0 0
-0.0371 0.3081 -1.5385 -0.145 0.939 0.313 146 112 66 0 0
-0.0377 0.3091 -1.5432 -0.179 0.974 0.138 160 125 78 0 0
-0.0581 0.3419 -1.6018 -0.197 0.623 0.757 135 112 72 0 0
-0.0788 0.3730 -1.6122 -0.217 0.542 0.811 166 139 97 0 0
-0.0669 0.3582 -1.6833 -0.043 0.864 -0.501 100 78 53 0 0
-0.0549 0.3429 -1.7452 -0.403 0.915 0.009 74 55 24 0 0
-0.0727 0.3763 -1.9202 -0.567 0.620 0.542 84 63 34 0 0
-0.0761 0.3831 -1.9617 -0.010 0.883 0.470 89 68 39 0 0
-0.0812 0.3913 -1.9783 -0.267 0.958 0.109 86 62 34 0 0
-0.0861 0.4002 -2.0182 -0.675 0.655 0.339 75 52 21 0 0
-0.0886 0.4042 -2.0266 -0.518 0.632 0.577 76 52 24 0 0
-0.1138 0.4461 -2.1333 -0.488 0.829 0.274 81 58 26 0 0
-0.1144 0.4472 -2.1384 -0.518 0.804 0.291 81 58 26 0 0
-0.1251 0.4643 -2.1708 -0.448 0.860 0.245 84 61 27 0 0
-0.1270 0.4675 -2.1800 -0.178 0.890 0.420 83 60 26 0 0
-0.1306 0.4732 -2.1867 -0.216 0.790 0.574 80 57 23 0 0
0.0694 0.1325 -0.9103 -0.650 0.745 0.151 77 57 26 0 0
0.0688 0.1340 -0.9238 -0.269 0.937 0.224 97 76 51 0 0
0.0683 0.1351 -0.9329 -0.534 0.763 0.363 49 33 18 0 0
0.0700 0.1347 -0.9855 -0.417 0.870 0.263 73 52 31 0 0
0.0776 0.1253 -1.0281 -0.816 0.359 -0.452 64 45 20 0 0
0.0794 0.1229 -1.0340 -0.844 0.350 -0.407 61 43 19 0 0
0.0806 0.1213 -1.0396 -0.904 0.355 -0.238 56 39 18 0 0
0.0824 0.1189 -1.0455 -0.877 0.475 -0.063 54 37 16 0 0
0.0833 0.1214 -1.1390 -0.771 0.600 0.213 14 10 7 0 0
0.0818 0.1237 -1.1430 -0.910 0.374 0.179 24 18 11 0 0
-0.0068 0.2677 -1.4485 -0.362 0.867 0.342 95 69 34 0 0
-0.0076 0.2691 -1.4529 -0.362 0.867 0.342 96 70 35 0 0
-0.0120 0.2761 -1.4645 -0.387 0.739 0.552 90 66 34 0 0
-0.0315 0.3080 -1.5348 -0.072 0.955 0.288 104 79 41 0 0
-0.0315 0.3082 -1.5401 -0.351 0.862 0.367 145 117 63 0 0
-0.0324 0.3097 -1.5444 -0.351 0.862 0.367 152 121 76 0 0
-0.0328 0.3105 -1.5493 -0.408 0.912 0.041 124 94 57 0 0
-0.0749 0.3754 -1.6122 -0.267 0.504 0.821 151 126 86 0 0
-0.0676 0.3773 -1.9156 -0.752 0.602 0.269 85 64 34 0 0
-0.0701 0.3822 -1.9468 -0.463 0.856 0.231 71 47 21 0 0
-0.0726 0.3860 -1.9495 -0.265 0.725 0.636 77 54 27 0 0
-0.0704 0.3832 -1.9579 -0.533 0.805 0.260 87 66 37 0 0
-0.0733 0.3877 -1.9658 -0.535 0.751 0.388 88 67 38 0 0
-0.0758 0.3921 -1.9798 -0.517 0.562 0.646 84 60 32 0 0
-0.0781 0.3955 -1.9827 -0.485 0.523 0.701 84 60 31 0 0
-0.0821 0.4027 -2.0123 -0.283 0.956 0.082 78 55 24 0 0
-0.0817 0.4025 -2.0185 -0.216 0.972 0.089 76 53 22 0 0
-0.0910 0.4181 -2.0647 -0.369 0.836 0.406 75 54 25 0 0
-0.0904 0.4175 -2.0713 -0.809 0.552 0.203 77 56 26 0 0
-0.0935 0.4225 -2.0788 0.029 0.947 0.319 77 56 26 0 0
-0.0995 0.4324 -2.1060 -0.148 0.699 0.700 146 121 84 0 0
-0.1092 0.4480 -2.1340 -0.356 0.855 0.376 79 56 24 0 0
-0.1200 0.4658 -2.1781 -0.513 0.709 0.484 84 61 27 0 0
-0.1227 0.4702 -2.1861 -0.751 0.531 0.391 81 58 24 0 0
-0.1257 0.4749 -2.1938 -0.407 0.860 0.307 79 56 22 0 0
-0.1264 0.4761 -2.1987 -0.493 0.808 0.322 79 56 22 0 0
-0.1268 0.4770 -2.2041 -0.222 0.933 0.285 80 57 23 0 0
0.0750 0.1324 -0.9112 -0.232 0.917 0.325 77 55 26 0 0
0.0890 0.1200 -1.1056 -0.714 0.532 0.456 27 22 17 0 0
0.0007 0.2647 -1.4412 -0.253 0.867 0.428 93 68 36 0 0
-0.0003 0.2665 -1.4455 -0.253 0.867 0.428 96 71 41 0 0
-0.0152 0.2909 -1.5047 -0.278 0.801 0.530 97 72 36 0 0
-0.0199 0.2981 -1.5107 -0.327 0.449 0.831 80 59 29 0 0
-0.0256 0.3081 -1.5472 0.219 0.911 0.350 134 108 66 0 0
-0.0269 0.3105 -1.5564 0.166 0.850 0.500 69 43 19 0 0
-0.0471 0.3421 -1.5997 0.134 0.616 0.776 142 118 86 0 0
-0.0495 0.3458 -1.6025 -0.108 0.551 0.828 105 82 56 0 0
-0.0708 0.3777 -1.6123 -0.267 0.504 0.821 128 104 64 0 0
-0.0514 0.3587 -1.8398 -0.539 0.757 0.369 87 65 34 0 0
-0.0596 0.3732 -1.8977 -0.202 0.922 0.331 80 58 27 0 0
-0.0604 0.3747 -1.9023 -0.202 0.922 0.331 83 62 33 0 0
-0.0760 0.4012 -1.9859 -0.432 0.544 0.719 80 59 28 0 0
-0.0764 0.4028 -2.0085 -0.391 0.872 0.293 76 55 24 0 0
-0.0771 0.4041 -2.0133 -0.445 0.849 0.285 77 55 26 0 0
-0.0778 0.4052 -2.0183 -0.514 0.850 0.110 75 54 25 0 0
-0.0770 0.4045 -2.0251 -0.616 0.661 0.428 76 55 26 0 0
-0.1177 0.4715 -2.1874 -0.088 0.961 0.263 81 58 24 0 0
-0.1486 0.5203 -2.2617 -0.271 0.962 -0.018 119 110 91 0 0
0.0933 0.1219 -1.1008 -0.924 0.354 0.145 20 16 13 0 0
0.0924 0.1234 -1.1051 -0.668 0.618 0.414 20 16 15 0 0
0.0802 0.1515 -1.3384 0.241 0.836 0.492 120 95 60 0 0
0.0784 0.1544 -1.3422 0.260 0.876 0.407 121 97 60 0 0
0.0269 0.2327 -1.3984 -0.099 0.926 0.364 156 130 90 0 0
0.0089 0.2607 -1.4346 -0.408 0.728 0.550 95 71 35 0 0
0.0010 0.2735 -1.4585 -0.465 0.791 0.398 99 76 35 0 0
-0.0102 0.2920 -1.5056 -0.301 0.853 0.427 88 63 28 0 0
-0.0212 0.3105 -1.5580 0.325 0.857 0.399 67 41 19 0 0
-0.0386 0.3379 -1.5989 0.000 0.737 0.676 123 102 69 0 0
-0.0395 0.3443 -1.7160 -0.548 0.769 0.329 82 65 38 0 0
-0.0409 0.3470 -1.7308 -0.499 0.804 0.325 66 47 23 0 0
-0.0409 0.3499 -1.7969 -0.132 0.933 0.335 89 69 34 0 0
-0.0516 0.3692 -1.8797 -0.573 0.745 0.341 97 74 42 0 0
-0.0559 0.3770 -1.9084 -0.304 0.883 0.356 78 57 28 0 0
-0.0676 0.3974 -1.9856 -0.473 0.867 0.158 79 58 27 0 0
-0.0683 0.3990 -1.9962 -0.176 0.838 0.516 79 58 27 0 0
-0.0691 0.4004 -2.0010 -0.341 0.889 0.305 79 58 27 0 0
-0.0708 0.4030 -2.0046 -0.385 0.917 0.108 77 56 26 0 0
-0.0721 0.4052 -2.0087 -0.524 0.823 0.219 75 54 25 0 0
-0.0721 0.4057 -2.0202 -0.630 0.612 0.478 77 56 28 0 0
-0.0744 0.4091 -2.0231 -0.472 0.789 0.393 76 55 26 0 0
-0.0838 0.4243 -2.0515 -0.017 0.938 0.346 76 55 26 0 0
-0.0822 0.4225 -2.0653 -0.556 0.820 0.137 76 55 26 0 0
-0.1022 0.4558 -2.1560 -0.424 0.740 0.522 83 60 26 0 0
-0.1020 0.4560 -2.1621 -0.348 0.878 0.327 84 61 27 0 0
-0.1357 0.5094 -2.2509 -0.511 0.470 0.720 94 77 35 0 0
0.0837 0.1394 -0.9913 -0.455 0.888 0.064 73 56 36 0 0
0.0821 0.1432 -1.0237 -0.666 0.704 -0.247 89 68 38 0 0
0.0876 0.1414 -1.1634 -0.702 0.597 0.389 102 75 41 0 0
0.0889 0.1473 -1.3368 0.233 0.905 0.356 108 87 54 0 0
0.0882 0.1485 -1.3414 0.297 0.880 0.370 111 90 59 0 0
0.0870 0.1504 -1.3457 0.204 0.950 0.237 115 94 62 0 0
0.0419 0.2187 -1.3921 -0.094 0.574 0.814 141 115 76 0 0
0.0396 0.2222 -1.3954 -0.129 0.745 0.654 151 124 86 0 0
0.0386 0.2239 -1.3997 -0.315 0.909 0.272 116 92 55 0 0
0.0201 0.2522 -1.4253 -0.546 0.674 0.498 116 90 59 0 0
0.0135 0.2621 -1.4299 -0.579 0.744 0.334 95 69 37 0 0
0.0050 0.2759 -1.4586 -0.367 0.865 0.342 98 74 37 0 0
0.0003 0.2844 -1.4959 0.026 0.854 0.520 152 122 75 0 0
-0.0058 0.2939 -1.5059 -0.168 0.891 0.422 88 64 29 0 0
-0.0079 0.2989 -1.5512 0.178 0.896 0.406 130 98 55 0 0
-0.0346 0.3403 -1.5989 -0.426 0.573 0.701 129 105 69 0 0
-0.0375 0.3447 -1.6013 -0.221 0.387 0.895 138 114 73 0 0
-0.0356 0.3470 -1.7159 -0.548 0.769 0.329 76 59 33 0 0
-0.0367 0.3493 -1.7310 -0.370 0.864 0.341 65 47 24 0 0
-0.0364 0.3509 -1.7752 -0.465 0.846 0.263 74 51 27 0 0
-0.0453 0.3684 -1.8767 -0.438 0.847 0.300 97 74 42 0 0
-0.0476 0.3720 -1.8795 -0.571 0.729 0.377 97 74 40 0 0
-0.0634 0.3997 -1.9799 -0.572 0.781 0.252 79 58 27 0 0
-0.0645 0.4016 -1.9842 -0.514 0.771 0.376 78 57 27 0 0
-0.0648 0.4022 -1.9896 -0.283 0.868 0.408 79 58 28 0 0
-0.0808 0.4284 -2.0500 -0.246 0.900 0.360 75 55 26 0 0
-0.0778 0.4252 -2.0774 -0.695 0.684 0.221 80 59 31 0 0
-0.0902 0.4464 -2.1431 -0.589 0.624 0.513 79 56 24 0 0
-0.0971 0.4571 -2.1572 -0.408 0.751 0.519 81 58 24 0 0
-0.0972 0.4575 -2.1631 -0.334 0.811 0.481 83 60 26 0 0
-0.0977 0.4585 -2.1684 -0.502 0.837 0.218 83 60 26 0 0
-0.1141 0.4834 -2.1866 -0.793 0.165 0.587 81 58 24 0 0
-0.1198 0.4924 -2.2023 -0.605 0.747 0.275 83 60 26 0 0
-0.1198 0.4928 -2.2082 -0.322 0.833 0.450 81 58 23 0 0
-0.1205 0.4940 -2.2132 -0.327 0.900 0.288 84 64 26 0 0
-0.1413 0.5264 -2.2543 0.093 0.707 0.701 93 82 56 0 0
0.0966 0.1341 -1.1125 -0.810 0.484 0.331 45 35 21 0 0
0.0909 0.1449 -1.1629 -0.702 0.597 0.389 73 51 22 0 0
0.1051 0.1322 -1.3410 0.273 0.861 0.430 107 86 53 0 0
0.0440 0.2241 -1.3957 -0.207 0.570 0.795 139 112 83 0 0
0.0344 0.2386 -1.4031 -0.265 0.652 0.711 138 114 80 0 0
0.0223 0.2572 -1.4238 -0.692 0.670 0.267 110 85 50 0 0
0.0169 0.2656 -1.4345 -0.425 0.781 0.458 86 62 26 0 0
0.0139 0.2706 -1.4474 -0.348 0.857 0.381 93 69 32 0 0
0.0072 0.2826 -1.4933 0.026 0.854 0.520 153 121 81 0 0
0.0057 0.2850 -1.4971 0.026 0.854 0.520 155 123 78 0 0
-0.0019 0.2963 -1.5006 0.012 0.745 0.667 97 71 33 0 0
-0.0036 0.2989 -1.5043 -0.202 0.737 0.645 87 64 30 0 0
-0.0362 0.3512 -1.6039 -0.221 0.387 0.895 140 113 72 0 0
-0.0323 0.3513 -1.7314 -0.370 0.864 0.341 86 67 43 0 0
-0.0327 0.3522 -1.7363 -0.493 0.837 0.237 85 66 42 0 0
-0.0437 0.3748 -1.8793 -0.420 0.901 0.112 97 75 40 0 0
-0.0593 0.4025 -1.9856 -0.564 0.821 0.094 78 57 28 0 0
-0.0578 0.4009 -1.9991 -0.682 0.731 -0.001 78 57 28 0 0
-0.0919 0.4583 -2.1587 -0.457 0.669 0.586 81 58 25 0 0
-0.0932 0.4606 -2.1688 -0.477 0.527 0.703 82 59 25 0 0
-0.0947 0.4629 -2.1727 -0.313 0.924 0.222 80 57 24 0 0
0.1362 0.0748 -0.9020 0.190 0.327 0.926 175 178 180 0 0
0.0926 0.1395 -0.9261 -0.573 0.813 0.106 71 51 27 0 0
0.0960 0.1446 -1.1389 -0.776 0.517 0.363 87 66 35 0 0
0.1101 0.1337 -1.3468 0.172 0.647 0.743 108 88 57 0 0
0.0941 0.1575 -1.3552 0.154 0.532 0.833 91 74 47 0 0
0.0510 0.2224 -1.3981 0.001 0.863 0.505 145 116 82 0 0
0.0437 0.2336 -1.4075 -0.412 0.911 -0.017 135 110 75 0 0
0.0271 0.2586 -1.4244 -0.342 0.868 0.359 123 99 63 0 0
0.0209 0.2682 -1.4345 -0.483 0.744 0.461 96 73 39 0 0
0.0216 0.2677 -1.4454 -0.578 0.759 0.299 90 68 29 0 0
0.0125 0.2833 -1.4944 -0.038 0.875 0.482 155 121 80 0 0
-0.0001 0.3021 -1.5038 -0.141 0.885 0.444 85 63 31 0 0
-0.0012 0.3071 -1.5762 0.350 0.825 0.444 127 102 69 0 0
-0.0515 0.4002 -1.9960 -0.470 0.872 -0.133 77 56 29 0 0
-0.0568 0.4085 -2.0066 -0.675 0.737 -0.039 77 56 29 0 0
-0.0675 0.4279 -2.0859 -0.488 0.781 0.389 65 45 21 0 0
-0.0806 0.4494 -2.1390 0.006 0.969 0.248 69 46 15 0 0
-0.0846 0.4559 -2.1512 -0.625 0.707 0.332 79 56 24 0 0
-0.0879 0.4610 -2.1586 -0.457 0.669 0.586 80 57 25 0 0
-0.0901 0.4646 -2.1674 -0.492 0.607 0.624 81 58 27 0 0
-0.0894 0.4639 -2.1743 0.008 0.737 0.676 80 57 26 0 0
-0.0913 0.4669 -2.1775 0.008 0.737 0.676 83 60 28 0 0
0.1371 0.0819 -0.9051 0.217 0.263 0.940 179 176 174 0 0
0.0970 0.1417 -0.9357 -0.579 0.713 0.395 64 45 22 0 0
0.0978 0.1455 -1.0403 -0.479 0.850 -0.218 66 49 25 0 0
0.0586 0.2197 -1.3959 -0.286 0.724 0.627 157 128 88 0 0
0.0221 0.2756 -1.4527 -0.336 0.753 0.566 92 68 33 0 0
0.0199 0.2807 -1.4923 -0.001 0.883 0.470 148 117 73 0 0
0.0177 0.2840 -1.4955 -0.058 0.923 0.381 159 128 85 0 0
0.0145 0.2890 -1.5031 -0.307 0.873 0.378 103 77 41 0 0
-0.0517 0.3910 -1.6169 -0.276 0.586 0.761 157 135 96 0 0
-0.0545 0.3966 -1.6509 0.088 0.914 -0.395 87 65 34 0 0
-0.0404 0.3773 -1.6763 -0.247 0.717 -0.652 101 82 51 0 0
-0.0211 0.3520 -1.7347 -0.282 0.928 0.242 81 64 40 0 0
-0.0300 0.3719 -1.8801 -0.426 0.903 0.051 97 77 44 0 0
-0.0356 0.3833 -1.9473 -0.391 0.669 0.632 71 49 25 0 0
-0.0374 0.3861 -1.9508 -0.260 0.707 0.657 73 52 26 0 0
-0.0384 0.3877 -1.9554 -0.135 0.854 0.502 74 53 25 0 0
-0.0379 0.3873 -1.9617 -0.228 0.932 0.283 76 55 26 0 0
-0.0383 0.3883 -1.9669 -0.359 0.881 0.307 78 57 28 0 0
-0.0393 0.3899 -1.9714 -0.159 0.956 0.248 79 58 29 0 0
-0.0640 0.4311 -2.0791 -0.522 0.853 0.013 77 57 31 0 0
-0.0776 0.4533 -2.1315 -0.548 0.666 0.505 67 46 15 0 0
-0.0789 0.4555 -2.1355 -0.473 0.731 0.493 67 44 13 0 0
-0.0797 0.4569 -2.1404 -0.457 0.807 0.374 68 45 14 0 0
-0.0803 0.4580 -2.1455 -0.520 0.791 0.324 76 53 21 0 0
-0.0804 0.4584 -2.1513 -0.471 0.832 0.293 81 58 25 0 0
-0.0807 0.4599 -2.1747 -0.907 0.389 0.159 81 58 26 0 0
0.0982 0.1616 -1.2144 0.196 0.886 0.420 105 86 53 0 0
0.0969 0.1637 -1.2185 0.197 0.899 0.390 87 67 33 0 0
0.0965 0.1646 -1.2232 0.005 0.972 0.234 88 71 45 0 0
0.0264 0.2777 -1.4529 -0.249 0.792 0.558 97 73 39 0 0
0.0241 0.2832 -1.4976 -0.138 0.896 0.423 156 124 81 0 0
0.0172 0.2939 -1.5122 -0.093 0.898 0.431 86 65 34 0 0
0.0211 0.2889 -1.5263 -0.034 0.682 0.731 80 59 28 0 0
0.0144 0.3004 -1.5623 -0.050 0.994 0.099 72 50 20 0 0
-0.0475 0.3930 -1.6172 -0.108 0.718 0.688 153 131 91 0 0
-0.0543 0.4030 -1.6207 -0.436 0.864 0.253 76 55 22 0 0
-0.0530 0.4025 -1.6483 -0.530 0.824 -0.203 87 65 34 0 0
-0.0314 0.3858 -1.9473 -0.391 0.669 0.632 72 50 26 0 0
-0.0331 0.3884 -1.9511 -0.391 0.669 0.632 71 50 25 0 0
-0.0338 0.3897 -1.9559 -0.290 0.837 0.464 78 57 29 0 0
-0.0337 0.3898 -1.9618 -0.389 0.921 0.023 79 58 29 0 0
-0.0628 0.4393 -2.1105 -0.245 0.877 0.413 80 63 38 0 0
-0.0745 0.4576 -2.1360 -0.524 0.554 0.647 72 49 18 0 0
-0.0752 0.4589 -2.1409 -0.560 0.742 0.370 75 52 20 0 0
-0.0762 0.4606 -2.1454 -0.520 0.791 0.324 82 59 25 0 0
-0.0761 0.4607 -2.1516 -0.417 0.859 0.297 80 57 23 0 0
-0.0763 0.4619 -2.1691 -0.819 0.351 0.454 82 59 27 0 0
-0.0777 0.4641 -2.1730 -0.920 0.259 0.295 80 57 25 0 0
-0.0931 0.4881 -2.2049 -0.434 0.735 0.520 81 58 24 0 0
-0.1094 0.5129 -2.2292 -0.561 0.625 0.542 96 77 35 0 0
0.1409 0.0928 -0.9077 0.368 0.506 0.780 177 177 176 0 0
0.1092 0.1407 -0.9474 -0.709 0.644 0.289 61 43 23 0 0
0.1058 0.1468 -0.9690 -0.225 0.913 0.341 76 59 39 0 0
0.1046 0.1532 -1.0636 -0.760 0.650 -0.007 73 52 21 0 0
0.1047 0.1533 -1.0685 -0.760 0.650 -0.007 92 70 37 0 0
0.1047 0.1607 -1.2161 0.093 0.775 0.625 117 95 60 0 0
0.1032 0.1631 -1.2201 0.020 0.789 0.614 99 78 47 0 0
0.1022 0.1647 -1.2244 -0.010 0.952 0.307 111 99 82 0 0
0.0998 0.1684 -1.2277 -0.799 0.372 0.473 175 172 168 0 0
0.0509 0.2484 -1.4137 -0.300 0.779 0.551 141 115 80 0 0
0.0478 0.2533 -1.4214 -0.348 0.755 0.556 125 99 62 0 0
0.0464 0.2555 -1.4254 -0.308 0.738 0.600 126 98 65 0 0
0.0204 0.3001 -1.5641 0.052 0.917 0.396 76 54 23 0 0
0.0202 0.3007 -1.5692 0.064 0.979 0.192 75 52 23 0 0
-0.0409 0.3915 -1.6146 0.049 0.641 0.766 200 176 139 0 0
-0.0428 0.3944 -1.6179 -0.108 0.718 0.688 176 154 114 0 0
-0.0449 0.3976 -1.6210 -0.059 0.669 0.741 144 123 85 0 0
-0.0501 0.4052 -1.6209 -0.436 0.864 0.253 72 49 18 0 0
-0.0292 0.3916 -1.9565 -0.290 0.837 0.464 81 60 32 0 0
-0.0393 0.4097 -2.0246 -0.287 0.812 0.509 76 55 27 0 0
-0.0377 0.4084 -2.0441 0.044 0.748 0.662 92 71 36 0 0
-0.0397 0.4114 -2.0474 0.044 0.748 0.662 119 95 61 0 0
-0.0723 0.4646 -2.1689 -0.728 0.590 0.349 81 58 26 0 0
-0.0730 0.4659 -2.1738 -0.813 0.497 0.304 79 56 24 0 0
-0.0740 0.4676 -2.1784 -0.441 0.864 0.241 81 58 26 0 0
-0.0889 0.4906 -2.2050 -0.434 0.735 0.520 82 60 25 0 0
-0.0958 0.5013 -2.2190 -0.169 0.852 0.496 86 68 28 0 0
0.1482 0.0906 -0.9094 0.416 0.503 0.758 177 177 180 0 0
0.1085 0.1526 -1.0014 -0.531 0.847 0.026 64 47 27 0 0
0.1092 0.1548 -1.0640 -0.632 0.736 0.243 68 47 22 0 0
0.1087 0.1556 -1.0686 -0.614 0.786 -0.071 79 57 31 0 0
0.1063 0.1612 -1.1107 -0.737 0.646 0.200 75 52 28 0 0
0.1064 0.1614 -1.1156 -0.641 0.746 0.179 65 44 20 0 0
0.1065 0.1615 -1.1206 -0.263 0.944 0.198 66 47 23 0 0
0.1100 0.1613 -1.2170 -0.022 0.716 0.697 101 86 62 0 0
0.1079 0.1646 -1.2205 -0.022 0.716 0.697 124 113 95 0 0
0.1055 0.1682 -1.2239 -0.396 0.643 0.655 186 181 176 0 0
0.0516 0.2564 -1.4263 -0.314 0.915 0.252 138 109 77 0 0
0.0472 0.2629 -1.4277 0.037 0.922 0.386 124 97 61 0 0
0.0350 0.2871 -1.5581 -0.211 0.796 0.567 155 124 78 0 0
0.0254 0.3019 -1.5756 -0.753 0.530 0.389 89 69 35 0 0
-0.0335 0.3889 -1.6128 0.049 0.641 0.766 196 173 134 0 0
-0.0019 0.3526 -1.7973 -0.353 0.931 0.091 90 69 38 0 0
-0.0040 0.3570 -1.8227 -0.268 0.874 0.406 80 60 28 0 0
-0.0709 0.4714 -2.1709 -0.332 0.622 0.709 78 55 23 0 0
0.1145 0.1511 -0.9836 -0.474 0.865 0.165 69 52 31 0 0
0.1140 0.1553 -1.0500 -0.633 0.723 0.277 71 55 29 0 0
0.1154 0.1550 -1.0847 -0.527 0.751 0.398 69 49 26 0 0
0.1145 0.1565 -1.0890 -0.350 0.823 0.447 65 45 21 0 0
0.1158 0.1565 -1.1240 -0.338 0.782 0.523 63 45 23 0 0
0.1196 0.1547 -1.1958 -0.225 0.949 -0.220 65 49 29 0 0
0.1144 0.1634 -1.2172 -0.444 0.051 0.894 163 159 149 0 0
0.0911 0.2061 -1.3935 -0.175 0.650 0.740 125 98 65 0 0
0.0233 0.3118 -1.5487 -0.174 0.478 0.861 107 79 43 0 0
0.0352 0.2961 -1.5757 -0.233 0.843 0.485 81 58 22 0 0
0.0183 0.3204 -1.5756 -0.250 0.870 0.424 89 66 31 0 0
-0.0109 0.3643 -1.6105 -0.158 0.381 0.911 111 88 55 0 0
-0.0300 0.3920 -1.6124 -0.269 0.710 0.651 152 126 84 0 0
-0.0317 0.3946 -1.6159 -0.269 0.710 0.651 138 114 76 0 0
-0.0338 0.3978 -1.6190 -0.601 0.794 0.093 156 133 96 0 0
0.0037 0.3528 -1.7933 -0.459 0.853 0.248 82 63 33 0 0
0.0007 0.3587 -1.8234 -0.348 0.879 0.327 82 62 29 0 0
-0.0052 0.3706 -1.8898 -0.175 0.966 0.193 92 71 40 0 0
-0.0070 0.3734 -1.8933 -0.377 0.790 0.483 89 68 38 0 0
-0.0632 0.4684 -2.1640 -0.276 0.787 0.551 76 53 21 0 0
-0.0657 0.4731 -2.1843 -0.410 0.593 0.693 80 57 25 0 0
-0.0865 0.5050 -2.2205 -0.715 0.586 0.380 79 61 21 0 0
0.1175 0.1548 -0.9831 -0.194 0.895 0.401 66 49 28 0 0
0.1248 0.1470 -1.0349 -0.385 0.893 0.235 58 41 21 0 0
0.1245 0.1477 -1.0395 -0.489 0.785 0.380 65 48 28 0 0
0.1236 0.1492 -1.0438 -0.489 0.785 0.380 53 36 15 0 0
0.1219 0.1519 -1.0476 -0.563 0.619 0.547 55 39 18 0 0
0.1268 0.1492 -1.1284 -0.611 0.741 0.278 64 47 27 0 0
0.1256 0.1510 -1.1326 -0.654 0.603 0.456 54 37 17 0 0
0.1243 0.1534 -1.1416 -0.581 0.673 0.458 55 38 18 0 0
0.1232 0.1552 -1.1458 -0.603 0.659 0.450 51 34 14 0 0
0.1238 0.1559 -1.1760 -0.643 0.734 0.218 62 43 19 0 0
0.1239 0.1566 -1.1910 -0.429 0.864 -0.265 74 58 35 0 0
0.0615 0.2594 -1.4382 -0.110 0.994 0.010 103 78 43 0 0
0.0582 0.2667 -1.4875 -0.294 0.424 0.857 142 119 75 0 0
0.0239 0.3213 -1.5876 -0.163 0.918 0.362 104 81 41 0 0
-0.0234 0.3904 -1.6098 -0.299 0.373 0.878 145 121 79 0 0
-0.0266 0.3951 -1.6118 -0.443 0.573 0.689 152 127 84 0 0
-0.0296 0.3995 -1.6140 -0.609 0.690 0.392 132 108 71 0 0
-0.0553 0.4643 -2.1395 -0.701 0.553 0.451 79 56 23 0 0
-0.0568 0.4673 -2.1552 -0.530 0.673 0.516 82 59 27 0 0
-0.0594 0.4715 -2.1635 -0.488 0.687 0.539 78 55 23 0 0
-0.0616 0.4758 -2.1841 -0.410 0.593 0.693 80 57 25 0 0
-0.0634 0.4786 -2.1876 -0.410 0.593 0.693 83 61 29 0 0
-0.0673 0.4842 -2.1881 -0.458 0.521 0.721 83 62 29 0 0
-0.0830 0.5087 -2.2256 -0.723 0.579 0.376 90 71 32 0 0
-0.0895 0.5194 -2.2522 -0.555 0.762 0.333 85 68 26 0 0
-0.0905 0.5211 -2.2567 -0.690 0.603 0.400 85 68 31 0 0
0.1281 0.1499 -1.0249 -0.366 0.930 0.026 59 42 23 0 0
0.1293 0.1487 -1.0352 -0.602 0.790 0.114 60 43 23 0 0
0.1284 0.1502 -1.0395 -0.539 0.751 0.382 63 46 26 0 0
0.1234 0.1604 -1.0944 -0.530 0.758 0.380 68 47 23 0 0
0.1325 0.1485 -1.1147 -0.392 0.902 0.182 62 44 22 0 0
0.0618 0.2687 -1.4662 -0.578 0.679 0.453 95 72 38 0 0
0.0632 0.2671 -1.4725 0.124 0.805 0.581 84 62 31 0 0
0.0404 0.3035 -1.5412 -0.075 0.405 0.911 172 140 91 0 0
0.0383 0.3067 -1.5445 0.086 0.511 0.856 158 128 85 0 0
0.0277 0.3235 -1.5768 -0.184 0.869 0.460 92 71 34 0 0
0.0298 0.3210 -1.5840 -0.163 0.918 0.362 82 58 22 0 0
0.0082 0.3531 -1.6055 -0.243 0.353 0.904 98 82 53 0 0
-0.0579 0.4790 -2.1836 -0.500 0.585 0.639 80 58 26 0 0
-0.0592 0.4811 -2.1876 -0.570 0.504 0.649 81 61 28 0 0
-0.0787 0.5110 -2.2258 -0.628 0.599 0.497 94 75 36 0 0
-0.0827 0.5187 -2.2620 -0.285 0.665 0.691 82 67 31 0 0
-0.1020 0.5475 -2.2816 -0.548 0.009 0.837 206 206 208 0 0
0.1313 0.1533 -1.0245 -0.063 0.929 0.366 57 40 22 0 0
0.1324 0.1521 -1.0299 -0.602 0.799 -0.016 59 42 23 0 0
0.1273 0.1629 -1.0944 -0.509 0.788 0.346 65 46 22 0 0
0.1363 0.1525 -1.1392 -0.246 0.925 0.290 54 39 18 0 0
0.1726 0.1136 -1.3743 0.614 0.500 0.611 98 86 72 0 0
0.1114 0.2023 -1.3947 -0.217 0.927 0.305 74 58 32 0 0
0.1081 0.2071 -1.3973 -0.427 0.665 0.613 89 69 44 0 0
0.1002 0.2189 -1.4065 -0.255 0.273 0.928 115 91 60 0 0
0.0910 0.2319 -1.4042 -0.214 0.301 0.929 147 118 82 0 0
0.0660 0.2710 -1.4663 -0.568 0.671 0.477 91 68 36 0 0
0.0567 0.2878 -1.5314 -0.764 0.644 -0.044 95 74 41 0 0
0.0565 0.2884 -1.5365 -0.705 0.576 0.413 81 57 20 0 0
0.0204 0.3535 -1.7814 0.018 0.443 0.896 79 61 37 0 0
-0.0100 0.4132 -2.0762 -0.161 0.645 0.747 77 56 28 0 0
-0.0517 0.4785 -2.1804 -0.174 0.731 0.660 79 56 24 0 0
-0.0759 0.5159 -2.2297 -0.709 0.627 0.322 89 70 30 0 0
-0.0760 0.5176 -2.2597 -0.112 0.801 0.588 82 66 26 0 0
0.1375 0.1535 -1.0401 -0.452 0.703 0.548 67 50 30 0 0
0.1364 0.1553 -1.0443 -0.452 0.887 0.097 58 41 22 0 0
0.1395 0.1558 -1.1338 -0.548 0.809 0.213 59 43 22 0 0
0.1374 0.1600 -1.1521 -0.174 0.946 0.273 58 42 22 0 0
0.1371 0.1606 -1.1569 -0.135 0.966 0.222 56 41 20 0 0
0.0973 0.2316 -1.4112 -0.583 0.321 0.746 104 83 46 0 0
0.0753 0.2648 -1.4448 0.108 0.994 0.024 109 85 50 0 0
0.0610 0.2901 -1.5315 -0.533 0.842 -0.086 80 59 24 0 0
0.0600 0.2918 -1.5359 -0.533 0.690 0.490 91 66 27 0 0
-0.0207 0.4109 -1.6111 -0.499 0.486 0.718 153 129 93 0 0
0.0193 0.3620 -1.7538 -0.838 0.497 -0.226 111 86 47 0 0
0.0267 0.3530 -1.7838 -0.373 0.529 0.762 80 62 38 0 0
0.0012 0.4001 -1.9745 -0.623 0.758 0.193 84 63 32 0 0
-0.0000 0.4027 -1.9903 -0.705 0.476 0.525 82 61 30 0 0
-0.0008 0.4042 -1.9951 -0.284 0.703 0.652 83 62 31 0 0
-0.0063 0.4128 -2.0115 -0.115 0.943 0.311 87 66 35 0 0
-0.0166 0.4334 -2.1152 -0.130 0.940 0.316 130 105 69 0 0
-0.0419 0.4726 -2.1702 -0.255 0.886 0.388 80 57 25 0 0
-0.0430 0.4743 -2.1748 -0.255 0.886 0.388 79 56 24 0 0
-0.0804 0.5330 -2.2713 -0.080 0.969 0.233 171 169 165 0 0
0.1481 0.1423 -0.9676 0.063 0.947 0.315 81 60 33 0 0
0.1481 0.1429 -0.9770 -0.153 0.986 0.074 79 57 34 0 0
0.1440 0.1497 -0.9937 -0.366 0.907 0.209 71 51 29 0 0
0.1019 0.2333 -1.4116 -0.506 0.584 0.635 128 109 74 0 0
0.1000 0.2364 -1.4152 -0.476 0.558 0.680 125 105 69 0 0
0.0956 0.2429 -1.4220 -0.092 0.566 0.819 126 102 70 0 0
0.0959 0.2428 -1.4275 0.032 0.856 0.517 123 99 67 0 0
0.0656 0.2916 -1.5267 -0.311 0.930 -0.197 97 75 37 0 0
0.0664 0.2907 -1.5328 -0.286 0.956 -0.071 83 61 22 0 0
0.0697 0.2868 -1.5463 0.197 0.888 0.416 181 152 101 0 0
0.0656 0.2931 -1.5531 0.315 0.693 0.649 153 126 80 0 0
0.0628 0.2974 -1.5612 0.018 0.952 0.306 101 76 37 0 0
-0.0059 0.3986 -1.6218 -0.545 0.563 0.621 125 101 67 0 0
-0.0101 0.4052 -1.6334 -0.149 0.926 0.346 72 51 27 0 0
-0.0111 0.4071 -1.6429 0.217 0.886 0.411 89 70 41 0 0
0.0299 0.3568 -1.7828 -0.794 0.449 0.411 82 65 38 0 0
0.0272 0.3637 -1.8355 -0.532 0.732 0.424 76 58 28 0 0
0.0167 0.3835 -1.9194 -0.246 0.813 0.528 86 65 35 0 0
0.0147 0.3874 -1.9399 -0.543 0.831 -0.123 84 63 34 0 0
0.0035 0.4062 -1.9895 -0.304 0.937 0.174 85 64 33 0 0
-0.0219 0.4514 -2.1501 -0.563 0.824 -0.061 79 56 24 0 0
-0.0363 0.4732 -2.1721 -0.279 0.676 0.682 80 56 25 0 0
-0.0375 0.4752 -2.1765 -0.082 0.915 0.395 81 57 26 0 0
-0.0730 0.5312 -2.2760 -0.214 0.968 0.127 178 177 175 0 0
0.1539 0.1423 -0.9685 0.063 0.947 0.315 100 83 60 0 0
0.1539 0.1425 -0.9733 -0.181 0.979 0.090 92 74 47 0 0
0.1538 0.1429 -0.9780 -0.181 0.979 0.090 89 70 44 0 0
0.1529 0.1448 -0.9870 -0.166 0.979 0.116 75 53 29 0 0
0.1460 0.1578 -1.0452 -0.550 0.660 0.512 60 43 23 0 0
0.1100 0.2307 -1.4201 0.187 0.932 0.311 122 101 67 0 0
0.1013 0.2432 -1.4233 0.088 0.600 0.795 114 92 60 0 0
0.1014 0.2433 -1.4287 0.032 0.856 0.517 110 88 56 0 0
0.0987 0.2473 -1.4316 -0.170 0.784 0.598 111 89 55 0 0
0.0971 0.2499 -1.4354 -0.054 0.512 0.857 104 82 47 0 0
0.0709 0.2911 -1.5068 -0.286 0.933 0.220 94 75 40 0 0
0.0723 0.2896 -1.5133 -0.413 0.910 0.050 98 78 42 0 0
0.0733 0.2890 -1.5300 -0.034 0.995 0.091 91 66 31 0 0
0.0727 0.2902 -1.5347 0.007 0.931 0.365 93 68 27 0 0
0.0741 0.2893 -1.5518 0.252 0.782 0.570 150 123 75 0 0
0.0566 0.3152 -1.5728 0.041 0.928 0.370 100 79 41 0 0
-0.0046 0.4055 -1.6350 0.006 0.966 0.260 78 58 32 0 0
-0.0054 0.4076 -1.6499 -0.081 0.985 0.155 80 63 36 0 0
0.0373 0.3543 -1.7752 -0.642 0.428 0.636 95 74 43 0 0
0.0371 0.3549 -1.7805 -0.482 0.166 0.860 89 69 43 0 0
0.0343 0.3620 -1.8330 0.132 0.578 0.805 82 65 37 0 0
-0.0002 0.4208 -2.0029 -0.841 0.537 0.068 88 67 36 0 0
-0.0098 0.4393 -2.0897 0.228 0.840 0.493 87 66 37 0 0
-0.0398 0.4871 -2.1795 0.133 0.868 0.479 81 61 28 0 0
-0.0678 0.5321 -2.2715 -0.182 0.983 -0.034 162 158 150 0 0
-0.0679 0.5325 -2.2774 -0.214 0.968 0.127 185 185 183 0 0
-0.0802 0.5500 -2.2774 -0.253 0.419 0.872 205 205 207 0 0
0.1595 0.1420 -0.9647 -0.270 0.874 0.404 155 149 143 0 0
0.1591 0.1430 -0.9692 -0.463 0.856 0.232 127 119 108 0 0
0.1585 0.1440 -0.9736 -0.035 0.970 0.242 97 87 71 0 0
0.1583 0.1447 -0.9782 -0.166 0.979 0.116 100 87 67 0 0
0.1581 0.1452 -0.9829 -0.166 0.979 0.116 97 81 59 0 0
0.1579 0.1457 -0.9875 -0.166 0.979 0.116 86 70 47 0 0
0.1527 0.1606 -1.1148 -0.134 0.902 0.411 55 38 20 0 0
0.1561 0.1592 -1.1712 -0.668 0.732 0.135 149 146 137 0 0
0.1145 0.2330 -1.4256 0.256 0.916 0.310 117 96 66 0 0
0.0790 0.2894 -1.5314 0.187 0.974 0.124 86 61 24 0 0
0.0596 0.3211 -1.6036 -0.264 0.879 0.397 136 108 69 0 0
-0.0001 0.4063 -1.6198 -0.654 0.338 0.676 104 80 51 0 0
-0.0015 0.4085 -1.6236 -0.748 0.541 0.385 72 50 25 0 0
0.0017 0.4049 -1.6372 -0.427 0.818 0.385 90 70 41 0 0
0.0417 0.3565 -1.7755 0.019 0.920 0.391 93 73 44 0 0
0.0429 0.3553 -1.7823 0.438 0.711 0.549 91 71 44 0 0
0.0389 0.3642 -1.8392 -0.569 0.766 0.299 80 63 35 0 0
0.0388 0.3647 -1.8447 -0.371 0.865 0.339 81 64 36 0 0
0.0051 0.4224 -2.0159 0.015 0.964 -0.264 84 64 31 0 0
-0.0036 0.4392 -2.0923 0.228 0.840 0.493 94 73 43 0 0
-0.0316 0.4832 -2.1673 -0.047 0.984 0.172 81 59 27 0 0
-0.0319 0.4840 -2.1727 -0.059 0.995 0.076 82 60 28 0 0
-0.0356 0.4899 -2.1856 0.139 0.904 0.405 82 62 29 0 0
-0.0532 0.5179 -2.2385 -0.282 0.868 0.409 85 65 28 0 0
-0.0628 0.5336 -2.2726 -0.149 0.935 0.322 172 169 164 0 0
-0.0636 0.5350 -2.2775 -0.199 0.917 0.345 188 188 188 0 0
-0.0630 0.5345 -2.2844 -0.261 0.882 0.393 198 198 199 0 0
0.1614 0.1586 -1.1522 -0.933 0.226 0.280 128 121 112 0 0
0.1605 0.1602 -1.1566 -0.933 0.226 0.280 156 152 146 0 0
0.1590 0.1626 -1.1605 -0.884 0.363 0.294 183 181 177 0 0
0.1587 0.1633 -1.1653 -0.911 0.268 0.312 190 189 189 0 0
0.1585 0.1639 -1.1701 -0.814 0.522 0.256 191 192 192 0 0
0.1431 0.2000 -1.4087 -0.527 0.213 0.823 102 84 59 0 0
0.0832 0.2923 -1.5421 0.426 0.769 0.476 163 135 82 0 0
0.0732 0.3084 -1.5754 -0.302 0.946 0.120 107 82 41 0 0
0.0730 0.3090 -1.5805 -0.302 0.946 0.120 108 85 43 0 0
0.0656 0.3203 -1.5948 -0.233 0.962 0.143 115 90 44 0 0
0.0643 0.3228 -1.6042 -0.264 0.879 0.397 129 101 59 0 0
0.0432 0.3666 -1.8393 -0.644 0.622 0.445 84 66 37 0 0
0.0093 0.4249 -2.0159 0.304 0.948 0.096 82 62 27 0 0
-0.0392 0.5050 -2.2104 -0.543 0.764 0.348 81 61 26 0 0
-0.0402 0.5067 -2.2150 -0.335 0.867 0.369 83 63 27 0 0
-0.0544 0.5280 -2.2368 -0.210 0.978 0.007 85 65 28 0 0
-0.0586 0.5364 -2.2788 -0.164 0.902 0.400 193 191 193 0 0
0.1642 0.1626 -1.1464 -0.933 0.226 0.280 188 186 182 0 0
0.1632 0.1642 -1.1507 -0.933 0.226 0.280 190 189 185 0 0
0.1623 0.1658 -1.1551 -0.933 0.226 0.280 188 189 190 0 0
0.1613 0.1674 -1.1594 -0.884 0.363 0.294 190 191 193 0 0
0.1334 0.2228 -1.4238 0.106 0.948 0.299 92 74 52 0 0
0.0797 0.3077 -1.5776 -0.096 0.987 -0.127 111 86 45 0 0
0.0729 0.3185 -1.5979 -0.414 0.718 0.559 133 107 62 0 0
0.0663 0.3280 -1.6023 -0.343 0.320 0.883 141 114 74 0 0
0.0437 0.3767 -1.8802 -0.129 0.923 0.362 89 68 37 0 0
0.0423 0.3793 -1.8899 -0.375 0.918 0.128 89 68 37 0 0
0.0409 0.3829 -1.9167 -0.407 0.884 0.230 90 69 38 0 0
-0.0341 0.5067 -2.2177 -0.310 0.806 0.505 82 62 27 0 0
-0.0365 0.5106 -2.2263 -0.454 0.570 0.685 86 66 30 0 0
-0.0548 0.5395 -2.2783 -0.182 0.670 0.720 195 194 197 0 0
-0.0560 0.5414 -2.2825 -0.346 0.564 0.750 201 200 203 0 0
0.1747 0.1538 -1.1110 0.388 0.914 0.121 140 135 128 0 0
0.1748 0.1539 -1.1161 0.425 0.901 0.089 158 153 147 0 0
0.1746 0.1545 -1.1209 0.425 0.901 0.089 178 173 169 0 0
0.1740 0.1557 -1.1254 0.364 0.930 0.047 183 183 180 0 0
0.1745 0.1553 -1.1306 0.370 0.929 0.003 187 187 185 0 0
0.1676 0.1650 -1.1312 -0.502 0.865 -0.012 186 187 188 0 0
0.1334 0.2322 -1.4414 -0.206 0.962 0.181 94 77 52 0 0
0.1326 0.2336 -1.4459 -0.487 0.843 0.230 102 83 58 0 0
0.1317 0.2351 -1.4505 -0.352 0.829 0.435 98 78 51 0 0
0.0873 0.3051 -1.5755 -0.076 0.987 0.142 109 84 46 0 0
0.0865 0.3066 -1.5800 -0.275 0.950 -0.150 110 86 45 0 0
0.0852 0.3085 -1.5842 -0.154 0.987 0.052 113 90 46 0 0
0.0857 0.3083 -1.5899 0.057 0.976 0.209 124 98 55 0 0
0.0832 0.3122 -1.5984 0.320 0.905 0.280 114 90 48 0 0
0.0787 0.3187 -1.5994 0.002 0.352 0.936 134 109 67 0 0
0.0695 0.3439 -1.7973 0.160 0.898 0.409 94 74 48 0 0
0.0599 0.3591 -1.8261 -0.566 0.793 0.228 99 78 50 0 0
0.0350 0.4017 -1.9506 0.097 0.863 0.496 92 71 40 0 0
0.0310 0.4077 -1.9574 -0.404 0.808 0.429 96 76 42 0 0
0.0245 0.4199 -2.0070 0.134 0.819 0.559 90 70 37 0 0
0.0085 0.4499 -2.1268 -0.304 0.847 0.435 80 57 26 0 0
-0.0295 0.5088 -2.2182 -0.310 0.806 0.505 81 61 26 0 0
-0.0309 0.5109 -2.2223 -0.350 0.762 0.545 83 63 28 0 0
-0.0343 0.5166 -2.2355 -0.411 0.759 0.504 87 67 30 0 0
-0.0499 0.5411 -2.2793 -0.131 0.742 0.657 198 197 200 0 0
0.1834 0.1506 -1.1237 0.425 0.901 0.090 186 186 189 0 0
0.1410 0.2300 -1.4442 0.117 0.917 0.381 93 76 54 0 0
0.1398 0.2319 -1.4485 0.117 0.917 0.381 98 80 57 0 0
0.1200 0.2623 -1.4897 -0.130 0.667 0.734 108 87 58 0 0
0.0963 0.3007 -1.5747 -0.205 0.874 0.440 107 83 47 0 0
0.0932 0.3052 -1.5771 -0.065 0.958 0.280 115 90 50 0 0
0.0919 0.3073 -1.5813 -0.062 0.998 0.003 112 89 49 0 0
0.0915 0.3082 -1.5862 0.179 0.944 0.277 114 92 48 0 0
0.0913 0.3088 -1.5913 -0.051 0.952 0.303 133 107 63 0 0
0.0863 0.3162 -1.5974 0.059 0.716 0.695 132 106 63 0 0
0.0732 0.3429 -1.7305 -0.014 0.885 0.465 77 61 35 0 0
0.0718 0.3496 -1.8065 -0.043 0.761 0.648 96 76 49 0 0
0.0678 0.3560 -1.8189 -0.111 0.927 0.357 106 85 54 0 0
0.0655 0.3595 -1.8220 -0.514 0.822 0.245 101 80 50 0 0
0.0647 0.3608 -1.8268 -0.402 0.876 0.267 97 77 49 0 0
0.0334 0.4174 -2.0300 -0.028 0.868 0.496 92 72 37 0 0
-0.0132 0.4936 -2.2051 -0.500 0.825 0.263 80 60 26 0 0
-0.0192 0.5026 -2.2148 -0.455 0.709 0.539 80 60 25 0 0
-0.0267 0.5135 -2.2224 -0.538 0.588 0.604 86 66 31 0 0
-0.0289 0.5167 -2.2253 -0.478 0.530 0.700 93 73 38 0 0
-0.0455 0.5434 -2.2796 -0.182 0.670 0.720 199 200 202 0 0
0.1739 0.1683 -1.0667 -0.987 0.090 0.129 182 183 187 0 0
0.1252 0.2633 -1.4907 -0.123 0.407 0.905 105 84 53 0 0
0.1117 0.2858 -1.5476 0.093 0.921 0.379 129 106 68 0 0
0.0984 0.3070 -1.5887 0.337 0.910 0.243 124 99 55 0 0
0.0967 0.3096 -1.5925 0.236 0.862 0.450 139 112 71 0 0
0.0946 0.3127 -1.5960 0.372 0.790 0.488 128 101 59 0 0
0.0917 0.3169 -1.5986 0.270 0.506 0.819 149 121 76 0 0
0.0300 0.4062 -1.6508 0.218 0.976 -0.023 96 75 50 0 0
0.0839 0.3396 -1.7814 0.169 0.911 0.376 118 95 62 0 0
0.0825 0.3421 -1.7910 0.106 0.850 0.517 105 84 53 0 0
0.0770 0.3508 -1.8076 -0.043 0.761 0.648 87 68 45 0 0
0.0751 0.3537 -1.8111 -0.081 0.791 0.607 88 69 42 0 0
0.0740 0.3555 -1.8155 -0.102 0.907 0.408 96 75 44 0 0
0.0731 0.3571 -1.8201 -0.111 0.927 0.357 101 80 49 0 0
0.0717 0.3592 -1.8243 -0.416 0.908 0.039 102 82 51 0 0
0.0577 0.3884 -1.9730 -0.252 0.792 0.556 99 79 47 0 0
0.0378 0.4182 -2.0072 -0.315 0.713 0.626 90 70 37 0 0
0.0375 0.4190 -2.0125 -0.261 0.944 0.202 87 67 34 0 0
0.0370 0.4208 -2.0293 -0.149 0.944 0.293 97 77 42 0 0
0.0199 0.4515 -2.1366 -0.319 0.739 0.593 81 58 27 0 0
-0.0099 0.4977 -2.2099 -0.481 0.877 0.002 81 60 27 0 0
-0.0152 0.5054 -2.2145 -0.468 0.556 0.687 81 61 27 0 0
-0.0250 0.5197 -2.2249 -0.478 0.530 0.700 88 69 33 0 0
0.2025 0.1413 -1.1404 0.250 0.934 -0.254 187 188 190 0 0
0.1260 0.2703 -1.4878 -0.191 0.311 0.931 110 89 59 0 0
0.1067 0.3036 -1.5873 0.339 0.910 0.239 121 97 56 0 0
0.1066 0.3047 -1.6032 -0.053 0.899 0.435 139 111 70 0 0
0.1032 0.3095 -1.6055 -0.117 0.525 0.843 145 117 73 0 0
0.0393 0.4016 -1.6561 -0.175 0.983 -0.056 110 90 64 0 0
0.0876 0.3438 -1.7975 -0.341 0.726 0.597 106 85 56 0 0
0.0792 0.3566 -1.8167 -0.020 0.858 0.513 106 85 55 0 0
0.0794 0.3569 -1.8224 -0.648 0.730 0.216 103 82 52 0 0
0.0462 0.4152 -2.0122 -0.298 0.944 0.140 89 69 36 0 0
0.0256 0.4509 -2.1209 -0.282 0.733 0.619 80 58 27 0 0
-0.0007 0.4922 -2.1928 -0.143 0.985 0.095 81 58 26 0 0
-0.0053 0.5002 -2.2164 0.195 0.786 0.586 81 61 28 0 0
-0.0180 0.5182 -2.2229 -0.259 0.833 0.489 84 64 29 0 0
-0.0190 0.5199 -2.2274 -0.222 0.879 0.422 83 65 29 0 0
-0.0269 0.5333 -2.2642 -0.227 0.955 0.188 119 113 102 0 0
0.1126 0.3041 -1.5942 0.322 0.884 0.338 131 103 63 0 0
0.1130 0.3039 -1.6000 -0.086 0.505 0.859 130 102 63 0 0
0.1101 0.3080 -1.6027 -0.086 0.505 0.859 132 104 65 0 0
0.1073 0.3122 -1.6054 -0.086 0.505 0.859 140 112 72 0 0
0.1036 0.3264 -1.7432 -0.342 0.911 0.231 87 69 45 0 0
0.1017 0.3296 -1.7523 -0.100 0.982 0.161 109 87 57 0 0
0.1020 0.3295 -1.7581 0.073 0.830 0.554 111 90 58 0 0
0.1050 0.3260 -1.7667 -0.220 0.597 0.772 117 94 63 0 0
0.1010 0.3316 -1.7682 -0.263 0.964 -0.031 110 84 51 0 0
0.0975 0.3366 -1.7702 -0.284 0.954 -0.098 118 90 51 0 0
0.0977 0.3382 -1.7982 -0.033 0.841 0.540 104 84 52 0 0
0.0666 0.3929 -1.9736 -0.314 0.496 0.810 99 79 46 0 0
0.0540 0.4139 -2.0281 -0.152 0.918 0.367 89 69 34 0 0
0.0527 0.4160 -2.0324 -0.107 0.906 0.409 97 77 41 0 0
0.0506 0.4192 -2.0356 0.001 0.803 0.596 104 84 45 0 0
0.0473 0.4257 -2.0665 -0.587 0.670 0.454 83 62 31 0 0
0.0108 0.4850 -2.1966 -0.809 0.512 -0.288 80 57 25 0 0
0.0048 0.4932 -2.1945 -0.143 0.985 0.095 80 57 25 0 0
0.0088 0.4883 -2.2059 -0.803 0.435 0.408 80 57 25 0 0
0.0051 0.4943 -2.2188 -0.827 0.310 0.469 81 60 27 0 0
0.0038 0.4964 -2.2231 -0.757 0.246 0.605 80 60 27 0 0
-0.0048 0.5083 -2.2233 -0.292 0.575 0.764 81 61 27 0 0
-0.0069 0.5114 -2.2264 -0.071 0.681 0.729 83 63 28 0 0
-0.0147 0.5223 -2.2276 -0.023 0.941 0.337 83 64 29 0 0
-0.0219 0.5348 -2.2654 -0.278 0.953 0.123 130 126 119 0 0
0.1509 0.2528 -1.4966 -0.018 0.998 0.066 104 85 56 0 0
0.1282 0.2904 -1.5886 0.046 0.937 0.347 118 95 57 0 0
0.1271 0.2921 -1.5930 0.052 0.692 0.720 112 88 49 0 0
0.1252 0.2951 -1.5966 -0.072 0.801 0.594 122 97 60 0 0
0.1133 0.3118 -1.6018 -0.201 0.250 0.947 135 107 68 0 0
0.0535 0.3953 -1.6146 -0.329 0.655 0.680 120 100 67 0 0
0.0467 0.4057 -1.6290 -0.380 0.718 0.583 80 59 29 0 0
0.0532 0.3990 -1.6618 -0.100 0.895 -0.435 101 82 58 0 0
0.1083 0.3282 -1.7437 -0.401 0.905 0.142 88 70 44 0 0
0.1127 0.3232 -1.7592 -0.415 0.770 0.485 108 87 55 0 0
0.1100 0.3271 -1.7620 -0.464 0.430 0.774 115 94 61 0 0
0.1087 0.3292 -1.7662 -0.579 0.561 0.591 110 85 54 0 0
0.1061 0.3330 -1.7691 -0.729 0.684 -0.025 104 76 42 0 0
0.0540 0.4247 -2.0638 -0.569 0.735 0.369 85 64 33 0 0
0.0504 0.4306 -2.0769 -0.252 0.968 0.016 86 65 34 0 0
0.0398 0.4491 -2.1341 -0.633 0.734 0.248 84 61 30 0 0
0.0341 0.4577 -2.1445 -0.592 0.746 0.305 83 60 29 0 0
0.0170 0.4830 -2.1696 -0.289 0.892 0.347 81 58 26 0 0
0.0162 0.4844 -2.1745 -0.347 0.865 0.362 81 58 26 0 0
0.0052 0.5026 -2.2193 -0.391 0.729 0.562 82 62 29 0 0
-0.0170 0.5369 -2.2723 -0.256 0.860 0.442 173 173 176 0 0
0.1443 0.2742 -1.5564 0.229 0.892 0.390 98 78 47 0 0
0.1415 0.2783 -1.5593 0.266 0.701 0.662 100 81 49 0 0
0.1303 0.2963 -1.5975 0.024 0.721 0.692 121 97 60 0 0
0.1264 0.3018 -1.5993 0.026 0.462 0.886 141 113 74 0 0
0.0537 0.4038 -1.6268 -0.279 0.908 0.312 75 54 26 0 0
0.0595 0.3981 -1.6587 0.126 0.964 -0.235 104 86 54 0 0
0.1163 0.3258 -1.7475 -0.295 0.884 0.363 93 76 48 0 0
0.1192 0.3225 -1.7559 -0.609 0.176 0.773 105 87 57 0 0
0.1174 0.3252 -1.7596 -0.672 0.476 0.567 115 95 67 0 0
0.1138 0.3302 -1.7616 -0.464 0.418 0.781 114 93 62 0 0
0.1086 0.3385 -1.7785 -0.422 0.814 0.400 117 93 57 0 0
0.1054 0.3443 -1.7974 -0.155 0.988 0.019 77 59 42 0 0
0.1040 0.3465 -1.8015 0.034 0.993 -0.114 69 52 40 0 0
0.1049 0.3468 -1.8249 -0.051 0.939 0.341 109 87 57 0 0
0.0995 0.3554 -1.8416 -0.622 0.413 0.666 99 80 50 0 0
0.0997 0.3555 -1.8475 -0.060 0.970 0.235 99 80 50 0 0
0.1008 0.3555 -1.8713 0.112 0.879 0.464 93 72 43 0 0
0.0932 0.3678 -1.8970 -0.041 0.999 0.027 94 74 43 0 0
0.0928 0.3687 -1.9022 0.035 0.984 0.173 99 80 48 0 0
0.0920 0.3713 -1.9241 -0.306 0.916 0.259 95 76 44 0 0
0.0684 0.4110 -2.0294 0.202 0.951 0.235 90 70 37 0 0
0.0572 0.4294 -2.0742 -0.355 0.791 0.498 86 65 36 0 0
0.0380 0.4599 -2.1323 -0.178 0.951 0.252 83 60 28 0 0
0.0236 0.4821 -2.1668 -0.102 0.876 0.471 84 63 32 0 0
0.0214 0.4857 -2.1759 -0.550 0.590 0.591 81 58 27 0 0
0.0204 0.4874 -2.1804 -0.450 0.708 0.545 82 57 26 0 0
0.0119 0.5013 -2.2106 -0.334 0.796 0.505 78 55 22 0 0
0.0105 0.5034 -2.2148 -0.334 0.796 0.505 75 55 20 0 0
0.0092 0.5055 -2.2190 -0.334 0.796 0.505 79 59 25 0 0
0.0079 0.5076 -2.2232 -0.334 0.796 0.505 81 61 26 0 0
0.0070 0.5091 -2.2279 -0.434 0.816 0.381 81 61 26 0 0
0.2365 0.1501 -1.4739 -0.956 0.215 -0.201 134 129 125 0 0
0.2387 0.1475 -1.4810 -0.910 0.415 0.012 117 109 101 0 0
0.1541 0.2690 -1.5560 0.192 0.922 0.337 103 82 51 0 0
0.1399 0.2906 -1.5863 0.006 0.983 0.183 116 95 61 0 0
0.1315 0.3031 -1.6001 0.026 0.462 0.886 136 107 68 0 0
0.0637 0.3991 -1.6431 0.175 0.964 0.200 104 83 52 0 0
0.0645 0.3985 -1.6491 -0.076 0.970 0.229 101 79 48 0 0
0.1208 0.3283 -1.7534 0.298 0.922 0.247 110 91 62 0 0
0.1225 0.3266 -1.7605 -0.047 0.987 0.152 114 94 64 0 0
0.1209 0.3290 -1.7645 0.105 0.932 0.346 112 90 58 0 0
0.1209 0.3294 -1.7700 0.005 0.975 0.223 122 96 60 0 0
0.1142 0.3405 -1.7966 -0.054 0.888 0.456 89 71 45 0 0
0.1053 0.3559 -1.8433 -0.457 0.572 0.681 101 82 53 0 0
0.0927 0.3781 -1.9145 -0.188 0.971 0.145 95 76 45 0 0
0.0972 0.3727 -1.9252 -0.494 0.804 0.331 96 77 45 0 0
0.0867 0.3906 -1.9765 -0.163 0.840 0.517 92 71 40 0 0
0.0677 0.4252 -2.0995 0.163 0.840 0.517 87 66 34 0 0
0.0244 0.4903 -2.1801 -0.457 0.746 0.485 80 58 26 0 0
0.0241 0.4919 -2.1975 -0.783 0.564 0.263 77 53 21 0 0
0.0124 0.5097 -2.2236 -0.334 0.796 0.505 81 61 28 0 0
0.0113 0.5115 -2.2281 -0.434 0.816 0.381 83 63 30 0 0
-0.0013 0.5306 -2.2526 -0.035 0.674 0.738 81 63 31 0 0
-0.0034 0.5338 -2.2556 -0.035 0.674 0.738 79 64 32 0 0
-0.0068 0.5393 -2.2689 -0.102 0.941 0.323 160 160 157 0 0
0.1060 0.3466 -1.6050 0.009 0.476 0.879 111 94 68 0 0
0.0676 0.4015 -1.6376 0.077 0.904 0.420 103 82 53 0 0
0.0689 0.4002 -1.6441 -0.115 0.896 0.430 105 84 53 0 0
0.0691 0.4002 -1.6497 -0.506 0.837 0.210 101 81 49 0 0
0.1294 0.3252 -1.7577 0.244 0.906 0.345 116 95 67 0 0
0.1302 0.3245 -1.7641 0.120 0.937 0.329 113 92 61 0 0
0.1278 0.3281 -1.7672 0.244 0.871 0.426 117 93 61 0 0
0.1100 0.3579 -1.8438 -0.340 0.611 0.715 102 82 56 0 0
0.1173 0.3491 -1.8629 0.057 0.985 0.162 100 80 53 0 0
0.1182 0.3483 -1.8695 0.037 0.918 0.394 101 81 54 0 0
0.1026 0.3754 -1.9494 -0.240 0.905 0.350 93 72 41 0 0
0.0940 0.3888 -1.9742 -0.160 0.606 0.779 94 75 43 0 0
0.0917 0.3922 -1.9774 -0.160 0.606 0.779 93 72 41 0 0
0.0799 0.4115 -2.0214 -0.018 0.997 -0.070 85 65 32 0 0
0.0829 0.4084 -2.0366 -0.095 0.874 0.476 100 80 47 0 0
0.0696 0.4309 -2.0965 -0.509 0.668 0.543 96 77 44 0 0
0.0298 0.4921 -2.1936 -0.577 0.768 0.277 77 55 24 0 0
0.0273 0.4958 -2.1962 -0.783 0.564 0.263 76 55 24 0 0
-0.0009 0.5402 -2.2772 -0.304 0.594 0.744 186 187 189 0 0
-0.0035 0.5438 -2.2797 -0.326 0.294 0.898 197 196 199 0 0
0.1363 0.3246 -1.7660 -0.471 0.751 0.463 116 94 62 0 0
0.1257 0.3416 -1.7998 0.137 0.966 0.221 92 74 48 0 0
0.1325 0.3352 -1.8405 -0.129 0.978 -0.163 107 91 65 0 0
0.1216 0.3505 -1.8460 -0.096 0.689 0.719 103 84 58 0 0
0.1242 0.3486 -1.8714 -0.002 0.886 0.464 100 80 54 0 0
0.1212 0.3538 -1.8852 -0.096 0.993 0.063 106 86 60 0 0
0.1212 0.3542 -1.8909 -0.113 0.990 0.080 104 84 58 0 0
0.1212 0.3545 -1.8966 -0.096 0.993 0.063 104 83 57 0 0
0.0903 0.4067 -2.0344 -0.387 0.874 0.294 96 75 43 0 0
0.0881 0.4098 -2.0377 -0.147 0.897 0.417 94 72 40 0 0
0.0748 0.4319 -2.0918 -0.083 0.968 0.237 91 71 39 0 0
0.0534 0.4633 -2.1241 -0.534 0.754 0.381 89 67 35 0 0
0.0525 0.4650 -2.1287 -0.534 0.754 0.381 87 65 33 0 0
0.0358 0.4921 -2.1900 -0.088 0.663 0.744 80 59 28 0 0
0.0003 0.5470 -2.2791 -0.338 0.233 0.912 200 200 202 0 0
0.0781 0.4033 -1.6399 0.167 0.951 0.259 102 81 52 0 0
0.1372 0.3335 -1.7905 0.337 0.787 0.516 117 95 64 0 0
0.1359 0.3360 -1.8003 0.086 0.743 0.663 98 80 55 0 0
0.1335 0.3395 -1.8035 0.030 0.831 0.555 98 79 54 0 0
0.1327 0.3463 -1.8815 0.270 0.848 0.456 102 84 58 0 0
0.1270 0.3548 -1.8925 -0.096 0.993 0.063 102 85 59 0 0
0.1270 0.3552 -1.8983 -0.096 0.993 0.063 102 82 57 0 0
0.1270 0.3561 -1.9096 0.198 0.910 0.364 98 79 50 0 0
0.1226 0.3625 -1.9163 -0.020 0.863 0.504 94 74 47 0 0
0.1211 0.3648 -1.9204 -0.027 0.790 0.612 94 74 47 0 0
0.0950 0.4082 -2.0292 0.052 0.997 0.062 92 71 39 0 0
0.0973 0.4065 -2.0494 -0.076 0.606 0.792 145 116 78 0 0
0.0813 0.4307 -2.0829 -0.126 0.992 -0.032 87 66 37 0 0
0.0820 0.4302 -2.0896 -0.110 0.992 -0.069 88 67 37 0 0
0.0823 0.4304 -2.0958 -0.073 0.941 0.330 93 73 42 0 0
0.0362 0.5008 -2.2028 -0.403 0.574 0.713 80 59 28 0 0
0.0025 0.5521 -2.2763 -0.325 0.125 0.937 201 201 203 0 0
0.0002 0.5559 -2.2851 -0.026 0.625 0.780 205 205 207 0 0
0.0871 0.3993 -1.6447 0.120 0.982 0.144 104 82 56 0 0
0.1402 0.3385 -1.8004 -0.201 0.731 0.652 99 82 56 0 0
0.1384 0.3413 -1.8041 -0.201 0.731 0.652 106 89 64 0 0
0.1188 0.3791 -1.9591 -0.059 0.862 0.504 88 67 38 0 0
0.1068 0.3983 -1.9973 0.035 0.894 0.447 88 68 39 0 0
0.1063 0.4010 -2.0258 -0.582 0.784 -0.216 89 68 37 0 0
0.1053 0.4031 -2.0363 0.087 0.978 0.192 94 73 42 0 0
0.0877 0.4315 -2.0972 -0.141 0.794 0.591 88 68 38 0 0
0.0595 0.4729 -2.1387 -0.545 0.779 0.308 85 65 32 0 0
0.0579 0.4757 -2.1485 -0.545 0.779 0.308 85 65 32 0 0
0.0572 0.4771 -2.1534 -0.579 0.700 0.418 84 64 31 0 0
0.0159 0.5417 -2.2712 -0.170 0.788 0.591 173 173 172 0 0
0.0150 0.5433 -2.2759 -0.287 0.385 0.877 189 189 189 0 0
0.0124 0.5470 -2.2783 -0.230 0.233 0.945 197 197 199 0 0
0.1129 0.3699 -1.6122 0.025 0.503 0.864 100 83 55 0 0
0.1110 0.4031 -2.0263 -0.388 0.872 -0.297 86 65 36 0 0
0.0977 0.4252 -2.0806 -0.210 0.833 0.512 81 60 31 0 0
0.0930 0.4358 -2.1399 -0.621 0.777 0.104 86 65 34 0 0
0.0209 0.5429 -2.2662 0.042 0.845 0.533 157 156 153 0 0
0.0207 0.5436 -2.2720 -0.282 0.534 0.797 182 182 184 0 0
0.0926 0.4430 -2.1164 0.030 0.453 0.891 88 67 37 0 0
0.0967 0.4383 -2.1273 -0.324 0.894 0.309 82 62 30 0 0
0.0461 0.5139 -2.2229 -0.494 0.743 0.451 81 60 29 0 0
0.0442 0.5166 -2.2264 -0.441 0.801 0.405 85 65 34 0 0
0.0302 0.5378 -2.2552 -0.011 0.866 0.501 86 70 41 0 0
0.0288 0.5400 -2.2593 -0.037 0.885 0.464 97 86 63 0 0
0.0260 0.5448 -2.2735 -0.240 0.242 0.940 187 187 190 0 0
0.0206 0.5525 -2.2780 -0.338 0.323 0.884 200 201 203 0 0
0.0180 0.5561 -2.2805 -0.277 0.274 0.921 204 204 206 0 0
0.0174 0.5573 -2.2856 -0.026 0.625 0.780 206 206 208 0 0
0.1301 0.3626 -1.6099 0.061 0.418 0.906 108 88 58 0 0
0.1990 0.2821 -1.7731 0.272 0.939 -0.211 109 89 63 0 0
0.1660 0.3330 -1.8589 -0.378 0.917 -0.129 103 86 64 0 0
0.1461 0.3678 -1.9636 0.126 0.936 0.330 91 71 45 0 0
0.1285 0.3966 -2.0308 0.227 0.973 0.046 86 66 35 0 0
0.1285 0.3970 -2.0367 0.166 0.985 0.042 92 72 43 0 0
0.1129 0.4228 -2.1005 -0.425 0.896 0.129 82 60 35 0 0
0.0990 0.4443 -2.1367 -0.478 0.826 0.297 82 61 28 0 0
0.0930 0.4536 -2.1530 -0.442 0.711 0.547 84 61 29 0 0
0.0502 0.5166 -2.2228 -0.494 0.743 0.451 81 60 29 0 0
0.0486 0.5191 -2.2266 -0.441 0.801 0.405 80 61 29 0 0
0.0479 0.5204 -2.2316 -0.504 0.726 0.468 81 62 30 0 0
0.0455 0.5243 -2.2404 -0.449 0.690 0.567 87 70 41 0 0
0.0369 0.5368 -2.2527 -0.037 0.885 0.464 86 70 37 0 0
0.0306 0.5469 -2.2740 -0.130 0.316 0.940 191 191 194 0 0
0.1721 0.3342 -1.8721 -0.043 0.831 0.555 106 89 70 0 0
0.1174 0.4252 -2.1007 -0.326 0.942 0.073 79 59 34 0 0
0.0982 0.4551 -2.1541 -0.471 0.650 0.597 80 59 30 0 0
0.0773 0.4853 -2.1812 -0.462 0.784 0.414 83 62 32 0 0
0.0530 0.5205 -2.2150 -0.142 0.685 0.714 80 59 28 0 0
