ply
format ascii 1.0
element vertex 692
property float x
property float y
property float z
property uchar diffuse_red
property uchar diffuse_green
property uchar diffuse_blue
end_header
-0.2346956024363615 0.42321786792545285 -2.1857200426452374 88 64 28
-0.23654035917098787 0.4247130941943383 -2.1899044153170277 90 66 30
-0.2436680059389585 0.42989959778581216 -2.18870979495358 90 67 30
-0.23152282145921615 0.42162039928898215 -2.2071583106999038 88 66 29
-0.23426848428386116 0.42374567229217724 -2.2104419328363902 88 66 29
-0.24590524097076355 0.43208065014805874 -2.2045931239290186 89 67 30
-0.2400543412755048 0.4282012803256631 -2.2166877173340067 90 67 32
-0.24946523693819989 0.4349798947743973 -2.2130728421590087 91 67 33
-0.2527945122973277 0.4375111139038286 -2.2157082244632607 91 67 32
-0.25694022696694874 0.44061193007575894 -2.2174868018146956 90 66 29
-0.258562083154803 0.4419507142055445 -2.2218776602064905 91 67 29
-0.260959848052459 0.4438309819775656 -2.225459044674743 89 65 27
-0.26278333815744964 0.44531039661193195 -2.2296370828530137 90 67 28
-0.26408216147318503 0.4464237353239745 -2.2343646434155318 91 68 27
-0.26706653273064707 0.44871293114457117 -2.2373209028951484 90 69 25
-0.2689083233983087 0.45020494880885054 -2.241474899117673 91 70 26
-0.2754856606078773 0.45499938000663065 -2.2406184237032494 93 72 29
-0.2762317972518407 0.4557268860936224 -2.2459187874607163 97 76 34
-0.2828067216533881 0.4605182760608127 -2.2450249289650843 93 75 34
-0.28366827075822365 0.4613260161535617 -2.2501958069649937 93 75 35
-0.2855717066940248 0.46286008712378435 -2.2542570638507025 97 84 51
-0.2852287449134989 0.4628286299190096 -2.2607255664785377 123 115 98
-0.27880275954193556 0.45855900668783595 -2.273745867939051 166 164 161
0.14458680604576366 0.10765638524043333 -0.9148497026294833 162 156 152
0.13108662556194078 0.11752650981514201 -0.9147599991833173 119 106 93
0.1236696271234839 0.12302315441489006 -0.9168378909998822 129 111 90
0.11648302528687393 0.12835346295797123 -0.9189779488460339 136 111 84
0.11048856532953047 0.1328264112525887 -0.9215349068997605 109 85 57
0.10816286766358807 0.13466280619192486 -0.9254304435069123 86 66 38
0.10768367611590357 0.13517252814450603 -0.9300088142475491 90 71 41
0.10278393577359701 0.13885793301223653 -0.9329415039291178 90 70 41
0.10396282565716947 0.1381766685914285 -0.9381418756962039 77 57 31
0.10370337341437746 0.13852882458669188 -0.9428104679166837 82 62 37
0.10446901822042459 0.1381449744150811 -0.9478725963402067 76 58 36
0.10372331744872987 0.1388467226126276 -0.9523680900874493 67 51 33
0.10286004673015142 0.13963300110789853 -0.956821801105932 61 46 28
0.10188242332460656 0.1405014767035981 -0.9612342962427116 51 37 21
0.10104637882256298 0.14126839546738373 -0.9657038732882698 41 28 13
0.10010300603121042 0.1421124577490622 -0.9701346391360753 53 38 19
0.09867979333481242 0.14330101527178002 -0.9743805186679032 92 74 50
0.09916020506257325 0.1431233814701012 -0.9793740451128518 80 62 39
0.10032703907140123 0.1424534329903562 -0.9846462527661871 73 55 36
0.10035905633822562 0.14259815025170083 -0.9894794187071155 78 60 43
0.09858738670584122 0.1440372114519789 -0.9936006144032777 67 50 32
0.09953302405414588 0.1435267944423262 -0.9988084631084424 67 50 31
0.09790821722203394 0.14486063822692982 -1.002992597745014 74 57 38
0.09849599234086182 0.1446074234142083 -1.0080705893459492 74 58 36
0.09830086989519268 0.14491601268895915 -1.0128392279297953 73 57 34
0.10105889727940959 0.14310693854748327 -1.0188180274168548 67 51 28
0.10371536583933233 0.1413712817524933 -1.024772195562844 69 53 31
0.11042096155689685 0.13673291954624178 -1.0324106038841179 68 53 30
0.11010629771215946 0.13712884027497324 -1.037176535804094 64 48 25
0.11103687663597639 0.136632249357292 -1.0424652541802468 73 55 32
0.10876542873360767 0.1384312507770138 -1.046426377796829 73 56 32
0.10731436238108355 0.1396421598634776 -1.050729204053794 80 62 35
0.10578783062126651 0.14090717466086772 -1.0550008324572049 96 76 45
0.10479951128726692 0.14178651506310114 -1.0595007855842995 99 80 48
0.10409479778015684 0.14246272675996624 -1.0641238889703872 100 82 53
0.10268592503034554 0.14364357019797358 -1.068449490581288 83 64 36
0.10294561807088931 0.1436290824849295 -1.073492612873008 74 56 28
0.10498197315077915 0.14234217577266345 -1.0793098123284812 91 74 46
0.1081343032500694 0.14025644253956848 -1.085625255624978 93 77 50
0.10905102594531774 0.13977249193493918 -1.090986031179015 71 55 33
0.10774419709502808 0.14088122812223586 -1.095384122148718 61 45 25
0.11076340353341968 0.13889233347354119 -1.101684608789782 61 43 24
0.11143041034125595 0.1385882202332036 -1.1069651746128515 69 47 23
0.11092799064459122 0.1391216347966887 -1.111736285101281 90 70 42
0.11119513308910756 0.13910431748904795 -1.1168546781034872 101 82 55
0.11074394636535811 0.13960142618477422 -1.121659218670863 62 42 17
0.10874497119839677 0.1412064605391548 -1.1257728005309677 65 46 21
0.10757441464869316 0.14221859620721766 -1.1302588861971712 73 55 30
0.10440606046538142 0.14466035306033526 -1.1338408616824545 82 61 36
0.10293640696252024 0.14588647929122067 -1.138190359735331 91 70 45
0.10257689800572722 0.14631840019107867 -1.14304836748442 90 69 44
0.10046974823426236 0.1480006851080447 -1.14710842298296 76 54 30
0.10101746610383022 0.14778391168179683 -1.1523918300055396 74 53 28
0.10342754722267034 0.14623545167487428 -1.158547317991252 76 54 30
0.10204386583189662 0.14740065317540618 -1.1629528784860317 63 42 17
0.10077645604060198 0.14848274645667764 -1.1674138054819132 66 49 21
0.09982025554711954 0.14934237484705237 -1.1720223567263197 62 45 17
0.10604885837662487 0.1450654385502953 -1.180022423225667 72 55 27
0.09983395336117401 0.14968502054133115 -1.1821600625260222 62 45 19
0.0912327771602327 0.15600964195117928 -1.1831438258570388 61 45 20
0.09012499138833313 0.15697758810443319 -1.1876792793391302 53 38 14
0.09049090516446323 0.1568924283525548 -1.1929239583648517 48 35 12
0.09035423579931945 0.1571666878611755 -1.1979346222958762 87 74 50
0.08823246767518145 0.15885952899634503 -1.2019908030225348 104 91 69
0.08647862589973654 0.16028944006003998 -1.206223767040382 85 71 51
0.08480946657895955 0.16165883933264064 -1.2104975511297758 90 77 56
0.07813089269458745 0.16660642631536515 -1.2123162409575186 90 78 53
0.0752230379940349 0.16886015941026428 -1.215969805189025 75 63 38
0.06961918662972194 0.1730390558815852 -1.2182857711457957 82 70 45
0.06422744653633927 0.17706591707549157 -1.2206905782076767 86 70 46
0.05555974617806653 0.1834312939843054 -1.2214473509198893 88 74 49
0.05234860143346187 0.18590003201279715 -1.224905334424692 82 72 50
0.051962002346094716 0.1863522026443708 -1.229775921165151 91 83 66
0.17771871965830127 0.09919836502537493 -1.3682544613303236 133 130 127
0.1599679309201973 0.11203954952087392 -1.3642096600570093 92 85 76
0.144306568559757 0.12338924639703658 -1.3612168817772663 107 98 84
0.13222674441175936 0.1321846007924118 -1.360092193219018 105 91 72
0.1172349134336339 0.1430533680498995 -1.3573502710720045 99 84 60
0.1072844438721921 0.15032832612895042 -1.3572860128178288 98 81 56
0.09881022375028836 0.15655037862543336 -1.3579903455714524 96 79 53
0.08792819884217362 0.16448656600852352 -1.3573495557966149 106 87 62
0.08156638211216333 0.16920185731109832 -1.3591499067399886 102 84 58
0.07342735827226443 0.17518213778557956 -1.3599511426834798 100 82 57
0.06451447055637322 0.1817125249866247 -1.3602966892526354 84 66 44
0.059768166937503475 0.18527510195000474 -1.3629242898263598 83 66 47
0.05740173322733577 0.1871428582309404 -1.3668649398215722 83 67 50
0.05548090186868132 0.1886932920392259 -1.3710518035989518 82 65 46
0.05080972082245361 0.1922013970718534 -1.3736928671346273 103 86 62
0.047130876147478906 0.1950027736690479 -1.3768803525649989 100 85 57
0.04270997102476509 0.1983319361035411 -1.3796391206553908 99 83 54
0.03929421124674276 0.2009454403859407 -1.3829569020123746 115 98 68
0.03412098518622608 0.20480912294316023 -1.3852648286310338 104 85 54
0.02945246680333974 0.20831320966306516 -1.3878463590733714 120 100 67
0.02074900567719906 0.21468711059018464 -1.388096357195206 118 99 68
0.01888159654341698 0.2161976097975314 -1.3922583642188167 116 96 68
0.016651174436899063 0.217966249183278 -1.3962091921783584 100 80 51
0.014943870897649536 0.21936279436968376 -1.400461401034162 116 95 63
0.00842668503809113 0.22417939912610918 -1.4019077587327025 128 104 71
0.005816543487659365 0.22621745127421589 -1.4056202265847721 142 118 82
0.0014791355100607362 0.2294832658482311 -1.4083133697213974 157 133 90
0.0007126047774458355 0.23021040709670704 -1.4131009019363903 163 140 94
0.0004051921103904732 0.2306113629103264 -1.4181640162106552 169 143 100
9.720965600351628e-05 0.23101292514092242 -1.4232325838457545 172 145 102
-0.00739128282653162 0.23669970332375656 -1.429273041926169 162 135 90
-0.006986619304322261 0.236595052789623 -1.4347720816466936 149 119 79
-0.015032838083943512 0.24249391292016453 -1.4351838613877173 143 111 72
-0.017557710990391107 0.24447004748970796 -1.4389090619750622 139 108 65
-0.03860507794226026 0.2596008977541243 -1.4313785240753467 137 107 65
-0.03152422860095955 0.2547539897026685 -1.4409110940784875 129 101 64
-0.03540143602071244 0.25768925054970543 -1.4437770053247803 126 100 67
-0.043799087174961504 0.26383357746470637 -1.4438567567630045 92 67 35
-0.04521017040904324 0.2650170847671615 -1.448212462604624 93 73 40
-0.04618844694417662 0.2658934064547316 -1.4528367715245734 114 92 58
-0.04676987477809158 0.2664881644126997 -1.457710259818318 100 78 41
-0.04574039966253385 0.2659398762247151 -1.4635920002510237 99 76 41
-0.053677252261599084 0.27175441470572503 -1.4638790908396673 94 71 38
-0.05066508894290955 0.26979950917184065 -1.4710085634136232 100 76 44
-0.04946511037108786 0.26913095009589877 -1.4770175169658626 86 65 33
-0.04787109497414743 0.26818331805994144 -1.4832881351156748 77 55 24
-0.048715864350167226 0.2689659630628058 -1.4880263554047066 102 77 40
-0.05038819779909326 0.2703356364158069 -1.4922412877998323 160 130 84
-0.049766001828527695 0.270078202660506 -1.4979216388328604 167 136 88
-0.05143665517256463 0.27144684706497685 -1.5021423141922399 139 111 67
-0.058378736479284155 0.2765527319533764 -1.5029716757989982 152 125 82
-0.06201553090756157 0.27931471075005754 -1.5059106596352418 144 118 76
-0.0665780289356041 0.28273251392838034 -1.5082407640656066 86 60 24
-0.07068894235448231 0.28582980063707786 -1.5108510336732202 78 54 18
-0.07089530067781868 0.28615973858046806 -1.5159971491016728 78 54 20
-0.06577368761298058 0.28271466782627436 -1.5246376144864984 79 55 24
-0.06433406504738987 0.2818793142769946 -1.5308899664614268 83 59 26
-0.06258796223469842 0.2808273325013103 -1.5373583041850214 83 56 25
-0.06174974444299697 0.2804189677012604 -1.5432414511408585 77 52 20
-0.059350749577721906 0.2790917182600577 -1.555522815159362 158 128 81
-0.07340536859461222 0.2892300614558914 -1.5514872642271644 151 121 76
-0.07592021279444627 0.29119613569759933 -1.555134105301991 145 116 82
-0.07913585578172289 0.29365818224837537 -1.5583051671888222 84 60 32
-0.0864920602259428 0.29905086774111533 -1.5586727247072436 73 52 27
-0.08737889927840325 0.2998638104070835 -1.5633974444938183 75 53 28
-0.08814978384998834 0.3005948095708525 -1.5682043450162613 85 64 34
-0.08957695494372148 0.30179033778643394 -1.5725673865881538 120 98 66
-0.0902397363412012 0.3024450685698451 -1.5774545456999778 89 69 41
-0.09437968624043314 0.3055598647515915 -1.579957703932332 68 53 28
-0.09703808008725578 0.3076262491524397 -1.5834701946928909 59 43 24
-0.09825676355099555 0.30867417792103596 -1.5879734096186224 74 61 40
-0.10113360536650878 0.310894825875251 -1.5913278956711812 78 63 42
-0.10519734654508028 0.31395455101603675 -1.5938501291178915 92 75 50
-0.10757844655495197 0.31582417978169175 -1.5975362727152245 111 91 61
-0.11145484177597026 0.3187507956436981 -1.6001707492496096 126 107 75
-0.11449402911922596 0.32108523692787383 -1.603383323586099 125 105 72
-0.12258927966664523 0.3269930506394371 -1.6030216776481316 135 111 75
-0.12800678183694303 0.3310073980026199 -1.6045251584651907 142 116 79
-0.13345708341207752 0.3350442964590622 -1.6059873460693177 136 111 71
-0.1388887787243686 0.33906741590803186 -1.6074446045381645 123 96 59
-0.14681385878008169 0.3448514016039631 -1.607100918117013 179 150 106
-0.15542392132021116 0.35111820653424153 -1.606235862528481 157 128 85
-0.1576895867408108 0.3529027831983327 -1.6099038968953343 163 140 94
-0.16769744437697115 0.3601549457709873 -1.6079778733568806 150 127 82
-0.16586873298393168 0.3590474595026921 -1.61458737199629 161 138 92
-0.18537837176374972 0.37300659835158456 -1.6057027004891689 132 106 66
-0.18747146360006978 0.3746671573089051 -1.609433762268729 63 43 14
-0.18586594322098593 0.3737168161043767 -1.615868374282291 95 74 43
-0.18277236589853468 0.3717167213600538 -1.6234104182227107 101 80 49
-0.17937896110853685 0.369505807088532 -1.631195562515139 92 71 40
-0.17596178701452103 0.36727894760475854 -1.639022051522328 87 66 35
-0.17069656290358204 0.3637490175093489 -1.6482423090590885 94 72 41
-0.15800602706222439 0.3549818750539363 -1.6630171167527827 96 75 44
-0.15106752962365594 0.3502745478575282 -1.6735693969449355 106 87 57
-0.14170434750954214 0.3438585078098615 -1.6859775320102244 109 93 64
-0.11792660860415122 0.3272788543986034 -1.7092618551756185 97 77 50
-0.11810110909313565 0.32759308695435535 -1.7146262564186439 77 57 30
-0.11828134645616445 0.3279116082664957 -1.719993335106678 90 70 43
-0.11907428608613041 0.32866230907087396 -1.7249029126345583 95 75 47
-0.11943798024460955 0.32911058201918353 -1.730142991813935 91 72 42
-0.11980231723375756 0.32955952149326934 -1.7353887166415267 79 58 28
-0.11934073532725492 0.32942663724353616 -1.7412727552155283 96 75 44
-0.11999944469975338 0.33008349854148306 -1.7463067654865712 102 82 49
-0.1164629428167635 0.3277848079107206 -1.7545770440306943 103 83 50
-0.1108308442789403 0.3240107312948539 -1.7644919242266353 110 90 55
-0.11441503286748839 0.3267296161792326 -1.767298070316345 95 74 39
-0.11734671806250907 0.32898861767507925 -1.7706020865381018 88 66 30
-0.12035548215549646 0.33130167737736477 -1.7738396185432592 83 60 27
-0.11859645646052824 0.3302574112415955 -1.7808014317493197 90 69 38
-0.12219599221145294 0.332986332227031 -1.783573429780854 96 76 44
-0.12136138695497106 0.33259351422091504 -1.789827539527531 96 77 42
-0.11631741760904835 0.32923831111255036 -1.799419028689664 105 83 50
-0.1193618623656531 0.33157668588912353 -1.8026341478255137 99 76 47
-0.11779224062739269 0.330667949532633 -1.8095100321363355 81 63 35
-0.1171427809168501 0.3304071962694376 -1.8156681322149169 65 45 17
-0.11643000157946881 0.3301022930033742 -1.821888274506474 82 60 28
-0.11746681123556035 0.33102851166838304 -1.826716372258054 86 67 33
-0.11894861982088734 0.33226782334133875 -1.8311893614258385 91 71 38
-0.12040571374267606 0.33348978314871225 -1.8356831340015274 97 75 43
-0.12047787983698549 0.3337379367365639 -1.8412994214780487 93 70 38
-0.12474887154863518 0.3369384867733899 -1.8435127473115478 87 67 34
-0.1275003232407521 0.33907034985027423 -1.8469511188548307 88 68 35
-0.12976313786690158 0.3408585531741437 -1.8507833385317174 101 81 48
-0.1303795149647266 0.341489498068647 -1.85596231417516 100 78 46
-0.13303814930122504 0.34355578567081485 -1.8594669664785204 97 74 42
-0.13031617359909559 0.3418412333352414 -1.8674049779364024 101 78 44
-0.139531974183711 0.34851442735435434 -1.865487457701999 99 76 42
-0.13908733123384737 0.34840011915587904 -1.8715493739662639 102 82 47
-0.13324398453241199 0.3444942268272338 -1.8821161839430987 97 77 44
-0.12912795367466828 0.3418027384560776 -1.8912786262045964 93 72 40
-0.12602309376057802 0.33982231846429195 -1.8996234394704044 86 65 34
-0.13186772621787557 0.3441263311881164 -1.9004740144613734 84 63 32
-0.13298512056644224 0.34511094691184896 -1.9052866500130772 86 65 34
-0.13660942039820362 0.34785535468736556 -1.9079832120454754 83 62 31
-0.13581556695268437 0.34749852800134456 -1.9144151976188968 88 67 36
-0.14001640247634306 0.3506472195312313 -1.9166127027315696 88 67 36
-0.13329022841047017 0.34612827195869755 -1.9281164416123144 87 66 35
-0.13391155092338136 0.3467657030919804 -1.9333779028156914 85 64 33
-0.13725283154103135 0.3493113549685593 -1.9363109838169263 80 59 28
-0.1564876060220386 0.36300447846485084 -1.9255579404111123 77 56 27
-0.15624829991228767 0.36303698437422127 -1.931523347666054 76 55 28
-0.14749447069026406 0.3570992292046455 -1.9448697471110377 77 56 31
-0.14999792558019537 0.35905622566151296 -1.948495077252441 75 53 28
-0.15189206111330678 0.3605859090528255 -1.9526466797138518 83 63 35
-0.15190982959429838 0.3608002999960622 -1.9584360360395805 87 68 38
-0.15668854151121608 0.36435176554220167 -1.9600628992433198 89 68 39
-0.15727221139535813 0.3649628875306557 -1.9653596547339018 90 69 40
-0.15894512215163425 0.3663374172030781 -1.969702050590377 87 66 37
-0.15933585733827677 0.3668136599714065 -1.975177663619205 83 62 34
-0.16229375457049483 0.36908843605518954 -1.9783840761861198 82 61 34
-0.16451152822553367 0.3708445842179647 -1.9822417413473024 81 60 32
-0.16610203899618708 0.3721613448482524 -1.9866558157766718 79 58 31
-0.17094255224808463 0.37575386416352174 -1.988163551474558 79 57 33
-0.17328306312840658 0.3775954549189336 -1.991897025936227 76 54 30
-0.16963831726172707 0.375246962186266 -2.0010113260966467 76 54 30
-0.17948511361474379 0.3823429098366826 -1.9979807592162364 77 55 31
-0.16190487485712307 0.37024218652742646 -2.0197254325550964 77 55 31
-0.16759014855388354 0.3744255315491932 -2.020457516244539 78 57 29
-0.16710502416351436 0.3742908379873067 -2.0267844832871744 81 60 30
-0.16812864580651715 0.3752120390837181 -2.031745600118703 96 76 43
-0.16935697434505886 0.3762765495768799 -2.0365227045762295 89 71 37
-0.17183696858702935 0.37821655813022703 -2.0401529171577173 99 78 41
-0.17344871230704073 0.3795492396731763 -2.0445782707332865 117 94 55
-0.17006476692243933 0.37738886122239357 -2.05361725637206 85 64 28
-0.167279406452979 0.37564790530147746 -2.062128820112685 77 57 25
-0.17470182686249325 0.3810433314793708 -2.06118308789592 76 52 25
-0.16597798596539237 0.37515245520398843 -2.0752466219489514 76 52 24
-0.17870744463311034 0.3842560359164812 -2.069324824250566 80 57 26
-0.1806428003796317 0.38581516075646094 -2.073456171829436 82 59 27
-0.1807705786067419 0.38611135769420896 -2.079284372162388 80 57 26
-0.18223773119899883 0.38734348107456124 -2.083858842210472 78 55 24
-0.18431566520117304 0.38900225422440937 -2.087857235666289 81 60 28
-0.1845138574921658 0.38934818390813664 -2.0936347279599823 102 83 50
-0.18594930694211032 0.39055834398203937 -2.0982443408252154 99 80 44
-0.1880646133292727 0.39224321530541967 -2.1022072670189482 125 102 61
-0.18969557426140415 0.3935898839156558 -2.106630686511531 143 115 75
-0.18968638368337276 0.3937917363095829 -2.1126263748544805 142 116 79
-0.1889283779301918 0.3934713054302684 -2.11935096411222 94 72 40
-0.1868436488518791 0.3922255357195102 -2.127367670584728 79 58 26
-0.20217860265364007 0.4035514436495725 -2.1305532162668066 81 58 24
-0.1984238447705025 0.4011417525728955 -2.1402211100955313 81 58 24
-0.2069647210179828 0.4073072405653467 -2.1378981055758857 81 58 24
-0.21803834458561466 0.4154457554869959 -2.1390454233995713 80 56 22
-0.22474010861535298 0.4203259211287247 -2.138438479553922 80 56 22
-0.21839957544419392 0.4161153071436279 -2.1506981928923956 81 57 23
-0.22051035143484238 0.4177955465606571 -2.154623213351395 81 58 24
-0.22366363770915043 0.4202020741250229 -2.1575092597483443 80 57 23
-0.22407318317982955 0.42069686115079064 -2.163122495163114 79 56 23
-0.22402642437204695 0.42087404559945424 -2.1691988815686702 83 60 26
-0.22578842385140407 0.4223112984965847 -2.1734713934685046 86 64 29
-0.2278896408635337 0.4239847522174581 -2.177402312158409 91 68 31
-0.2307231659131707 0.4261680053853927 -2.180592501829821 92 68 32
-0.23259088478630024 0.4276786612492206 -2.1847525003960064 91 67 31
-0.23408561789102267 0.4289296500451738 -2.1892894463078756 90 66 30
-0.23929728291032026 0.4327675764037607 -2.1900488709505814 89 65 29
-0.2349404095141071 0.42994624527119213 -2.2005421271796197 88 66 29
-0.23096352830493366 0.427390484454015 -2.210680833925782 89 67 30
-0.23564004642780506 0.4308558683870793 -2.211981629091629 90 68 31
-0.254578157735132 0.4442408329200646 -2.1986070314630584 91 69 33
-0.2537350803646391 0.4438648157021775 -2.205522209887651 93 71 34
-0.2527370253911683 0.4433815202415458 -2.212611685878763 95 73 35
-0.253259967731315 0.44395628358853434 -2.21813996100727 97 75 36
-0.2553912913213515 0.4456494044303747 -2.2220032954105546 99 76 37
-0.25752157016914073 0.4473417048269129 -2.2258650090583507 94 72 33
-0.26154260001945806 0.4503479711349694 -2.2277484388975513 95 73 34
-0.262771886359761 0.4514138002863047 -2.2325433135666395 93 71 31
-0.26338340454571024 0.452050491511534 -2.2379896239548955 89 69 27
-0.2668613380405497 0.45467867561585135 -2.2404223005459576 89 70 27
-0.27464031573208114 0.4602939817326945 -2.238301275423369 90 71 29
-0.2721148561948796 0.45875167711363085 -2.2470593345050953 95 76 35
-0.2810723738732245 0.4651839353861155 -2.2436457891652246 94 76 36
-0.28345196650706855 0.46704770669864254 -2.2471952436461797 94 75 38
-0.2856780923510378 0.46880479470104736 -2.250904335518041 101 89 61
-0.2781221017021925 0.4637720553064302 -2.2650839831920333 135 129 116
-0.272230546746337 0.45989627697702723 -2.277529947190909 173 172 171
0.15741297405981558 0.10423994633295963 -0.9183642584904724 175 175 177
0.14057597924006998 0.11647438340983365 -0.9170925363196716 151 147 142
0.12953249544941198 0.12455624797339904 -0.9178679794674909 108 98 83
0.12317870934479391 0.1292774136880178 -0.9203202797302297 118 98 76
0.11785244868733308 0.13326194727181676 -0.9231317167720876 109 88 63
0.11440180404237588 0.1359026469280804 -0.9266210339775489 91 72 46
0.11315432445647566 0.13696532095562897 -0.9309203769105248 103 85 55
0.10999500386394939 0.13939705650671438 -0.9345083062855443 96 78 46
0.10926805710094639 0.14008698888701965 -0.9390016192693569 81 61 31
0.10560861910109706 0.14287651498347723 -0.9423938454910521 80 61 35
0.10922413478389256 0.14045784882157925 -0.948531747510377 61 44 22
0.11063921005518043 0.13961496612231966 -0.9538524511378512 61 45 28
0.11078773325860095 0.13967900464447 -0.9587004096732433 61 45 27
0.11028321564447932 0.1402106380696769 -0.9633041012974174 74 58 40
0.10970596409630737 0.14079446780687116 -0.9678838736515178 68 52 34
0.10912835834989454 0.14137868951779298 -0.9724674051048904 70 53 33
0.10798123307393526 0.14237051806186224 -0.9768327191107279 81 63 40
0.10692083276996564 0.14330036534239832 -0.9812337395259585 82 64 43
0.10511161214954379 0.14476593347653569 -0.9853418760701567 78 60 41
0.10565263057465812 0.14455045497187266 -0.9903794034749638 76 58 40
0.10482882391589515 0.1453113721242622 -0.9948823463589559 65 48 29
0.10256897005640842 0.14709933565049027 -0.9988143255711698 70 53 35
0.1035725229926468 0.1465537181021341 -1.0040543441180616 74 57 38
0.10464928408686813 0.1459561169757436 -1.0093339935466448 73 57 34
0.10487462613516335 0.14596757234439484 -1.0142787871688905 73 57 34
0.106138309780612 0.1452370322549083 -1.019653742670498 70 54 31
0.10355441664659731 0.14725702280045017 -1.023464688819274 70 54 32
0.10672624283472684 0.14516325854350542 -1.0296393755110484 68 53 31
0.11747190314947575 0.13765765667836688 -1.038962959436224 65 49 26
0.11858120588676649 0.13703954740806829 -1.044333326752499 72 56 33
0.11426413919212985 0.1402989163072359 -1.0474503983378536 65 48 28
0.11454519202354074 0.1402729076283279 -1.0524842768738738 66 49 24
0.11577762006310793 0.13956754570794133 -1.0579262490880803 99 81 53
0.11052273479233343 0.1434963579924951 -1.0606345897038583 98 80 52
0.11341921737645838 0.14160284918386 -1.0667935342714028 77 60 32
0.10944803726911023 0.1446144636135802 -1.0700374430069646 89 70 38
0.10590479267319847 0.14732017022268623 -1.073455639715268 96 76 44
0.10763887252483417 0.1462575841109507 -1.0791407211131603 95 75 44
0.108999793873013 0.1454618786631927 -1.0846774789150038 92 73 42
0.1100516707423953 0.14488720738246652 -1.090091607048934 119 101 71
0.11078459681729319 0.1445405767047614 -1.095376959977409 83 65 37
0.11111488435177042 0.14448164939518038 -1.1004949237637693 66 45 20
0.11067781629541157 0.14497062077217365 -1.1052823019331575 78 53 28
0.11129693286349476 0.14470608901883691 -1.1105421927444086 91 70 44
0.10931869533372002 0.14629510715584482 -1.1146554385165768 89 70 44
0.10857277260615494 0.14700489620525342 -1.1193179913463753 81 61 35
0.10685040927003076 0.1484113690048388 -1.123545720709081 87 67 42
0.10441110733414694 0.1503292159101719 -1.1274497786031605 86 67 42
0.1078421848468214 0.14806005631454067 -1.1340093334040882 75 54 32
0.10470867360108538 0.15047316576902986 -1.13760281277493 78 57 36
0.10440027804618102 0.15087152556090416 -1.1424811128025887 65 45 23
0.10975529090984487 0.14723201461146407 -1.1499639014970344 70 49 27
0.10825335861528051 0.14848207393064233 -1.1543140535438914 67 46 24
0.11036261367260913 0.14715786176638695 -1.1603366243432867 60 38 16
0.10900016812852714 0.1483087921308479 -1.164759970960596 58 37 14
0.10759013005557333 0.149493681577752 -1.169162183997543 64 47 20
0.10799944218803703 0.1493820443070788 -1.1744186642332695 66 49 22
0.10625811452298078 0.15080319865342873 -1.178670312047714 68 50 25
0.10613740852267722 0.15106963645127064 -1.1836882563678395 64 47 22
0.1031659085832376 0.1533672919854645 -1.1873578208787725 60 43 19
0.10073555205560009 0.1552792648943373 -1.191280164582756 56 40 17
0.09814563557868405 0.15730477495061046 -1.1951227965911582 68 52 30
0.09430330816808646 0.1602221322124434 -1.1983587847534707 99 85 63
0.0892886944348329 0.16397400310639892 -1.2010191629865126 96 83 61
0.0838515137593141 0.1680262785518863 -1.2034605924097148 85 71 51
0.07923528835445975 0.17149348137449355 -1.206286545838972 90 77 57
0.07463059988218246 0.17495203440331164 -1.2091058721834167 87 74 53
0.06962212265669443 0.1786975891817587 -1.2117144799692652 76 63 41
0.06521904875507084 0.18201173597718828 -1.2146079608306388 80 67 45
0.06380377155244643 0.1831990474628859 -1.218970824564794 77 64 41
0.0660747510386549 0.18176313485132506 -1.2251691691113542 90 81 60
0.06628521576299068 0.1817939683514424 -1.230353820917737 111 106 93
0.07045539357184266 0.1790077996811376 -1.237533170516018 176 174 169
0.20954643640613801 0.08275296456269232 -1.3834503680138948 197 197 199
0.18493248601686174 0.10043317302158294 -1.3758174361933524 155 152 148
0.16471886293654364 0.11498441959739292 -1.370443356036089 102 96 86
0.15099250859076346 0.12492550724103507 -1.368477467938898 105 95 79
0.13545400758515053 0.1361516663264168 -1.3654828824606584 100 87 65
0.12396449424391287 0.1445006833387928 -1.3646227947202858 87 72 47
0.11274314521153095 0.15265782511293763 -1.3638668847230426 117 101 76
0.10145399452135523 0.16086165717471645 -1.3630333671577048 104 86 62
0.09037964252187414 0.16891156009207092 -1.362276608794579 92 76 49
0.08476322789615542 0.17308618632568018 -1.3644826410724489 102 85 63
0.07359026729397677 0.18120362890498776 -1.3636027400081612 94 77 57
0.06719437796179867 0.1859297553723992 -1.3653308795869834 83 67 48
0.06296346710576878 0.1891190289130495 -1.3682437583376295 69 53 37
0.059064991455759164 0.19207205957747286 -1.3713313224877202 78 61 44
0.05554378417213357 0.19475711882305224 -1.374620839017837 102 85 62
0.05178414375258489 0.19761101399746106 -1.377768048861775 117 99 72
0.04783269998238315 0.20060061847771848 -1.3807977507003273 95 76 47
0.04731236189346055 0.2011566873450945 -1.385764199443606 100 79 49
0.04173116358864826 0.2053014691009139 -1.387853215023794 105 85 53
0.03708138706784364 0.20878526732288494 -1.3904576892582818 103 85 52
0.03147598393716744 0.2129460684215248 -1.3925007495664372 106 88 57
0.027643900410661726 0.21584924735968508 -1.3955480851514572 103 84 54
0.02558225393083946 0.21749725664825797 -1.399609545712146 125 104 71
0.017682699080931008 0.22328247723121375 -1.4002810257999758 135 111 76
0.01419746196807209 0.2259386795935413 -1.4034967678112014 135 110 76
0.010953189428947796 0.22842386236003143 -1.4068453258024614 149 122 89
0.004318841901618464 0.23331052422422965 -1.4081971765080896 155 128 90
0.0026432141160936395 0.23468374316565332 -1.4124482954557895 145 117 77
0.002336887057746373 0.23508707375355653 -1.4175088409352745 159 129 90
0.0022017322281658314 0.23536938145953495 -1.4226767580302402 156 128 85
0.002231792817247835 0.23553492507885676 -1.4279496374294334 155 128 86
-0.0056814476514388534 0.2413251368123343 -1.4284807609403445 131 105 64
-0.01738256100598612 0.24979614578172127 -1.4267112368963661 142 112 75
-0.028791888974694646 0.2580590169699071 -1.4250730305792931 150 117 79
-0.03609568958095172 0.2634143180787148 -1.4258733129306274 152 122 82
-0.028352229224410996 0.25811893803199365 -1.4357774533915693 138 110 69
-0.02424175735302253 0.2553960123348444 -1.4435108437842468 121 94 56
-0.03425279942093051 0.2626663486641597 -1.4426396802364094 120 95 57
-0.035657359543050715 0.26384610711597994 -1.447009947163158 123 99 62
-0.03820572582339338 0.26583507306756765 -1.4506770537827318 103 83 48
-0.040595052756683236 0.2677113925718904 -1.4544382452642308 106 84 50
-0.039709530290664596 0.26727134636996364 -1.4602264204669022 89 66 32
-0.0413908164228356 0.2686469504433784 -1.4644285523645828 115 91 57
-0.04165511127775168 0.26902055596015484 -1.469515258368626 108 84 52
-0.04232887955391934 0.26968389160942885 -1.4743513733947624 96 73 43
-0.04241823238760589 0.26993421618291197 -1.4795592710103833 76 56 25
-0.04343864978557266 0.2708429389949026 -1.4841863215440074 81 57 25
-0.047343885813122266 0.27379075962580046 -1.486988663593314 133 105 67
-0.04777668802913698 0.27428415982391774 -1.4919881187067814 158 127 82
-0.050101693499524314 0.2761148641143887 -1.4957857647071742 157 128 83
-0.04978847660027269 0.2760813809291822 -1.5012692113398582 149 121 82
-0.0551806676212262 0.2800789862249331 -1.5030958420107448 153 125 85
-0.058637680145354754 0.28270896720648586 -1.506153047762159 129 103 63
-0.06398681697919328 0.2866751019473925 -1.5079777085575057 74 50 14
-0.06821433885973183 0.2898485019206125 -1.5105136335484342 77 54 19
-0.060323834213090455 0.284464194885217 -1.5209329509151144 80 57 25
-0.06018766918712898 0.28455661325590753 -1.5263256348279544 87 64 32
-0.06014074172516254 0.2847123167741287 -1.5316677440762512 83 59 27
-0.05737430676311667 0.2829485390403581 -1.5388078675163703 81 56 24
-0.055212904808227214 0.2816125280474278 -1.5455682976224328 78 54 18
-0.05316173975177868 0.2803549323311488 -1.5522729433335842 125 98 53
-0.05483555163821913 0.28172655643646144 -1.556516455238628 161 130 83
-0.06700315373045129 0.2905025178019463 -1.5537549023981854 156 125 83
-0.07111535463155988 0.2935935800005067 -1.5563405772236945 127 100 68
-0.07293033247845537 0.2950637049749368 -1.5604587817258768 74 51 26
-0.07948678482468363 0.29987818540108785 -1.5613783083680417 74 52 29
-0.08135325189067844 0.30138416965967646 -1.5654488906781945 78 56 30
-0.0829101974243927 0.3026718425823493 -1.5697284735327328 95 73 43
-0.08583881574695951 0.30492669281274726 -1.57307371691308 119 98 66
-0.08718151804098939 0.30606322521357027 -1.577497099910956 71 52 23
-0.08987877284384882 0.30815467535271945 -1.580992519478656 72 57 30
-0.09360547597646801 0.31097155677887495 -1.5837743120374221 96 81 56
-0.09294148228099552 0.3106936512573969 -1.5895786344297136 86 71 46
-0.09835582071996823 0.3146994524959707 -1.5911814668986406 95 80 55
-0.10101868968607869 0.316765922255376 -1.5946796454388068 99 80 53
-0.10465281727137798 0.3195164902501735 -1.597495310712742 124 103 72
-0.1067428892916738 0.32117902763756534 -1.6013822896523282 107 88 59
-0.10890721013054333 0.32289378190150425 -1.6052148519155647 113 94 67
-0.1196211239184331 0.33062968713728347 -1.603020222377778 121 98 70
-0.12427821020966107 0.33409891892217847 -1.6050650379440234 151 126 91
-0.1306145373704441 0.33875000177704584 -1.605904272304495 148 122 80
-0.1357209587258299 0.34253441024235154 -1.6075965209640941 120 92 51
-0.14692209276875268 0.35060852836838585 -1.6049200975447642 165 138 94
-0.15101090283354657 0.3536749953457251 -1.607293816972316 153 126 83
-0.15726013227571622 0.35826147876492476 -1.608102763106051 154 130 85
-0.16749890982600463 0.36565456331674645 -1.6060124371516213 165 140 97
-0.1754934582340214 0.371467144671213 -1.6055048251978887 167 142 95
-0.18166227552051634 0.37599420874554335 -1.6062920375827558 106 82 42
-0.18116568172679637 0.3758318299546436 -1.611911782956211 64 45 18
-0.1819189313883502 0.3765488745459113 -1.616628109375777 96 75 46
-0.17680142683167138 0.3731373748918348 -1.6256519818833286 106 86 53
-0.17418505927472955 0.3714857545137759 -1.6328683111890032 94 73 42
-0.17681490290677243 0.37352341902416963 -1.6362337581472353 89 68 37
-0.16653149130644368 0.36648278901829145 -1.6491531410947886 91 70 39
-0.15381945952726672 0.35773705100021036 -1.6639330271395756 95 76 46
-0.14191361101574673 0.3495603703472829 -1.678180957647361 100 83 54
-0.13914700960873067 0.34780861578284933 -1.6856626698134918 102 86 57
-0.12743689890154242 0.3397733142031498 -1.699871855186876 91 71 42
-0.11505797697341164 0.3312704040615368 -1.7146484319554238 91 73 45
-0.11237854399603625 0.32958372920977685 -1.7221724905037383 96 78 50
-0.11291116966842946 0.33015396985121326 -1.7272854838535807 98 79 51
-0.11344419298519953 0.33072467841786785 -1.7324034813425404 96 77 48
-0.11417247437919475 0.3314326930897144 -1.7373780147414417 87 66 38
-0.11610763511955208 0.33298827242968904 -1.7414343937674472 102 81 50
-0.10402667586387149 0.3247036083312827 -1.7562372480107027 104 84 51
-0.11426942362559778 0.3320920207831366 -1.7539340668658792 104 83 50
-0.11110291292467 0.33006712973664976 -1.7619369025091547 107 86 52
-0.11149693135367855 0.3305418595014204 -1.767206813795618 87 66 31
-0.11250182872225883 0.3314454684492697 -1.7720083998262144 92 70 34
-0.11563586318862112 0.3338430495445361 -1.7751543816157604 90 68 35
-0.11395945151834191 0.33286564629753423 -1.7820524065014987 100 78 47
-0.11425941675516471 0.33327515807951796 -1.7874173139635197 99 79 47
-0.11369651098496181 0.33307971622208576 -1.7934673994060586 95 75 41
-0.1118077991039168 0.3319549019469174 -1.800574264853116 110 90 59
-0.1147907889873992 0.33424669703532917 -1.8038432924802408 95 76 49
-0.11303332084411033 0.3332147107632483 -1.8108688315451318 73 54 29
-0.11309127936885821 0.33345596324619553 -1.8164655716143587 69 48 22
-0.11350197287637842 0.33394473685164394 -1.8217884255658914 75 52 22
-0.11400385328401863 0.3344976359742741 -1.8270443538204926 88 68 35
-0.11751546814273961 0.3371598072683477 -1.8298868792403802 93 73 40
-0.11767094474740081 0.33747013402862797 -1.8354260111741845 95 74 42
-0.11734214702363277 0.3374414562547769 -1.841364238779879 91 69 37
-0.11926802889233329 0.3389924951371099 -1.8454832524664844 90 69 35
-0.12205047023225224 0.3411434143682936 -1.8489038649881047 89 68 35
-0.12445260183633144 0.3430277988612979 -1.8526292288585968 111 90 57
-0.12860765807420932 0.3461394750932462 -1.8549155925505274 106 84 51
-0.1300363230747993 0.34734188384056425 -1.8594284625515907 104 81 48
-0.13023495924312084 0.3476832653869899 -1.8649557084231028 102 79 45
-0.13383949194566153 0.35040885608891575 -1.8676759395009928 105 82 48
-0.13486173226143394 0.3513268574856678 -1.872526573031137 102 82 48
-0.1264226872653189 0.3456242641650086 -1.8852460571136094 99 79 47
-0.12297162591060212 0.3434134694589241 -1.8938571762993162 96 75 43
-0.12150583456287944 0.3425924661201395 -1.900833650493803 92 71 40
-0.12523272962651882 0.3454042997441473 -1.9034695268823258 90 69 38
-0.12829786001571503 0.34775291658963087 -1.9066517714167255 88 67 36
-0.13129247032041463 0.3500519629196928 -1.909886376552628 88 67 36
-0.13088071134198231 0.34996894358493486 -1.9159979840128813 91 70 39
-0.13443441639111214 0.35265869683358725 -1.9187528801852327 91 70 40
-0.1359233951828382 0.35390476946296023 -1.9232566227863788 87 66 35
-0.13797815200357944 0.35554632523871454 -1.927277898229863 84 63 33
-0.13667824228421388 0.3548433578022411 -1.9341715159379358 81 59 29
-0.1497200539704776 0.3641625119570997 -1.9287550487404395 79 57 29
-0.14641643620345968 0.36205936378534564 -1.9373693225198148 79 57 29
-0.14595417374889175 0.36194206013110836 -1.9435526298321393 79 57 32
-0.1445338640254798 0.36115595199076966 -1.9505776028503812 76 54 28
-0.14688340929662774 0.3630032929713837 -1.954339786076864 80 60 32
-0.1453116414487085 0.3621122041787481 -1.961518940301286 86 66 37
-0.1508652329772891 0.36619678238444 -1.9624809333744027 91 70 41
-0.15050121256247795 0.36614938996119817 -1.9686153223879874 87 66 37
-0.15123702121504146 0.36687009107011787 -1.9737922741651643 78 57 28
-0.15340972581169954 0.36859383483143976 -1.9777057014678319 82 61 32
-0.15358987214855674 0.368926975225384 -1.983380443453894 83 62 34
-0.15677904887823335 0.37135996466906435 -1.986391182332053 79 58 30
-0.1583707410415009 0.37267816081974964 -1.9908165081032725 75 53 25
-0.16041279252541785 0.37431052738638143 -1.9948399526329417 74 52 28
-0.1574309060383683 0.3724387330035278 -2.0033616028843495 74 52 28
-0.1548056027807655 0.37081648087497987 -2.0115872735478906 75 53 29
-0.15991283455886868 0.3745868635878452 -2.01286839671252 75 53 29
-0.15470252696101772 0.37116323218445235 -2.023454770739217 76 54 30
-0.15637568921685396 0.3725393867460829 -2.0278390365794 80 59 31
-0.1605212562164966 0.37563883222802874 -2.029976046332295 86 65 35
-0.16414916639935667 0.37837704801413913 -2.032571824091226 101 81 48
-0.1665804296156585 0.38028104391307344 -2.036251199833094 84 65 28
-0.16774923400836333 0.3813053047970681 -2.0410840166228277 112 90 52
-0.16921528902048166 0.3825367338722738 -2.0456461322035735 111 89 52
-0.1646823960372834 0.3795897003762514 -2.0557414700651075 79 60 25
-0.1617775397565624 0.377777677772829 -2.064364143105583 78 57 26
-0.17080113616928577 0.3842728909356401 -2.0619473001548214 78 54 26
-0.1597227980721252 0.37677065257745945 -2.0781899273817093 77 54 25
-0.17433309979645484 0.3873656141869791 -2.0764824843390093 82 60 28
-0.17080921300453367 0.3851248180101815 -2.085743671661793 81 58 28
-0.17566230321416226 0.38871432238983467 -2.087150623576112 76 55 24
-0.1754545657566718 0.38878201138734386 -2.0933159595898014 91 71 38
-0.17868130954862016 0.39123936309959684 -2.096241295379098 102 83 49
-0.18002859194915433 0.39238909118124016 -2.100941877066933 95 76 41
-0.1807891408565216 0.39313081481298207 -2.106202613846632 124 100 61
-0.18276669740572138 0.3947190112654079 -2.1103067175918 144 117 78
-0.18396516240158628 0.39576544940933994 -2.1151548642005116 124 100 66
-0.18001723602222147 0.3932342120816392 -2.124945449121117 84 63 33
-0.17804801548829363 0.3920794652772769 -2.132861932675933 79 58 26
-0.18154920513243472 0.39472738942487257 -2.1355175894988827 82 59 27
-0.19444781715116638 0.40411894262654596 -2.1350750311774283 82 59 25
-0.1997066775746119 0.4079863060575311 -2.1359734618815116 81 58 24
-0.19822813711106618 0.40717306148046334 -2.143429696897965 81 58 24
-0.2088157954157278 0.4147406299017452 -2.139090238553627 80 57 23
-0.21286666542346389 0.4177671722171769 -2.1411192908717473 81 57 23
-0.20891567197316308 0.4152373705192921 -2.151013172435481 81 57 23
-0.2091783416885324 0.41563389865890044 -2.1567779580292616 81 58 24
-0.20690702856499266 0.41427179789837687 -2.165059244324889 80 57 23
-0.21768612906854656 0.4219678240324005 -2.1604057217757604 80 57 23
-0.2209237447478506 0.4244287960922734 -2.1632098644938793 79 56 22
-0.21985036559716742 0.4238983564287854 -2.170309180796962 83 60 25
-0.222536005137701 0.4259762081595777 -2.1736603909845407 90 67 32
-0.22565848446690584 0.42835686362458875 -2.176567345610941 92 69 33
-0.22779057796336627 0.4300503634185543 -2.180463186476308 93 69 33
-0.22803223477677287 0.4304328758307596 -2.186264804771548 93 69 33
-0.23001542946470505 0.43202313929460784 -2.1903113882635026 92 68 33
-0.2319844903181974 0.433603540495671 -2.1943705136488534 89 66 30
-0.2317291750049571 0.43364208624339323 -2.2006921366266137 88 66 30
-0.2340136030098694 0.43544114718740984 -2.204432146040109 90 67 31
-0.24068746859226597 0.44028168026389686 -2.203675877650908 91 69 33
-0.24966122154641585 0.4467146512920181 -2.2005308288556584 91 69 33
-0.24873539650489346 0.4462883714190112 -2.2075329613010823 93 71 34
-0.2478130877813099 0.445865045491436 -2.2145460464928894 95 73 34
-0.25037938510882846 0.44785821506678514 -2.2179635565919114 98 76 37
-0.25243380738156024 0.4494967620172859 -2.221907065949636 98 76 36
-0.25533645109697245 0.45172247886197175 -2.224965712082029 98 76 36
-0.25525076349336984 0.45187932931926034 -2.2311351934538077 98 76 37
-0.2573717967203154 0.45356386809566546 -2.235005875375233 96 75 34
-0.25979154421877415 0.4554550308831346 -2.2385605251350356 92 73 31
-0.26686832771271896 0.46056836237558785 -2.2372119067680507 94 76 33
-0.2697957020729767 0.46280992828772244 -2.2402090218413218 94 75 34
-0.2672867937082995 0.46129083628838946 -2.2489485807990093 94 75 35
-0.2763812716741155 0.46779772855626156 -2.2454061947688353 95 75 36
-0.2785891643255804 0.4695409021421281 -2.249144286830592 95 77 42
-0.2739361676319191 0.46654023650210796 -2.2601948858793155 106 96 72
-0.27010059209907483 0.46410595716331693 -2.2704078703774293 147 143 133
-0.26567643937171265 0.46126597504350514 -2.281283569808321 179 179 179
0.14420454097438987 0.11981196865484309 -0.9220919403972627 155 152 148
0.13243125211816725 0.12839299592647543 -0.9225918650725654 109 99 86
0.1218621673329528 0.13611282521524304 -0.9234947861920122 112 96 74
0.11755408554719893 0.13936150642399842 -0.9266710893646348 115 95 69
0.11648527492429481 0.1402974258125584 -0.9310370017886018 99 82 53
0.11353478668563671 0.1425765414965142 -0.9347042668610908 100 82 52
0.11637515270485493 0.1407224078153585 -0.9405334860440024 98 75 47
0.11498898570208677 0.1418851641962013 -0.9447897937795942 85 66 41
0.11253601601889357 0.14380920152329002 -0.9486435688100119 63 47 25
0.11409045724981726 0.14287377376972185 -0.9540166868150167 57 42 24
0.11458885894379553 0.1426922083988891 -0.9589985508469733 68 51 34
0.11402346847190967 0.1432698164983871 -0.9635801431162739 78 61 43
0.11531934361035531 0.1425199159361139 -0.9688835590989242 77 60 40
0.11443012745926029 0.14332890376613935 -0.9733510730760704 86 68 48
0.11322317861900935 0.14436458611707387 -0.9776975232583028 67 49 27
0.11162480861599275 0.14567944354521148 -0.9818922340498971 71 53 31
0.11045415347644283 0.14668932838899773 -0.986255188373532 81 63 41
0.11123735640924776 0.14630625710096004 -0.9913921801350593 78 61 40
0.10989646152675381 0.14743775934322773 -0.9956945505891247 71 54 34
0.10840497989563186 0.14867663803496947 -0.9999377948164712 75 58 38
0.10926620680309723 0.14823864878075585 -1.005125173282123 65 48 28
0.10863459722085336 0.148864913124995 -1.0097203731923332 64 48 25
0.11182673372226459 0.14676649441028672 -1.0158679613383874 71 55 32
0.11064655184786537 0.1477841778876491 -1.0202548631002417 71 55 32
0.11125874746528885 0.14752491759949685 -1.0253762998444667 68 52 29
0.11071506116787927 0.14808941241557064 -1.030031477959058 69 53 30
0.10632155895840179 0.1513963648598125 -1.033101601293667 65 49 26
0.11743184906181539 0.14366033363993225 -1.0425910227312483 72 56 33
0.10276865580427205 0.1542814604837768 -1.0413902043419827 64 48 27
0.10318320296642336 0.15416374210853445 -1.0464507760711272 77 58 35
0.11856527901528507 0.1433888719832292 -1.057815007877163 93 76 51
0.1191593273661769 0.14314499758145194 -1.062996667242943 76 60 38
0.11803085249396228 0.14412769348025034 -1.0674557000360565 70 52 30
0.10837935506913293 0.15117734288292745 -1.068281350880918 90 73 46
0.1103842736094175 0.14992937060887296 -1.0740700723700456 70 53 28
0.11293546712284558 0.14829314393384802 -1.0801082253694048 75 57 32
0.11309931964110567 0.14835636596270624 -1.085130435971453 82 64 38
0.11358728319086059 0.1481892271101783 -1.090300493419731 86 68 42
0.11410055674992908 0.14800438405489147 -1.0954899384118861 84 66 40
0.11250165656450628 0.149322431746699 -1.0997618751785008 86 66 40
0.11100456923689347 0.15056806088293018 -1.1040787298021606 92 72 45
0.11285682852499249 0.14943149293673264 -1.1098777273694576 90 70 41
0.11045788935246148 0.1513187744883181 -1.113801478052223 85 65 37
0.11084177656302993 0.15122706776594708 -1.11896426654243 73 53 27
0.11195944216167691 0.15061391328299545 -1.1244640584870826 76 55 31
0.11158523108264273 0.15106181796792123 -1.1293029351539983 77 56 33
0.11218476320888326 0.15081768512063604 -1.1345872992025265 62 44 22
0.1092241905648948 0.15310444179659644 -1.1382630028620573 73 55 33
0.1132421507881865 0.15043108720604492 -1.145118151104188 68 50 28
0.11581866124376392 0.14878294628317218 -1.1513352564896895 68 50 28
0.11492888931432388 0.1495985365179745 -1.155973436909791 67 47 25
0.11620123240872385 0.1488780097549725 -1.161614393333676 51 32 8
0.11622705627800964 0.1490434941304833 -1.166688156338176 62 43 18
0.11803115103773648 0.1479459862667219 -1.1725981024209615 63 46 20
0.11921266434481947 0.14729120335289358 -1.1782303061468558 64 46 22
0.11878490580398898 0.14777978221998617 -1.1831167740035586 56 38 16
0.11640401598364775 0.14965556057826213 -1.1870852508615477 60 43 20
0.11876663515117758 0.14816296522654093 -1.1933017934883645 61 46 22
0.10280986335744163 0.15967781629487493 -1.19080372651149 72 57 34
0.1171364319252226 0.14969147350531187 -1.2027418566196906 74 60 37
0.11298795492119096 0.15282213048591142 -1.2058647000423317 91 77 57
0.09880956060460272 0.16307147646831627 -1.2041357596489017 86 71 52
0.09415122638184925 0.16656249471383944 -1.2069704570731212 96 81 62
0.0895970050474269 0.1699791811114305 -1.2098434516015057 99 84 66
0.08368307960464971 0.17436022328490774 -1.2120397669528769 85 73 54
0.08011217524832337 0.17707828847939078 -1.2153686973437552 79 67 48
0.07673285419689763 0.1796601522763015 -1.218784079581478 84 74 57
0.08240830155364559 0.17581888485947228 -1.2266745369835619 101 93 79
0.0825411774956476 0.1759098382888893 -1.231839976586581 156 152 143
0.08783114369488226 0.17234372098548567 -1.2395868251642397 196 195 193
0.18992552349642877 0.10326882168376206 -1.382209929874091 163 162 158
0.1693029184169162 0.11806407977482242 -1.3765972149301653 106 100 89
0.15388382030732634 0.12917368823642011 -1.373708556486128 102 92 75
0.13854383944343807 0.14022519778713555 -1.3708045920765721 97 83 61
0.12616274457493243 0.14918093070991784 -1.369449768501364 100 83 58
0.11490681465247776 0.15733894654993458 -1.368663004517756 103 85 61
0.103435547684472 0.16564781983537546 -1.367717637064829 102 86 59
0.09559862623609111 0.17138439822686408 -1.3687276202181853 91 75 52
0.08775823787725917 0.17712247317609314 -1.3697093808165084 83 66 47
0.08135992712593981 0.1818397502725826 -1.3714633468746797 86 70 49
0.07145270143732063 0.1890375298732181 -1.3712464039591872 87 72 51
0.06760597014545378 0.19194897598266086 -1.3743762093596448 99 83 60
0.06386995140818535 0.19478181016017138 -1.3775586284305799 97 79 56
0.0622939714960683 0.1960874085277744 -1.3819467873460112 110 93 67
0.058121884759565146 0.19922797885219135 -1.3848697731071502 101 82 56
0.05270453077246412 0.2032482276282469 -1.387076268059162 90 70 42
0.04726273274319359 0.20728515970586892 -1.3892526073369666 115 94 64
0.043632484052932574 0.21004149679951 -1.3924468910215833 118 100 67
0.041105237611251344 0.2120182521702606 -1.3962647483527073 96 79 46
0.03726402866694284 0.2149230780806487 -1.399322860466303 121 101 67
