ply
format ascii 1.0
element vertex 681
property float x
property float y
property float z
property uchar diffuse_red
property uchar diffuse_green
property uchar diffuse_blue
end_header
0.5251318011260606 -0.1356039688946263 -2.22587686608918 95 73 33
0.5279390117284775 -0.13573933575193248 -2.229387662240404 99 76 38
0.5315669681566735 -0.1358557465192869 -2.2321677240100857 99 76 38
0.5316925394479326 -0.13605246122741976 -2.238048418487659 96 74 34
0.5347419428130382 -0.13618196529217302 -2.2413355057984066 96 76 36
0.5381284352944791 -0.13630348211488424 -2.2443164153927353 90 73 36
0.5389536742990131 -0.13648429982627341 -2.249582059807092 87 73 36
0.5416289737510794 -0.1366221423228344 -2.25319315868108 79 65 35
0.5483423428074996 -0.1366653592265543 -2.2531681678587554 69 57 36
0.5543642447335578 -0.13672404785007303 -2.2537438448503258 93 87 68
0.5507922976119567 -0.13700814651072576 -2.2629761525277563 129 126 119
0.5430993490249153 -0.1373905632910163 -2.275971736164207 167 167 169
0.543487658965251 -0.1375828023623726 -2.281666317544024 185 186 189
0.5388232458699551 -0.13789556907261472 -2.291974437678716 194 195 199
0.5327176821279946 -0.13824382174360553 -2.3036317284048415 201 202 206
0.534220417360262 -0.138411030112349 -2.308355366009434 204 204 208
0.5615636775034368 -0.13795691763075513 -2.2893368139330836 206 206 208
0.5753670911499326 -0.1378253818054374 -2.282669128514859 207 207 209
0.5741131836322254 -0.13805644538677822 -2.2898527100215125 209 209 211
0.580286691301241 -0.1381076074423116 -2.2901725746699113 210 210 212
0.5747392491838961 -0.13844373856839676 -2.3013560366364993 210 210 212
0.5760475192838215 -0.1386134398217616 -2.306192816321041 211 211 213
2.0607055160554624 -0.10937022822394214 -1.1358613389902574 214 214 214
2.0638187500115386 -0.10936361511762369 -1.1350495786998338 214 214 214
2.066787022024696 -0.10936118129899113 -1.1343918358171066 214 214 214
-0.32011733087579897 -0.10234241683307171 -1.2367232930378245 189 190 192
-0.4022503719254842 -0.10390169522174164 -1.295367540997847 192 193 195
-0.3700393355952319 -0.10385396087608015 -1.2889943731535136 193 194 196
-0.15238271962799288 -0.10330443291524935 -1.239236017815275 195 196 198
-0.13842476972446044 -0.10337600940644127 -1.2391951211119985 195 196 198
-0.12375481365807056 -0.10344055107498204 -1.2388370086744316 196 197 199
-0.10830433193129729 -0.10349738308634761 -1.2381312170569303 196 197 199
-0.09457059064290296 -0.10356657204558069 -1.2380544749652294 197 198 200
-0.0797893157750092 -0.10362588820640922 -1.2375251022176057 196 199 200
-0.06493867529404035 -0.1036831744606837 -1.236925174578114 197 198 200
-0.05060230641154684 -0.10374323795808464 -1.2364864251217806 198 198 200
-0.036256969157270114 -0.10380181145698067 -1.2360023531591733 193 192 193
-0.026266120773349333 -0.1038954419174685 -1.2372233745506258 168 165 164
-0.01461859179644015 -0.10397417879367357 -1.2377497996321847 135 129 125
-0.00439448488901012 -0.10406388964971974 -1.238819274155673 127 119 112
0.006892487866947461 -0.10414356211768029 -1.2394288712489168 133 125 118
0.014721276411088002 -0.10425192410603157 -1.2414176165232027 139 131 125
0.02158731268055658 -0.10436795036333307 -1.2437807935781633 149 142 138
0.020341059454830057 -0.10455417247974381 -1.2494645913030222 187 182 181
0.054413426956500976 -0.10443063291466273 -1.24056899789784 200 198 202
0.06751960059415812 -0.10448868639043693 -1.2402606134293832 200 199 204
0.08052815165465588 -0.10454631018437732 -1.2399546066464835 200 200 202
0.09319879849041873 -0.10460567064385794 -1.2397519035925877 199 200 203
0.10867594954233745 -0.10463848150123627 -1.2383336180164548 199 200 204
0.060303053651055705 -0.1052489634371562 -1.2637936144592024 199 200 204
0.04780352915885783 -0.10553777962766742 -1.2742376520110255 199 200 204
-0.051607060216781464 -0.10662691675397941 -1.321680871269621 200 201 205
-0.08335215034354237 -0.10710218576022595 -1.340590189293903 200 201 205
0.037102852240171125 -0.10616499387151909 -1.2943837321137561 200 201 205
0.026699649998323693 -0.10643938491879953 -1.304079214813257 200 201 205
-0.036324428401957265 -0.10721112438504904 -1.3365532379255851 200 201 205
-0.03477021630174337 -0.10737813794040396 -1.3412388710235714 200 201 205
-0.024173355057364954 -0.1074589228800886 -1.341987658823017 200 201 205
-0.09494708817972591 -0.10831991910987886 -1.378288505952127 199 200 202
-0.07388535731160378 -0.10830239619239015 -1.3745249901249637 168 167 162
-0.05693344115865284 -0.10832256667485093 -1.3725065984187117 111 103 93
-0.041824562667436616 -0.10835899153460633 -1.3712516605739682 112 100 87
-0.02792660147017234 -0.10840577684403818 -1.3704889205743467 108 94 79
-0.01770128330503762 -0.10848749984077395 -1.371322646763287 103 87 69
-0.005222182525004948 -0.10854580539380534 -1.3711183622990288 105 88 66
-0.0012643476132571108 -0.10868821564318656 -1.3747079151411166 103 86 62
0.017449963003818902 -0.10868170572294394 -1.371631038082509 102 86 61
0.03244479637473657 -0.10871089871994813 -1.370180413525592 98 81 57
0.04434959996735438 -0.10877004072633578 -1.3700893266704859 98 81 56
0.05941064953368713 -0.10879562496431316 -1.3685220724306486 100 83 57
0.06904550341148724 -0.10887561373158999 -1.369395679142804 99 82 56
0.07758938960147677 -0.10896600107231312 -1.3707441171672614 97 80 54
0.08378521352605012 -0.10908010080118427 -1.3731537973989472 97 79 53
0.0901219127140373 -0.1091922116991885 -1.375483110506945 105 87 59
0.09450844155076404 -0.10932438102578743 -1.3787045737915293 102 84 57
0.09785529140422655 -0.10946729461785212 -1.382403156433364 99 80 53
0.10496932108278978 -0.10956981677159096 -1.3843298687178613 130 108 78
0.11238056305033434 -0.10966852243971388 -1.3860982163274658 135 110 77
0.11879335215762687 -0.10977734738754384 -1.3883188972897542 142 113 77
0.12516784829352057 -0.10988604569667006 -1.390541746725622 196 164 122
0.1283465610329695 -0.1100291026560985 -1.3942704763987217 171 138 92
0.13060873734006667 -0.11018207297235091 -1.3984328389617537 145 114 85
0.13796785860823502 -0.11027872491123134 -1.40014865684113 146 120 94
0.14201762658014377 -0.11041145798773319 -1.4034386583707308 158 129 95
0.1479647111650964 -0.11052275118173246 -1.4058039183644526 180 152 106
0.15599254054833217 -0.1106101966583441 -1.4071451535540107 173 142 98
0.16181950545492052 -0.11072173453602713 -1.4095361462771345 164 132 89
0.16589090741600926 -0.11085271531641218 -1.4127711376905983 155 122 78
0.1715610542993013 -0.11096519192762741 -1.4152139878661245 155 123 79
0.1736720415328294 -0.1111180332579921 -1.4193958531543573 168 137 92
0.17451022348609518 -0.11128552936580292 -1.4242060961481864 124 97 54
0.1725465440536429 -0.11148564354339227 -1.4304101647899752 119 94 55
0.17597440787625873 -0.11162339531198257 -1.4339440368008134 101 77 40
0.17336113134710557 -0.1118317484010431 -1.4404912090485338 104 82 46
0.18127141753910198 -0.1119167009715163 -1.4417770483884893 96 74 38
0.17898501223532798 -0.11212165550906834 -1.4481736087536228 86 63 29
0.18704014853089596 -0.112204030814811 -1.4493611153411239 94 71 37
0.19065673440029324 -0.11233875443617312 -1.4527765950265705 89 66 37
0.1854728072084848 -0.1125791200427263 -1.4606640929821368 89 66 35
0.18903090931469596 -0.11271467646515575 -1.4641131474834408 76 53 22
0.19887513850268312 -0.11277363426905368 -1.464334275829383 80 57 25
0.21289406832767827 -0.1127806058954458 -1.4623787842113984 69 46 17
0.21042348395694838 -0.1129885204863513 -1.4688910284947045 73 49 21
0.21073940454012974 -0.11316259679149412 -1.473975830282157 78 55 24
0.21174807384412475 -0.11332828098740792 -1.4787063586409974 109 86 53
0.21278680667986227 -0.11349370409062887 -1.4834245529519126 83 59 31
0.21471921699888502 -0.11364804020410148 -1.487678027805991 68 44 20
0.21759369361148323 -0.1137905112413608 -1.491436378103453 69 45 21
0.2209676549935296 -0.11392653987493853 -1.494927744256963 65 43 19
0.2249853959322945 -0.11405419592729267 -1.4980729616909256 71 49 25
0.22720447435000996 -0.11420457584038282 -1.5021655771248792 65 43 20
0.23238836189903717 -0.11431683295271948 -1.5046769134725304 64 43 22
0.24793970716835828 -0.11429484401294734 -1.5016311469412322 53 33 13
0.2450532821386039 -0.11451030098150905 -1.5084299194151454 54 36 16
0.24775742149524316 -0.11465348896668802 -1.512235670771106 53 35 15
0.24437019530356902 -0.114876369358552 -1.5193305605418115 53 36 16
0.24564207118508852 -0.1150385949988545 -1.523918521707388 44 26 7
0.2362353851281424 -0.11534215024169324 -1.5343204375286392 95 78 56
0.22675264325764316 -0.11564816387588585 -1.5448065755654774 57 41 19
0.2322650081108273 -0.11575537288108761 -1.5471184071243091 55 38 17
0.23817976505386013 -0.11585672128661217 -1.5491953792106015 52 35 16
0.24099225576454358 -0.1159993864895245 -1.5529690108654504 51 34 14
0.2487339622354111 -0.11607515509304643 -1.554010002795319 53 37 16
0.25122009016349917 -0.11622171459776226 -1.5579487876078906 57 39 14
0.25357981272151947 -0.11636992886268405 -1.5619558572125787 72 51 25
0.2544170208023956 -0.11653900695876328 -1.5668129030966644 82 62 36
0.2556036101668672 -0.11670340033416424 -1.5714779379946215 59 41 18
0.25866913282784176 -0.11684182494984997 -1.5750875088459624 49 32 11
0.25997292965118024 -0.11700465117434339 -1.5796882604477571 50 33 15
0.2644146482888612 -0.11712362287938347 -1.5825120186937123 69 51 31
0.2683708231462897 -0.11724909513576623 -1.5856023267858919 94 77 51
0.2713169474875348 -0.11738857391801065 -1.5892613907795174 117 98 65
0.27813813496301887 -0.11747290629218972 -1.590696830294678 120 98 64
0.2845453562517563 -0.11756250077176607 -1.5923512639148276 124 103 73
0.2903676958249522 -0.1176598859299065 -1.5943256065893938 106 88 62
0.29596250692989245 -0.11776003229027687 -1.5964164515873545 105 86 57
0.3032643057301721 -0.11783501443271475 -1.5975020646703455 124 108 77
0.3113428239990846 -0.11789800593990693 -1.5981143394642974 137 117 87
0.31855038132787195 -0.11797289072260225 -1.5992116091829522 148 124 87
0.32593854595061383 -0.11804442819534067 -1.6001823254092984 152 125 80
0.333299643293914 -0.11811563838630956 -1.601147562660505 162 133 91
0.3416998425658053 -0.11817075953023623 -1.601478152140789 146 117 80
0.3457576962565592 -0.11828951618403893 -1.6043547431388223 156 128 87
0.34752740384392716 -0.11844212146067631 -1.608582257090418 183 155 110
0.3529272072082881 -0.11854034031349517 -1.610646321345726 168 141 92
0.3578404696008851 -0.1186454141231934 -1.6129875405724727 141 117 73
0.3600472107541397 -0.11879100212410451 -1.6169407445786865 132 111 75
0.3598434183936431 -0.11897314941212686 -1.6223436755067855 100 77 39
0.358376012965831 -0.1191748452847188 -1.6285178852701894 81 55 26
0.36079794111700897 -0.11931740701306742 -1.6323486725369947 69 45 21
0.36171664582290963 -0.11948302288418425 -1.637091054470412 73 50 25
0.36618264161168396 -0.11959395160383063 -1.6396738829991515 73 50 23
0.38441198821791445 -0.11949093142099676 -1.633825682121752 101 79 48
0.3680621590975507 -0.1199246888832348 -1.6491375740198153 103 81 48
0.35141022160228375 -0.12036562366374205 -1.664707696152124 112 91 57
0.3339588784254105 -0.12082162003567434 -1.6808452161211052 79 61 32
0.3034258460177209 -0.12148676559112448 -1.70516714063009 85 66 42
0.29664892882621946 -0.12177960910992999 -1.7148477768373707 53 35 13
0.3021610381955421 -0.12187794081618195 -1.7168978566316855 47 30 11
0.30291678496149427 -0.12205184807364998 -1.721909871917232 53 36 19
0.30438994209317505 -0.12221439246779905 -1.7264762046594524 53 36 17
0.30651308925260373 -0.12236651551111774 -1.7306350131845678 60 44 24
0.30861760310712355 -0.12251891321314848 -1.7348047937951927 49 32 15
0.31028535277887603 -0.12267838948147883 -1.7392506502807752 62 45 26
0.3110490822462786 -0.12285266454698104 -1.7442722816374672 97 78 53
0.31217911426961736 -0.12302109075629977 -1.7490649632096607 100 81 50
0.3116917457498069 -0.1232162610401397 -1.754895656312189 63 44 13
0.310809473764483 -0.12341829199440682 -1.7609895465219139 73 53 26
0.30876390797784914 -0.12364002473074669 -1.7678437686634683 68 51 25
0.3191147033256367 -0.12365560947227638 -1.7667077377643503 57 40 14
0.3185813330743312 -0.1238522645950956 -1.772589310087138 58 40 15
0.3181235740835857 -0.12404798720901 -1.7784317269293966 62 43 18
0.320915838400457 -0.12418917734672257 -1.7821649769721513 80 57 27
0.3229747616562011 -0.12434267792907569 -1.7863743094812834 131 104 65
0.3245396985832483 -0.12450456736824184 -1.790907179339328 101 79 39
0.3263353063371228 -0.12466256548651665 -1.7952897353157653 92 74 36
0.33272148075999236 -0.12474182128891285 -1.7966425262830297 79 58 26
0.33544180646883165 -0.12488360787185007 -1.800404455146613 80 58 31
0.3063190996077086 -0.12557604318274226 -1.8253137449451513 77 54 28
0.3271112292336851 -0.12540599629210394 -1.8170938642897945 77 56 29
0.32593653032842074 -0.12561632239176473 -1.8234774569633847 78 57 29
0.330533134576867 -0.12572605435406262 -1.8260048592575568 69 47 23
0.33449460308195667 -0.12584657679288763 -1.8289483814106655 67 44 21
0.33597418578037364 -0.12601060873029574 -1.8335575912053859 67 43 20
0.3313703537369502 -0.12628247424563874 -1.8422845956404914 66 42 19
0.3361412063329476 -0.12638852335648856 -1.844676529600573 65 42 19
0.34334101820322743 -0.12645080248996515 -1.8454032532873483 65 41 17
0.34482610302106814 -0.12661478447306065 -1.850010141753803 65 42 18
0.3437219309656817 -0.12682542813857364 -1.856392227381518 64 41 17
0.34555265486594006 -0.12698347430072082 -1.8607707868489687 63 40 16
0.34712002944197395 -0.12714631180800717 -1.8653312394182695 65 42 18
0.35057803807196314 -0.12727477445310129 -1.8685865286279792 65 42 18
0.34699190896750604 -0.12753178842053456 -1.8767186778419847 65 42 18
0.3490974411067744 -0.12768513819743227 -1.8809163781243825 66 43 19
0.35260515643854146 -0.12781263263153544 -1.8841354523113254 67 44 20
0.34965672496741346 -0.12805930021950993 -1.8918641831415584 67 44 20
0.34697489071478343 -0.12830171549088493 -1.8994264161191243 65 43 19
0.3429442592140953 -0.12856992783165141 -1.907957327015386 63 41 18
0.346452298698612 -0.12869796244324178 -1.9111922810425566 61 39 17
0.3493776820557501 -0.12883671538273325 -1.9148331372870349 61 39 17
0.3519705714484752 -0.12898159572016063 -1.918705945744973 62 40 19
0.34840839084676073 -0.12924285647072908 -1.9269596406281335 64 42 21
0.35786867147814244 -0.1292575463573668 -1.925934497568348 63 41 20
0.36096983629419677 -0.12939240416053452 -1.9294333888708617 62 41 20
0.36675567464663333 -0.12947571181089756 -1.9309982133077845 60 39 18
0.36079205795016245 -0.12978419065196883 -1.941014560337307 60 39 18
0.36539758824174534 -0.12988999756763647 -1.9434248371901768 60 39 18
0.36970994457695117 -0.130001093674419 -1.9460362862090255 60 39 18
0.3742998883682157 -0.1301064525708211 -1.9484357537268138 57 36 15
0.374586970059791 -0.13029534025046946 -1.9539617879372981 53 34 13
0.37450676702210295 -0.13049165810429425 -1.959763556335771 52 34 14
0.37732141704131095 -0.13063139387666575 -1.963450466347474 52 34 14
0.38056238831101846 -0.13076259499770956 -1.9668199704295037 51 33 13
0.384106050505198 -0.13088761476846103 -1.969960525525555 51 33 13
0.3854834661421284 -0.13105543656020843 -1.9746972474924824 56 38 18
0.3874028256110464 -0.13121253434189104 -1.9790341756689114 56 38 18
0.38968047869080213 -0.13136246441139637 -1.9831044956735329 55 37 17
0.3679217306917307 -0.1319951713260577 -2.005117208532571 53 35 16
0.3912520945824929 -0.13172232966859224 -1.9934746339472098 52 33 16
0.39322308865341266 -0.1318785358339797 -1.9977773086800517 54 35 18
0.3906448949787788 -0.1321271253699779 -2.0055056437579264 52 33 16
0.3950345491910155 -0.13223436090756643 -2.0079913289294855 51 33 14
0.39570599558603836 -0.1324172964159548 -2.01328258223273 59 39 15
0.40297196141599695 -0.13246502931376414 -2.013570140134097 100 76 40
0.4015444740044528 -0.13269110165114864 -2.020457057201164 95 70 30
0.40218547167262525 -0.13287489976813516 -2.0257784426091026 144 118 69
0.39713370229049433 -0.1331770404905808 -2.035467313212883 155 129 84
0.39998685500777836 -0.13331557552055842 -2.0391128780115038 95 72 32
0.4114751084750281 -0.1332734711849524 -2.036100254242929 78 55 20
0.4163001578630519 -0.133369721897618 -2.0381948791865456 71 47 17
0.41253996356135714 -0.1336462885251101 -2.046930468446545 73 49 19
0.41351416536755586 -0.13382368050955518 -2.0520115722933525 74 51 20
0.41677019075138594 -0.1339528352617257 -2.055318408385792 75 52 21
0.41547480190159136 -0.13417864170639432 -2.0621771206683213 76 53 22
0.42071826026572956 -0.13426530371917303 -2.0639244755520973 74 50 19
0.4215866718687707 -0.13444522430203037 -2.0690964557147797 72 47 15
0.4250079692041961 -0.1345704063117092 -2.07226065835327 103 80 40
0.4253081315159019 -0.13476272253395755 -2.077885783691848 109 85 43
0.42776287497754806 -0.13490862592648684 -2.081810057849871 163 134 87
0.4255523159758289 -0.13515584319735796 -2.0894412522609187 171 141 95
0.4269788632214003 -0.13532437027465313 -2.0941911991964166 105 80 43
0.43107362585544673 -0.1354345816819519 -2.096810101568863 82 62 29
0.43060380904003076 -0.13564471121840738 -2.103079236682718 76 54 23
0.4296969404666303 -0.13586484173368527 -2.10971067381707 75 52 21
0.4361966569612772 -0.13592161498282146 -2.110382952246057 79 56 25
0.4416920861180581 -0.1359999770834888 -2.1118467005997097 82 59 28
0.44056295536398193 -0.13622531051159795 -2.1186658341705416 80 57 26
0.4440206145004237 -0.13634862467414904 -2.121769348736659 81 57 28
0.44575430061603005 -0.13651036086106222 -2.1262716857043036 71 47 19
0.44742319906475186 -0.13667358721965042 -2.130827955094267 65 44 15
0.44925323102224257 -0.1368332183656774 -2.1352533623316297 68 47 18
0.45039686500441994 -0.13700841669579156 -2.140243656636361 70 49 20
0.45297437259641515 -0.13715114560925792 -2.1440553908756024 71 50 21
0.4555505514979746 -0.1372938067737005 -2.147865332023102 71 50 21
0.45798233074423683 -0.13743967465574713 -2.1517920990213746 75 54 25
0.46109960845812203 -0.13756972479702417 -2.155146728710312 78 57 28
0.46437950560974534 -0.13769584501492066 -2.15836039657657 75 54 25
0.46750360509810474 -0.13782535867949125 -2.161698153982542 74 53 23
0.47136671719410245 -0.13793754374929398 -2.1644109696037455 78 55 24
0.4781871066059723 -0.13798059258470205 -2.1646290824342307 78 55 23
0.4813549436086342 -0.13810818158004862 -2.167903339085545 78 57 24
0.48386966599075765 -0.1382508819626618 -2.1717239105892907 86 62 26
0.4861009844474448 -0.13840015467056682 -2.1757819877318068 91 66 28
0.4906697795780472 -0.13849423751065443 -2.177852185020158 89 66 27
0.49196617029522927 -0.1386653619226225 -2.1826987914854588 88 64 26
0.4938276820235566 -0.1388231659381077 -2.1870654639688714 94 70 32
0.4996220052910336 -0.13888727075219723 -2.1880626896339312 96 72 33
0.5009675102729542 -0.13905712211411114 -2.1928641827131217 97 74 33
0.5013013994794209 -0.13925133136815604 -2.198539934313724 100 77 36
0.5023099364010188 -0.13942955841269594 -2.2036403711243415 99 76 35
0.5042090880883066 -0.13958642810119073 -2.207973687968322 106 83 42
0.5068923060103998 -0.13972430895263013 -2.2116261573263487 102 79 38
0.5113041915409536 -0.13982005459770439 -2.213769579018867 100 77 35
0.5127130169134141 -0.13998863338879733 -2.2185237829027966 98 75 33
0.5149924253089477 -0.14013599679359864 -2.2225181414899557 86 63 22
0.5180317179690668 -0.14026465267722704 -2.2258436763494247 82 59 18
0.5226925546983008 -0.1403531989030188 -2.2277364104808113 96 74 32
0.5249347894637406 -0.14050105982502117 -2.2317511713194635 99 76 36
0.5290404528637002 -0.1406026819168422 -2.2341150947582387 100 78 39
0.5301450287617859 -0.1407785814485315 -2.239132088455064 98 76 36
0.534191710804641 -0.1408812136250836 -2.241534891503465 95 76 36
0.5376391293873227 -0.1409985015545459 -2.244462271355572 87 71 34
0.5400439898839731 -0.1411417213646981 -2.2483150964852516 85 70 36
0.5418475951597077 -0.1413000094103049 -2.252704969549776 73 61 33
0.5462917824477777 -0.14139158243690708 -2.2547203614411435 65 55 33
0.5517026704756286 -0.14145823506780714 -2.2558518304718937 98 92 76
0.5480993798719194 -0.14175359969238002 -2.265117584374434 136 133 128
0.5508195028073508 -0.1418885099370626 -2.2686767615892443 169 169 171
0.5420444266902313 -0.14231755668450785 -2.2826820505927903 186 187 191
0.5379731193100651 -0.1426275586923267 -2.292451607279252 195 196 200
0.5341425161455504 -0.14293234445505348 -2.3020302314342413 200 201 205
0.5331068897925417 -0.1431658409301043 -2.309075678746691 203 204 207
0.5196434020908118 -0.14372205219496037 -2.3275537845727126 206 206 208
0.5105861963346903 -0.14416619590613824 -2.3420477739836714 207 207 209
0.5093932719373107 -0.14440695808560677 -2.349331734834189 208 208 210
0.506091883755897 -0.14470343188942594 -2.3585836586917766 210 210 212
0.5614357887851028 -0.14346085960655824 -2.313408732074193 210 210 212
0.6035410733917322 -0.1425581518943039 -2.280297192597569 211 211 213
2.0628370338259394 -0.11129079829720603 -1.1332669366462214 214 214 214
2.0658824346827913 -0.11128163113253275 -1.132527134374504 214 214 214
2.068871762413961 -0.11127393623100591 -1.131839393015511 214 214 214
-0.20529543571889325 -0.106752354110143 -1.1999096880733848 190 191 193
-0.21179720811832536 -0.10699563665274553 -1.2076931262505806 190 191 193
-0.2125517580997232 -0.10718870349897458 -1.2133729734004428 191 192 194
-0.412473636544219 -0.10956453878076443 -1.304776545608494 193 194 196
-0.4189711437698103 -0.10982273257976201 -1.3129916027624395 193 194 196
-0.37794694541012425 -0.10964498078932039 -1.3032121052658514 194 195 197
-0.17012322310340816 -0.10866338431703043 -1.2513194233520286 196 197 199
-0.1305305375612178 -0.10847219127976397 -1.2413119352311153 197 198 200
-0.1190072993927046 -0.1085460904642489 -1.2421532771788375 197 198 200
-0.10074191802319393 -0.10855377638598626 -1.240315196029497 198 199 201
-0.08674525905631641 -0.10860104716966697 -1.2401058314746392 199 199 201
-0.0728551366370408 -0.1086479646366649 -1.2398982485282688 198 199 201
-0.05876039848148329 -0.10869148543643338 -1.2395691506297133 198 200 202
-0.04570501713767211 -0.10874387461360649 -1.2396143078241872 198 200 202
-0.032971801366814824 -0.10879817641199512 -1.239751237749728 198 198 202
-0.024381316639566053 -0.10889267950818754 -1.2415205323577145 198 198 201
-0.01633418576682777 -0.10899187802884508 -1.2434871958332996 199 199 201
-0.0032232636702715367 -0.1090390943690623 -1.2433761875053158 201 199 202
0.0032899066995029647 -0.10915219164535546 -1.2459186810003633 201 200 202
0.006139148799545302 -0.10930228244003398 -1.2499465624908854 200 199 202
0.0049353466988575345 -0.1094940219226458 -1.2556386323285196 199 199 201
0.0053420295390864125 -0.10966945053994412 -1.2606763398151482 200 200 201
0.074963024779506 -0.10912388199657537 -1.2370117497293052 200 200 204
0.08914312878119157 -0.10915125846685876 -1.23620518802834 199 201 203
0.10698132130713761 -0.10913863476108973 -1.233826769914479 199 200 204
0.08635901718297928 -0.10953169875659319 -1.2475437523128396 199 200 204
0.0889591723354512 -0.10967996558557146 -1.2515468821169609 200 201 205
-0.18073349313143833 -0.11390387262031826 -1.4043760409069328 200 201 205
-0.1527767391043925 -0.11378643541976545 -1.3978186906753518 200 201 205
-0.1217327588253771 -0.11363133140647233 -1.3898215084605448 200 201 203
-0.095098499315593 -0.11352237407535781 -1.383659100305202 198 200 200
-0.07184694404723702 -0.11344873285003834 -1.378901742577434 164 163 157
-0.0563476871112204 -0.11346072003888419 -1.377500394037002 118 108 98
-0.04219658760078915 -0.1134864989231886 -1.3766508097480712 112 98 84
-0.03318541829232846 -0.11356990229716817 -1.3780509912193806 105 88 70
-0.01691807529061029 -0.11356860106970014 -1.3761779094778397 101 83 61
-0.010289783819424803 -0.11367755388774634 -1.3785873157380306 102 84 59
0.00882497251327452 -0.11364012632716836 -1.3753460992834092 105 86 61
0.025302552040018966 -0.1136315766210667 -1.3732392501616908 103 85 59
0.03932203757930991 -0.11365026919031201 -1.372199167215169 95 77 52
0.04907390931896183 -0.11371811264256587 -1.373064881103943 101 84 58
0.05888545529173839 -0.11378429597875776 -1.3738757551598841 105 88 62
0.07128883595019192 -0.11381846334081334 -1.3734664408276125 110 93 67
0.07809550341394778 -0.11391876199689352 -1.3756049403327426 111 92 67
0.08298112919951744 -0.11404172239216717 -1.3786168773692637 106 87 58
0.08944821217762455 -0.11414508238092881 -1.38088240240706 119 100 70
0.09630015691169458 -0.11424318212882074 -1.3829520732433442 113 92 63
0.10028583044147577 -0.11437590561366373 -1.386348464031847 124 101 70
0.11115012708788086 -0.11442341718374843 -1.386499488034754 127 105 75
0.11314756161558592 -0.11457989529699908 -1.3908085678171245 131 110 81
0.12033733285845372 -0.1146715926860598 -1.392654594804371 162 138 106
0.12383128010135624 -0.11480897529178745 -1.3962414775336516 158 132 89
0.1259467144461786 -0.1149635332711523 -1.400481602029376 125 96 63
0.1333002123305712 -0.11505175151729734 -1.402208337415363 182 155 112
0.13928394645699343 -0.11515672488544709 -1.4045751493369758 184 153 105
0.14471032011061769 -0.11526832092115102 -1.4071967583171179 192 161 116
0.15240642946427124 -0.11535032197984703 -1.4087046759062714 173 143 98
0.1567235876351904 -0.11547522562072098 -1.4118370623150878 157 128 86
0.16244932321815192 -0.11558155871251775 -1.414272385343887 149 121 82
0.16622668577102678 -0.11571281325246516 -1.4176497117039002 169 140 101
0.16569819111380996 -0.11590023085963969 -1.4231403496649229 142 113 73
0.1713951293644531 -0.11600602933122825 -1.4255634294840502 133 104 65
0.1694702368138688 -0.1162121357881005 -1.431753184791925 112 86 48
0.17243880228764674 -0.1163537133728736 -1.4355209067072847 110 86 52
0.1710929086413585 -0.11655275132349979 -1.4414405040173752 102 80 46
0.17341710459326676 -0.11670297984418196 -1.4455316152561026 95 73 37
0.17521845215954196 -0.11686020338276834 -1.4498844197160776 88 65 31
0.1834026294040455 -0.11693103284620215 -1.4510135388524787 95 71 37
0.18689794736692572 -0.11706484417934637 -1.4544967781588225 86 64 28
0.18125941787386357 -0.11732326561875595 -1.4626215171269616 89 67 30
0.18006457323658887 -0.11752164365986562 -1.4685049492864475 82 60 25
0.18968044279397578 -0.11757132251958624 -1.4688596319511436 81 58 25
0.20910434484970003 -0.11748413197976024 -1.4641414982552519 74 50 21
0.2102573395865162 -0.1176490208553077 -1.4687895806521576 74 50 22
0.21465736941506808 -0.1177686045107701 -1.4717584538238038 83 60 29
0.2059573326136369 -0.11807187996144909 -1.481528394528455 117 93 61
0.20586026223973664 -0.11825512115505551 -1.4868493321166218 66 42 16
0.21100482234812296 -0.11836432300812666 -1.489433357996667 68 44 22
0.2158196686977759 -0.11847780574448681 -1.4921786360231086 65 42 18
0.21973329471985076 -0.11860380621285885 -1.4953883352357544 63 40 16
0.22469829660045215 -0.11871444429745966 -1.498034239192954 83 61 37
0.22447562764082635 -0.11889955540650493 -1.5034235341680184 64 43 19
0.22869439652206075 -0.11902055852385977 -1.5064539915747865 64 43 22
0.24348706844723517 -0.11898730153514045 -1.503821272723669 55 36 16
0.2482499909084318 -0.11909906633086005 -1.5065226264075398 53 35 15
0.2503849623783586 -0.11924906528376233 -1.5106284345908483 54 36 16
0.23695337387369614 -0.11962871573334191 -1.5231454199920549 56 37 17
0.23693589633376694 -0.11981156313809857 -1.5284459662006837 59 41 20
0.23155504111582836 -0.12007449382067803 -1.5366723022803546 78 60 37
0.22615004779990372 -0.1203387348597369 -1.5449393334273418 53 35 14
0.22622045404269997 -0.12052171710485955 -1.5502338715057942 53 36 15
0.23815238422574503 -0.12052606545632094 -1.5490136500017297 54 37 17
0.2405233389429 -0.1206739128955277 -1.5530304863812527 56 39 17
0.24651684847281125 -0.12076659761895746 -1.5550400935474364 64 46 22
0.24632592108770268 -0.12095322552564748 -1.5604697612029332 68 48 20
0.24841308079067276 -0.12110517849387893 -1.564637587476486 79 57 27
0.2505000046325274 -0.12125711241704001 -1.5688048884708763 82 62 36
0.25258690171527237 -0.12140902405951651 -1.572971546831999 57 40 17
0.25450890304809115 -0.12156347540430931 -1.5772304054761368 53 36 17
0.25809369374190283 -0.12169197664955113 -1.5805496735857132 72 56 37
0.26102597055300325 -0.12183048319500152 -1.5842324968450883 86 69 43
0.26654011316071474 -0.12192822142153503 -1.5864426299537076 102 83 53
0.27188281110459855 -0.12202819186507519 -1.5887367918846067 116 95 62
0.27785093802074023 -0.12211778078104277 -1.5906595521778828 136 112 78
0.2837912168402996 -0.12220727388412803 -1.5925826779752457 124 102 74
0.2895296334544507 -0.12229946047520815 -1.594606631242477 95 78 53
0.29554290270465866 -0.12238671886748886 -1.5964567641212875 128 109 75
0.3032534062055488 -0.12244604004836872 -1.5973058374277898 131 110 73
0.3102554901981176 -0.12251606339119848 -1.598544967220441 146 122 91
0.31717752732597093 -0.12258670542084978 -1.5998110567397028 144 119 86
0.3261977763755552 -0.12262239307446642 -1.5998275018453674 162 136 93
0.32934501020183177 -0.12275346894746637 -1.6032707454973454 155 126 84
0.33509026476199905 -0.1228415800894224 -1.605175828408948 154 125 90
0.34212481664431965 -0.12290784708624117 -1.6063024431379798 159 132 90
0.34591042078620565 -0.12302737320949514 -1.6093389721520452 176 149 102
0.34923530230054295 -0.12315432346475627 -1.6126426199248198 190 161 118
0.3541739408291683 -0.12325406048270382 -1.6149756059132052 152 123 85
0.3573856054890608 -0.123382411683052 -1.6183326242153977 119 95 58
0.35802291028941596 -0.1235540285609443 -1.6232338545671057 95 73 39
0.35717288161114935 -0.12375101513298419 -1.6290380604596608 79 54 27
0.35896079731821773 -0.12390349225554026 -1.6332548381588197 68 46 22
0.3616710398152856 -0.12404022653690991 -1.6369113557148645 68 47 22
0.36280148420402436 -0.12420393837914476 -1.6415278741567019 71 50 22
0.37871134682700813 -0.12411329107176661 -1.6371060438444478 104 83 52
0.3617654461538911 -0.12458865417140688 -1.652793106823627 112 92 59
0.3434913298962614 -0.12508964015327806 -1.669372529668411 108 88 54
0.3260682139160745 -0.1255785601590043 -1.6855062884764398 86 68 40
0.29896312549187565 -0.12623947729148366 -1.7077165763727145 79 61 36
0.29898193575791115 -0.12642809174204256 -1.7131801465370438 62 44 23
0.3002681729150854 -0.1265946251939678 -1.7178608524964594 48 32 15
0.2993200079389098 -0.12680078952977075 -1.7239420850395506 54 37 21
0.30194876872030246 -0.1269438010687918 -1.7277896989627488 49 32 14
0.3035519983108954 -0.1271050063089894 -1.7322802384577567 70 55 34
0.305263568978377 -0.12726431629999893 -1.7367036335321897 57 40 20
0.30763373516608755 -0.12741181838829624 -1.740710551257532 64 47 24
0.30769047480322226 -0.12760100064465757 -1.7461862959589025 108 90 63
0.3080231685036387 -0.12778544423896832 -1.7514935884214544 96 77 46
0.30835607025739437 -0.12797010583263155 -1.756807174621942 78 58 28
0.309059680126294 -0.1281482234820442 -1.7618893042031554 57 38 13
0.30789068905358263 -0.128360821460605 -1.768181886489477 73 57 32
0.3166512306554748 -0.1283912320995003 -1.7680747153005316 50 34 10
0.3149455286007444 -0.12861391080653878 -1.7747199729610608 64 47 23
0.3147772784860174 -0.1288086070240471 -1.7803808865276836 57 40 15
0.3162967429553114 -0.12897220306977542 -1.7849501579353517 92 69 40
0.3182735505917389 -0.12912731742357259 -1.7892220457744876 126 99 64
0.3203332093391847 -0.1292808725668198 -1.7934394028851355 87 65 33
0.32113043780957223 -0.12945815960813722 -1.7984869004184305 94 76 45
0.3231262067485796 -0.12961297411261113 -1.802747959864943 74 53 27
0.32270347949603634 -0.12981362006966493 -1.8086099972715741 79 56 32
0.3083165305801265 -0.13028026675652152 -1.8237557594199127 78 55 29
0.3290589661067672 -0.13007840523533393 -1.815565911622778 76 55 29
0.329336092261896 -0.13026612822623085 -1.8209745042857806 73 51 25
0.3346863762765557 -0.13035649027846563 -1.8229893771831116 68 46 23
0.33530825879783827 -0.1305376662766486 -1.828169352912748 66 44 22
0.33593079878506127 -0.13071901608301947 -1.8333542910980904 65 43 21
0.33295845487654624 -0.1309704787673823 -1.8409765641213705 64 42 19
0.33666778895511196 -0.1310921961006839 -1.8440851955106767 64 42 19
0.3437665023948181 -0.13114724617525778 -1.8448795258315427 64 42 18
0.34574435827757805 -0.1313022640920616 -1.8491485008386361 64 42 18
0.34429483468544103 -0.1315249249870396 -1.8557643388207656 61 39 15
0.3454038348194326 -0.1316973877737957 -1.8606368626586893 62 40 16
0.34676434236886944 -0.13186496882281667 -1.8653395464037734 63 41 18
0.3445512628865361 -0.13210393976777457 -1.8725141677339188 64 42 18
0.34463358207953926 -0.1322975415319688 -1.8781150954381043 64 42 18
0.3462368548788571 -0.1324608427377688 -1.8826663672037354 65 43 19
0.3472624365016995 -0.13263584503758047 -1.887621893112488 65 43 19
0.34295802175982887 -0.13291887661443122 -1.8963092651796565 63 41 17
0.34470397026928395 -0.1330798961537267 -1.9007783210472378 62 40 17
0.345587796745346 -0.1332585220107024 -1.905854844461256 62 40 17
0.34812356512988757 -0.1334035012001951 -1.9097699691324084 62 40 19
0.34943318353161973 -0.13357357245411078 -1.9145505559417433 61 39 18
0.3509904664058585 -0.1337386327440021 -1.9191579915059296 62 40 19
0.3498344354986731 -0.13395986244443697 -1.9256992426366586 63 41 20
0.3404504009622837 -0.13435230815802138 -1.9381303425789065 62 41 20
0.33782087803912214 -0.13460573927956437 -1.9457709781907893 61 40 19
0.35474323795108675 -0.13445119961486143 -1.9393834316603504 59 39 18
0.3613568104851429 -0.13451067600113104 -1.9403607645487029 59 38 17
0.36784049431250304 -0.13457219900772815 -1.9414120594356388 59 38 17
0.37030006819561817 -0.1347180475908019 -1.9453609741986686 56 36 16
0.3737403936630357 -0.1348430322936417 -1.9485946389081492 53 35 15
0.37346049566643574 -0.13504692185366782 -1.9545345550224846 52 34 14
0.37253247060035694 -0.13526497360965178 -1.9609579903709442 52 34 15
0.37596761375193233 -0.1353900026154452 -1.9641935235952863 50 32 12
0.38041466753796976 -0.13549306214572188 -1.966678253149624 50 32 12
0.3832205693826637 -0.13563114259982167 -1.9703629874281248 59 41 21
0.3840204430309885 -0.13581250626501856 -1.9755283194190054 58 40 21
0.38442335835908176 -0.13600266028291436 -1.980993166424062 55 37 18
0.38488188826284486 -0.13619183237808957 -1.9864232843990206 53 35 16
0.38355336984710886 -0.13642030044077885 -1.9931937506964656 51 33 14
0.3869363785253135 -0.13654588817814267 -1.9964513570213474 51 32 15
0.3869735538699137 -0.1367449188187538 -2.002214696752405 52 33 16
0.38859885996873406 -0.13690915410808502 -2.0067905505812167 50 31 14
0.38948034551598604 -0.13708992485839264 -2.0119294930915648 51 32 13
0.393801575261969 -0.13719435322013213 -2.0144680849975596 63 43 19
0.3950635572975263 -0.13736669445197242 -2.019319826109867 109 86 49
0.39440816127548733 -0.13758207297691732 -2.0256350366777793 97 72 31
0.39533904968545047 -0.13776220526614416 -2.0307499038720844 154 126 79
0.3909501569502774 -0.13806241862234941 -2.0399447029172935 137 111 69
0.39929503582866727 -0.13807556292960346 -2.0393840833181196 87 64 27
0.4007052074573928 -0.13824512208580922 -2.0441384855080647 75 52 19
0.38725029993734644 -0.13875326698551008 -2.060381629668683 72 49 19
0.407215536585707 -0.13850017775138893 -2.05079498700668 78 55 24
0.41447089008158167 -0.13853570420768027 -2.051005886520372 78 55 24
0.4132858923774459 -0.13876455431099108 -2.057771230810347 73 50 19
0.41417633250205066 -0.1389459877563831 -2.062928366672705 74 51 20
0.42262494319527993 -0.13895257907740993 -2.0621661502268753 75 51 20
0.4228153403387091 -0.13915001865648097 -2.067866096624381 75 51 17
0.4246669598685973 -0.13930900782749073 -2.072264393824802 108 85 43
0.42417829208555974 -0.13952273905686005 -2.0785130576286774 114 89 45
0.426352801538277 -0.13967436122459337 -2.0826614426272183 170 140 95
0.42250158916867053 -0.1399677913219186 -2.0915990114011422 151 123 80
0.42549363783874805 -0.14010050092097623 -2.095107106241441 97 73 39
0.42933889548720683 -0.140212832263476 -2.097928413575804 77 57 23
0.4277982602892301 -0.14045290385246545 -2.1050590604947756 74 52 20
0.4314110533800872 -0.14057060834745327 -2.108062299674284 75 52 21
0.43384944268689796 -0.14071615473791468 -2.1120048476280884 77 54 23
0.43528122687490334 -0.14088578908548258 -2.116758990269987 78 55 24
0.43771832895117835 -0.1410312918958815 -2.1207004205881574 75 52 23
0.44015182463568514 -0.14117680530058702 -2.1246425648031604 73 50 22
0.4441393817802837 -0.14128457116207238 -2.127315518031967 67 44 17
0.4453105898957661 -0.1414605078173277 -2.132281689392965 63 42 15
0.44680864206980825 -0.14162859195508162 -2.136983433133738 67 46 17
0.449021350429419 -0.14177925445531192 -2.141099698951871 69 48 19
0.44968237165770875 -0.14196797693842156 -2.1464939417852307 69 48 19
0.4545500776578857 -0.14205327442367166 -2.1484165002554283 67 46 17
0.4570307202506485 -0.14219710204720393 -2.152304474315281 67 46 16
0.45960950131015554 -0.14233841179137072 -2.1561084124184786 72 51 21
0.4622242866506696 -0.14247872549841742 -2.159879425028325 74 53 22
0.4655463691973485 -0.14260128491223142 -2.1630561502601258 74 53 21
0.4712740600217867 -0.14266341135532717 -2.16421022705467 77 54 22
0.4726625251350252 -0.14283389373187114 -2.168993831488794 80 57 25
0.4791013294447443 -0.14287724611684816 -2.1695236394602024 81 59 25
0.47980880406460985 -0.1430647096986361 -2.1748761605610896 89 65 29
0.481933209752688 -0.14321645097248897 -2.179033650024318 92 68 30
0.48457787550163 -0.14335493211881237 -2.1827481871885914 90 66 28
0.48814645536988405 -0.1434697304889798 -2.1856722007187286 89 65 27
0.49028972197997905 -0.1436207412887638 -2.1898063944186874 94 70 32
0.49756598576924127 -0.1436399488168952 -2.1895420428322323 97 73 34
0.49684067944124527 -0.14386434975284532 -2.196126593601866 100 77 36
0.49842854377421925 -0.14402942476681654 -2.2007310054672597 101 78 37
0.5001640685010194 -0.14419072933543342 -2.2052094970198572 102 79 38
0.5028742135437754 -0.14432673142882962 -2.2088448081392724 106 83 42
0.5057790637889874 -0.14445753061104152 -2.2123073809129696 100 76 37
0.5097783645995821 -0.1445595447887646 -2.2148123361639405 98 75 33
0.51364231391678 -0.14466477408074924 -2.217425730515388 98 75 33
0.5178265444763746 -0.14476125876829735 -2.219749586697536 94 70 29
0.5161261596096389 -0.14501273597644956 -2.22722877090393 95 72 30
0.5202573434541047 -0.14511036969374075 -2.2295919088430547 101 80 37
0.5227864352819596 -0.14525020229893526 -2.2333586484569046 101 78 37
0.5266726955316674 -0.14535377249668902 -2.2359214481273915 98 75 37
0.5294435945051337 -0.14548683349853583 -2.2394646773331357 98 76 36
0.5336210288971142 -0.1455820450973097 -2.2417524085767044 93 74 34
0.5366465919130896 -0.14570786365370553 -2.2450570326661223 84 70 32
0.5385733508774131 -0.14586314180211266 -2.249339313742592 77 62 30
0.5410685873131017 -0.14600303736247242 -2.2531116974377086 66 55 29
0.5439500989585169 -0.14613235442282285 -2.256533954298397 70 61 39
0.5451832143486677 -0.14630638875403498 -2.261438015149769 103 96 84
0.5451715057159 -0.1465145300205643 -2.2674708790744362 143 139 135
0.5451253736715265 -0.14672393581440057 -2.273544270470964 173 172 173
0.543927359657042 -0.14696531586821263 -2.2806741777622275 188 189 192
0.5369692323352087 -0.14736594706080677 -2.2930687727916346 196 197 201
0.5368667627620507 -0.1475785700773951 -2.299241749581638 201 202 206
0.5317327548227311 -0.1479310278976059 -2.3100345632033306 204 205 208
0.5282990708313837 -0.14823738821976915 -2.319299717664305 206 206 208
0.5204375694757813 -0.14866814929047176 -2.3326693437810557 208 208 210
0.5118128737721562 -0.14912190931385993 -2.3467915442892044 209 209 211
0.5046829349832136 -0.1495355072878653 -2.359581277036225 210 210 212
0.5755534659363029 -0.1477553922384592 -2.300000868663849 210 210 212
0.5811653504571019 -0.14780579351727635 -2.3008282381535645 211 211 213
2.0648702702956387 -0.1132058146418316 -1.130785780647949 214 214 214
2.0679832536345955 -0.11318953274471463 -1.129962737284012 214 214 214
2.0708714066456673 -0.11318086009839279 -1.1293855623559934 214 214 214
-0.19583286494636237 -0.11170620467034595 -1.1962718630698337 190 191 193
-0.19585106141852626 -0.11189478426060198 -1.2016446570660877 190 191 193
-0.19869763702030663 -0.11211319675105764 -1.2080734300576415 191 192 194
-0.1997841979843064 -0.11231366559539437 -1.213862772494107 191 192 194
-0.41755325331410437 -0.11541432368673284 -1.3180594341885106 194 195 197
-0.3697678376629195 -0.11510072104137054 -1.305642681570311 194 195 197
-0.17585650737261516 -0.11395228781707356 -1.2587923679239108 196 197 199
-0.16504446918539573 -0.11402193860529618 -1.2599879564446057 197 198 200
-0.11190579560258085 -0.11361546342961842 -1.2445355202413062 198 199 201
-0.09752069242089295 -0.11364022399029317 -1.244191942692695 198 199 201
-0.08222987362807055 -0.11365324730153115 -1.2434480055030723 198 199 201
-0.06833766424515236 -0.11368064370178986 -1.243215444824463 198 199 201
-0.055209351447074506 -0.11371538457623814 -1.24324778039337 198 199 201
-0.027082115279937036 -0.11357599865559763 -1.23722671149605 198 199 201
-0.033023666341713054 -0.11382803931260602 -1.2448390053574057 198 199 201
-0.028348252727799284 -0.113957440847972 -1.248183959698631 198 199 201
-0.014975194873429132 -0.11398475920877009 -1.247987028760816 199 200 202
-0.0067226193427311065 -0.11407093191859947 -1.2498398413932406 199 200 202
-0.009445366852934123 -0.11428607821390767 -1.2561665520598089 199 200 202
-0.008015386294279225 -0.11445245515288074 -1.2608013396009659 199 200 203
-0.0056484764627184325 -0.11460771148672586 -1.2650510560229455 199 200 204
-0.004080394129607867 -0.1147725070223714 -1.2696307298183331 200 201 205
-0.002421343506132989 -0.11493625503244373 -1.27417393336337 200 201 205
-0.004493955062204846 -0.1151452700839329 -1.2802785997835833 200 201 205
0.07378610661846102 -0.11437603832930421 -1.2526603503468705 200 201 205
-0.18561463900347014 -0.1189091105490139 -1.4006931072927067 200 201 205
-0.20585384445251403 -0.11936269182329132 -1.4150885247874858 200 201 205
-0.17429678310442365 -0.11915978714278544 -1.4070081220091697 200 201 205
-0.140457895050914 -0.11892410392464313 -1.3978276876956548 200 201 205
-0.11538555867262995 -0.11879718122364205 -1.3923843590991205 200 201 204
-0.09488165512882546 -0.11872642261705371 -1.388873894069221 200 201 203
-0.07497831526437582 -0.11866119218389827 -1.3855646811015614 166 163 160
-0.05869259018967554 -0.11864091895182108 -1.3837997900993564 119 110 99
-0.04592971828217807 -0.11866502545999874 -1.3835558634712437 113 98 80
-0.027606769905621387 -0.11861465846651632 -1.3807852482488823 103 86 67
-0.012625069171704029 -0.11860644707744095 -1.3794590042125288 101 82 62
0.00024001127686412715 -0.11862474332450992 -1.379042126874699 101 83 60
0.009528390790676577 -0.11868941714875911 -1.3802070461117681 100 84 60
0.03129684607167854 -0.1185859070568674 -1.3756714920968873 97 81 57
0.040814663281774965 -0.11864491104976857 -1.3766581840126861 102 84 60
0.04685835595171339 -0.11874997770768053 -1.3792102235067505 104 86 61
0.06020482979652936 -0.11875529302395016 -1.3783885000973997 106 86 62
0.07145107209656815 -0.1187878661411571 -1.3784963160030703 107 91 65
0.07744183131834204 -0.11889136070059333 -1.3810074356326127 100 82 56
0.0845690016406237 -0.11897869609491968 -1.3829754219975168 103 83 55
0.09058516418191798 -0.11908076189617978 -1.385443992917348 111 91 59
0.09668939337362781 -0.11918109552038908 -1.3878568036625003 108 87 59
0.1078699025720487 -0.11921001900611423 -1.3878654568798063 99 78 54
0.10748132390630655 -0.11940007276157358 -1.3933072462016067 114 94 69
0.11787015480660462 -0.11943856001959884 -1.393646035388415 122 100 76
0.12071750550921784 -0.11958272368516873 -1.3975447601210853 129 108 80
0.12794410583243043 -0.1196645157537014 -1.3993476017040716 145 123 92
0.13381990338155697 -0.11976493009332663 -1.4017793670402714 170 145 109
0.13599891081987908 -0.1199178694049409 -1.405976786237634 193 166 123
0.14508488120933788 -0.11997127601052583 -1.4068355301802538 194 162 120
0.14908757145774548 -0.12009732892633544 -1.4101341529418503 180 147 103
0.15463268495727167 -0.12020070340695584 -1.4126743453833017 167 135 90
0.16138842203383502 -0.12028594809795963 -1.4146098626324128 164 135 93
0.1644056524745564 -0.12042538504158602 -1.418361565918882 159 130 89
0.16695828373348293 -0.120571523470172 -1.4223380281600282 128 96 56
0.16932387170428898 -0.12072034765736431 -1.4264046288497594 129 100 62
0.17062870489167314 -0.12088486897060975 -1.430995685880048 107 82 42
0.1698576084944774 -0.12108043227639953 -1.4366222985456691 107 86 49
0.17701735950929542 -0.12115754293627945 -1.4382966698696495 109 87 53
0.1718053014097819 -0.12142009547932164 -1.4461551932993955 99 75 41
0.16874436884519606 -0.12165106587637611 -1.4529572927399979 104 79 45
0.17566880729459688 -0.12173118163725408 -1.4547344180346187 99 73 38
0.18065344363542518 -0.12184020962763892 -1.4574765097900253 89 66 31
0.1878407205352186 -0.12191514174379928 -1.4590868208858498 85 63 25
0.19441221477089776 -0.1219988562043475 -1.4609921849193663 86 63 29
0.19765305906916947 -0.1221333608237413 -1.464587092535317 85 62 31
0.2117464319857456 -0.12209953988057977 -1.462596160696201 75 52 21
0.20376742764102124 -0.12240757148784134 -1.471951846431431 77 54 23
0.20352235188314477 -0.12259605008286925 -1.477338306019197 94 71 40
0.20193269263564861 -0.12280590490158554 -1.4834316789891075 98 73 47
0.20512000135838282 -0.12294095868442842 -1.487046132287553 71 50 23
0.20883174573541075 -0.12306755106815799 -1.4903813347290251 73 53 28
0.21240527895804284 -0.12319610496420905 -1.4937824858478768 65 43 19
0.21536942385547453 -0.12333416223397754 -1.4974987613477728 67 44 20
0.21838588748852023 -0.12347124455481916 -1.501183451890707 72 51 27
0.21549548555309955 -0.12370317019796295 -1.5080003265860444 68 49 24
0.21865916710632444 -0.12383797427575272 -1.51160939004501 60 40 19
0.23570733724436232 -0.12374751749467887 -1.5077898116859667 52 36 16
0.24118284012097096 -0.12384344924647164 -1.5101230822536702 53 37 16
0.24476311331458 -0.12396988619885824 -1.5134634433009273 57 37 18
0.2310770551433572 -0.12437943791139029 -1.5261269247169311 58 37 17
0.23024920015627498 -0.12457920001349763 -1.5318772735513289 97 77 52
0.22938719928625168 -0.12477988964411477 -1.5376565316010644 75 54 30
0.22873798354321256 -0.12497741326863278 -1.5433300950185234 61 43 19
0.23256328355328099 -0.12510066739891718 -1.5465619316293524 60 42 18
0.23635302093092553 -0.12522426383605562 -1.5498061114054311 58 40 16
0.23949936277931738 -0.1253584251968243 -1.5533981321080972 63 44 20
0.25135978068358233 -0.12534538244762636 -1.552161852811774 69 47 21
0.2468148677103229 -0.1256089294200126 -1.560000058212129 74 50 21
0.25119601406132225 -0.12572152976408532 -1.5628879061751548 81 59 28
0.24843051412506917 -0.12595582345508238 -1.569763125012018 77 59 31
0.24720720673735685 -0.12616430855361452 -1.575790771511043 54 36 14
0.2515303228909879 -0.12627777066330928 -1.578707396974656 50 32 14
0.2562122661100527 -0.12638471097886822 -1.5814120938675105 59 42 22
0.25887632308306424 -0.12652627469914837 -1.5852501266169718 78 62 36
0.26354288945419996 -0.12663287408652016 -1.5879462337359003 89 70 44
0.2685966483858216 -0.12673233528462535 -1.5904107867982966 116 93 62
0.2730275492220252 -0.12684230021286913 -1.5932199403284955 135 111 75
0.2806631613298559 -0.1268954818157244 -1.5941780244896464 116 95 66
0.28830753403328147 -0.12694773316342167 -1.5951089726732475 86 67 43
0.2955349885535473 -0.12700660574014092 -1.5962589172780086 138 116 84
0.303642154484194 -0.12704908248403202 -1.5968777040170916 150 124 85
0.3099921691951943 -0.12712213926017848 -1.598495645090186 134 108 72
