ply
format ascii 1.0
element vertex 693
property float x
property float y
property float z
property uchar diffuse_red
property uchar diffuse_green
property uchar diffuse_blue
end_header
0.41429507149737793 0.3740539608103829 -2.248667262221014 90 83 60
0.41466768944147225 0.374179182305035 -2.2542792637571565 107 102 90
0.4070467311859547 0.3718431819340057 -2.267610169770717 134 132 127
0.40073882127105287 0.3699115549916212 -2.2797220276315557 161 161 158
0.40188522158626816 0.3702751322843093 -2.284648434595308 180 181 181
0.4090832412967692 0.37250193821509114 -2.2836942912464187 188 189 190
0.41411936053718756 0.3740630829365703 -2.2848208633029676 195 196 198
0.41266667431047277 0.3736264353954454 -2.2922763039991985 199 200 201
0.43373545449464745 0.3801235914432069 -2.2776681421084515 201 203 202
-0.176567270186611 0.18465586339034806 -1.426451839957587 143 138 131
-0.15118583484387282 0.19254288108004908 -1.4196623189238804 121 110 96
-0.12619276152277725 0.20030921448991432 -1.4129720961098173 119 103 87
-0.10720624535904649 0.20621031356127817 -1.4090721819551202 122 106 87
-0.08241733125707773 0.21391308620902794 -1.4023217396547472 122 105 81
-0.07504168195161137 0.21620870169671116 -1.403886133998628 119 102 76
-0.06535216720738724 0.21922278042244472 -1.4043104145129637 114 96 72
-0.05338542178097805 0.22294393333093346 -1.4035994360851474 115 95 69
-0.043697227174775755 0.22595753806606525 -1.4039632490244285 119 99 71
-0.032674076050868694 0.22938562564027823 -1.4036446939760099 120 101 71
-0.024911773053039876 0.2318011696541869 -1.4048957455392725 118 98 69
-0.016896926874771068 0.23429510649189247 -1.4060007029407748 116 95 67
-0.00931746568600289 0.23665383245296742 -1.4072988928231285 115 94 66
-0.0027923274711605384 0.2386851706090293 -1.4091004934797344 110 89 60
0.0065095815933935985 0.24157866927971733 -1.4094991213952188 103 82 53
0.01058643070112436 0.24284978540893973 -1.4124882116760613 95 74 45
0.016169850685374465 0.24458867274166318 -1.414711815518627 110 89 60
0.019002449919289954 0.2454734413384531 -1.4183105204320368 111 90 60
0.02212822305517448 0.24644923385693576 -1.4217575296911895 109 88 57
0.024313517208904623 0.2471330155539877 -1.425678587885884 103 81 51
0.032280448984636445 0.2496119074304166 -1.426647525326264 109 87 57
0.03739659113198973 0.25120565421147456 -1.4290544825379348 107 84 53
0.04823603123504311 0.2545763630732317 -1.428506181480573 115 92 61
0.054303223159021086 0.2564653543588925 -1.430387544079204 116 93 62
0.057463108960131515 0.25745167800073654 -1.43375958896357 111 88 57
0.05965299285058151 0.25813683570628954 -1.437631537802343 111 88 57
0.06312085618893948 0.2592187705140131 -1.4408356889154286 107 84 52
0.07195173719480363 0.2619657600293276 -1.4412248170632151 108 85 51
0.07361765874294812 0.2624882252997792 -1.4453546410725615 110 87 51
0.07489276164678027 0.26288935558960563 -1.4496918764691782 99 76 44
0.0778229565201462 0.26380433651744173 -1.4531552712467717 90 66 38
0.07355811461033585 0.2624855224027114 -1.460439337036852 112 89 57
0.07347936044352033 0.2624663495493945 -1.4655143977630316 111 88 56
0.07536092736936917 0.2630557838515095 -1.4695478801107957 112 90 54
0.08842896046948284 0.2671181319981526 -1.4675709526447211 113 90 57
0.08860979654388973 0.26717954451995485 -1.472500657168099 94 72 40
0.0888816071097327 0.2672692076111418 -1.477388086464512 93 72 39
0.0864386767222976 0.2665160847001591 -1.4837566636194852 113 93 60
0.08726601612616869 0.26677823036578785 -1.4883598229120547 115 94 61
0.09855955444544356 0.27028957563531086 -1.4872418916449095 106 83 52
0.09833356198146492 0.2702247082465455 -1.492411881621675 105 82 51
0.10053971585634536 0.2709148912408109 -1.4962504465690527 104 81 49
0.10103622982439803 0.27107433207043985 -1.5010334075418688 111 88 54
0.10420668817219009 0.2720638737066295 -1.5043384240857192 112 90 53
0.11028976440959426 0.273957592528413 -1.5060168284810866 113 91 54
0.10205210151501548 0.2714056476954405 -1.5156818514668688 108 86 49
0.11097344099739209 0.2741804501646772 -1.5157644024618284 104 82 45
0.11435743380787461 0.2752362652084199 -1.518935798792949 108 85 48
0.10754069418440737 0.2731254819380232 -1.5278625033155881 116 91 55
0.10948397248385944 0.2737340713983676 -1.531859439235396 105 80 44
0.11052383477952482 0.2740622191865343 -1.5363703071290193 96 72 36
0.11270401771225724 0.27474435116942775 -1.5402341208376953 95 73 39
0.1162679994430949 0.2758560406137815 -1.5433046395092258 146 121 81
0.11836898413256158 0.2765135835065817 -1.5472096119964547 145 116 73
0.12162637996061793 0.2775300937543991 -1.550447207140186 137 108 66
0.12761867300706997 0.27939554721565435 -1.55209703468853 120 93 55
0.1265333722322715 0.2790640191468723 -1.5578406725487728 120 94 56
0.12551773317115938 0.2787541275823737 -1.5635559951227325 123 98 52
0.12424384656467286 0.278364086773094 -1.5694343416907979 122 98 52
0.12930217965624008 0.27993961183024874 -1.5716105482058744 113 87 45
0.12903727686256716 0.2798627765318615 -1.576908323783161 120 93 51
0.13057423820490915 0.28034525060145965 -1.5811507027008238 123 96 53
0.14414599599683164 0.28456331014468983 -1.578260952247832 127 100 56
0.14774570987886976 0.28568603348691923 -1.5812556308503802 136 108 64
0.14770123294169168 0.2856776137801505 -1.5864186627814065 146 116 75
0.14253882561628578 0.2840806370416331 -1.5946548021054632 123 98 65
0.1469730144556879 0.2854623787632705 -1.5971534392815303 140 114 72
0.15435316845455 0.2877585019868327 -1.5978658528768543 147 119 71
0.16170197976435752 0.2900448737584448 -1.5985751710342957 153 125 76
0.16462706891013867 0.2909581715110273 -1.6019477789656111 152 124 78
0.17200393143119858 0.29325321320710296 -1.602605055778471 139 110 69
0.1746977674472906 0.294094716965811 -1.606102009174781 140 114 73
0.17638183234669763 0.29462280765763793 -1.6102151185110705 140 115 78
0.19158360448992995 0.299346458343971 -1.6060129531911247 137 111 76
0.19663539282671016 0.30091977222913757 -1.608021664016822 131 105 70
0.20316518559347974 0.30295180198197824 -1.6091021851771479 129 103 68
0.21607907350370276 0.30696523417533417 -1.6061966101024325 128 105 68
0.22009403911479197 0.3082166925539884 -1.6087939660978752 132 110 73
0.22693283070362774 0.3103445563806926 -1.609616244609292 135 111 71
0.23167666904293865 0.31182220493845847 -1.6117330246304995 150 122 86
0.23591355510979056 0.31314250360788887 -1.6141573435159116 147 118 82
0.2388661802292023 0.31406421198401613 -1.617383441552609 155 126 86
0.2418162111833536 0.31498511076364355 -1.6206069082892256 107 83 52
0.24646318161372643 0.3164326557873799 -1.6227468952931745 107 88 62
0.24456327431042624 0.31584835828110097 -1.6290528217644993 123 101 69
0.24656890577229856 0.31647615718230626 -1.6328746089125818 99 77 45
0.2502303928432569 0.31761784503391777 -1.6356325773144893 91 70 40
0.2493758527346866 0.317358001137962 -1.6412932091287202 82 64 34
0.24581185556773133 0.3162573104664418 -1.648717129895757 89 72 40
0.23747757534611275 0.31367623416660195 -1.6592581196532423 112 95 62
0.2055988475900875 0.30379946118742274 -1.6956449925472892 82 67 44
0.19674447793699962 0.3010571828258738 -1.7067164528680427 94 75 51
0.18207272591357626 0.29650965058706763 -1.7216686212142864 90 69 45
0.18356730398642512 0.29697903680142684 -1.726000835355337 86 69 42
0.1834682970914352 0.29695389682029627 -1.7313924178913132 90 71 40
0.18346372142116824 0.2969580703195027 -1.7367300872268165 103 78 48
0.18133077087318317 0.2963017755111113 -1.7434974584120282 125 100 67
0.18158246173909087 0.29638549580920526 -1.7486851582095457 121 97 60
0.1818344482266538 0.2964693157106173 -1.753880162664927 115 92 58
0.18065473618016342 0.29610886848535867 -1.7600478736055418 115 95 59
0.17928541309188745 0.29568959724130744 -1.7663575250591448 121 99 56
0.18470164951879448 0.2973759595515385 -1.768077964288925 140 115 71
0.1873667975430675 0.2982086259264338 -1.771656135738626 157 125 83
0.18643034421912563 0.2979236973283216 -1.7776905862790688 133 104 67
0.18574041946236391 0.2977152803822123 -1.7835689226109483 111 88 55
0.19830564047139437 0.30161994263331604 -1.7803509750121487 109 86 55
0.19527539514263592 0.30068532475805015 -1.787837122131667 109 86 55
0.19185703938812393 0.2996303011055096 -1.795613553049167 111 88 57
0.19781927113773679 0.30148603089080983 -1.7969066775750284 111 90 59
0.19856382017849278 0.3017227452095792 -1.8018132377691243 120 97 60
0.1992903870853357 0.3019538856709505 -1.806737868974737 129 104 63
0.1995777840650006 0.3020487637788235 -1.811975630681186 145 119 79
0.20007432133868697 0.3022085426096352 -1.817074040421226 105 83 45
0.2018210869417123 0.3027562508778784 -1.8212981612687824 102 80 42
0.20331056404885983 0.3032241291492096 -1.8257053002964345 102 80 43
0.2047855045333738 0.30368749945518003 -1.830125044287719 102 79 44
0.20901378755445132 0.30500516381761206 -1.8325888601630655 105 82 48
0.20986219529232053 0.30527413711628093 -1.8374542548471717 104 81 47
0.2098937385216899 0.30528966750081166 -1.8429094060719895 102 79 45
0.21018498470901298 0.3053857844563635 -1.8481869065846115 100 77 42
0.211034132270714 0.30565500673371493 -1.853070306356826 96 72 37
0.21227976036327106 0.30604724757408575 -1.8576724968862663 89 68 37
0.21307252747893773 0.30629898719716453 -1.8626062514978912 90 69 39
0.21463441256402865 0.30678935757180714 -1.8669864635261266 87 66 34
0.2184116907183581 0.307967068357354 -1.869753568096379 87 66 35
0.21458675348580658 0.306786158245291 -1.8780722452487186 90 69 38
0.21535002001307035 0.3070287703162835 -1.8830515155987209 94 73 42
0.21611384162537095 0.3072715605292925 -1.8880360309031925 100 80 47
0.21647255472147342 0.30738867328429553 -1.893325199940734 105 83 50
0.2163404255563539 0.30735351310271875 -1.8989852492755657 105 82 48
0.2168415689540495 0.3075148305769926 -1.9041847985672784 90 67 33
0.21826064164878645 0.3079609328800896 -1.9087075480655447 99 76 42
0.2207309731843835 0.30873317720483273 -1.9124476571369413 106 83 49
0.2234511333024417 0.3095829248286812 -1.9159985346893755 107 84 50
0.22553594575120406 0.31023556396890095 -1.9200238100881781 104 81 47
0.2308122257087155 0.3118782905082147 -1.9216426812888416 102 81 46
0.23528478439038314 0.3132716652759513 -1.9238544878159272 101 80 45
0.23673336426172098 0.3137269150553159 -1.9283487696151784 104 81 47
0.2382456917671445 0.31420194352821074 -1.932797174986933 107 84 49
0.23895057215703996 0.314426488209134 -1.9378640667275668 109 87 50
0.2468086347275275 0.316870082146957 -1.937462086480015 106 84 46
0.24640143999697173 0.3167496396946896 -1.943378354881238 106 84 45
0.24472523477260588 0.31623554573275126 -1.9502829386807825 111 89 50
0.24377355695974878 0.3159462255659519 -1.9566450464410197 109 87 49
0.24717862567447435 0.3170084170459372 -1.9596461126442422 109 87 50
0.24921259929860307 0.31764528061725084 -1.9637060346757709 112 90 53
0.25136077535725365 0.31831757008397515 -1.9676769189540209 109 87 50
0.2536001176261272 0.31901813875989826 -1.9715759732615274 115 92 58
0.2583052130796324 0.3204835784818819 -1.9735410916022091 109 86 52
0.26002141772165577 0.32102186397190585 -1.9778436996490798 107 84 50
0.2623499416755264 0.3217500882839328 -1.9816648717508796 106 83 50
0.26246467410326935 0.3217916133135965 -1.9872355503931052 106 83 50
0.2659516812545307 0.32287918804424753 -1.9901400512331182 110 87 53
0.2710850440442077 0.32447743184347744 -1.9917278041226094 106 82 46
0.2710296584193651 0.3244661965798159 -1.9974413903444743 105 81 44
0.2696420323444412 0.324041735970493 -2.0042309888207437 105 81 43
0.2636844890185469 0.32219980230075607 -2.0147049113510644 106 82 44
0.258213406271917 0.32050879660789566 -2.0248249599887145 101 78 40
0.270963154990954 0.32446944735841987 -2.020268616516834 95 75 39
0.27698119184574554 0.32634206288106843 -2.021112751485065 103 80 45
0.27691715851312715 0.3263281917742807 -2.026877617700465 106 81 41
0.278171381742659 0.32672320950011047 -2.031578638589811 117 90 43
0.27655107183251093 0.32622665574828824 -2.0386316645671556 172 142 87
0.277141116413684 0.326415686081032 -2.043891111295644 160 131 76
0.27692509041697166 0.3263547139888966 -2.049819817372782 136 108 65
0.2773166384347695 0.3264821959213434 -2.0552585854208454 113 89 46
0.27750344855381137 0.32654618594891505 -2.0608744584978433 111 87 43
0.2773298139270264 0.32649839301343153 -2.0667980034313578 108 84 39
0.278730397337565 0.32693885250421784 -2.0714234951648187 111 86 45
0.29399500244072685 0.3316791847653956 -2.0644929572170216 108 83 43
0.2959305855136093 0.33228554217372636 -2.068643747098474 103 78 37
0.30354001856549195 0.3346515925917445 -2.068036961289407 104 79 39
0.2984645564828282 0.33308354297189213 -2.0780712637338414 104 81 38
0.29667771832218104 0.3325354493325433 -2.0853662947960534 101 78 35
0.2954128458547395 0.33214925405398465 -2.09223838260734 104 81 40
0.29808968028916594 0.332985519678747 -2.095782736115784 105 81 43
0.29947490762505957 0.3334212184005083 -2.1004227997704685 129 104 62
0.30452622877311064 0.33499386964413946 -2.10193811125639 172 144 93
0.31098718225957733 0.33700366470288845 -2.1022324783002215 195 166 109
0.3174466734754836 0.3390129834830006 -2.1025063562664603 190 158 106
0.3118126600270875 0.33727186857397784 -2.1131657462098894 127 100 54
0.30781371635108157 0.3360563010581844 -2.1400460119055484 113 89 44
0.3251048927935246 0.3414245487279136 -2.130836997946144 107 82 41
0.33275007333915585 0.34380147222556445 -2.1299964438219026 107 82 42
0.3341154407203156 0.3442309988100998 -2.1346409975573115 105 80 40
0.3414151083286996 0.34650073749589827 -2.134064299574402 108 83 43
0.34031256091139495 0.34616496893869014 -2.1408795143094146 108 83 43
0.33896485561309553 0.34575319532680776 -2.147927414781795 111 86 45
0.34009411817806623 0.3461095202216846 -2.1527929041844214 113 88 47
0.3402801660491698 0.34617337170016793 -2.1585027438460425 109 84 43
0.3413397136596671 0.34650809104961555 -2.1634418676995226 108 83 42
0.346613478208472 0.3481495650134831 -2.1646122637527117 109 84 43
0.3463133295984575 0.34806267080124975 -2.1707714898730144 108 83 42
0.3413243109837282 0.34652188325925676 -2.181164796991013 112 87 46
0.34746541202533987 0.34843228547371835 -2.181542802012831 111 86 45
0.3549472501263786 0.3507583889840584 -2.18068584031864 112 87 46
0.3630493304383734 0.3532767806650199 -2.1792379236894877 117 92 51
0.3703436755526508 0.35554468927769534 -2.1784946372280567 109 84 44
0.37205158792763715 0.3560804258663891 -2.182826010162859 108 84 43
0.3759796276092419 0.3573045365867404 -2.1851258530388202 104 81 40
0.3826237970461998 0.35937079271731115 -2.1849216369452424 108 86 44
0.38463906274357945 0.3600018113247905 -2.188956358992019 104 81 40
0.3853829472843798 0.36023863582561466 -2.194165113238062 104 81 40
0.38195318551963886 0.3591814316569467 -2.2032452763440085 105 84 43
0.38105737681704155 0.3589099000474564 -2.210000455333375 102 83 42
0.38654878736276105 0.36061870157194276 -2.2108230074420936 103 84 44
0.38995262098089195 0.3616802497576892 -2.213576910323839 102 82 42
0.39027651965960536 0.3617868925604911 -2.2192075447166624 96 77 35
0.3917710808588231 0.36225649161489076 -2.223747756021377 97 79 37
0.4018327185120586 0.3653821688008309 -2.220224314201696 92 77 34
0.41169070197330915 0.3684446631095804 -2.2168512473076962 88 76 32
0.40994296942134445 0.36790902449045415 -2.2244251393517622 80 68 24
0.4114024238983535 0.36836771349936714 -2.228973791955476 89 77 34
0.41236097630867563 0.3686711148891134 -2.234002163706715 90 78 37
0.41381253119094025 0.36912736225668596 -2.238565400198262 92 81 40
0.4157223731769729 0.3697256892087851 -2.242692861096579 90 81 44
0.41985741656202347 0.371013859510835 -2.244684905511415 87 80 54
0.4181644160815274 0.3704952610056349 -2.2522753347493922 99 94 80
0.4149899769788561 0.3695174249934806 -2.2613151323590825 123 121 114
0.40590401880423477 0.36670701525699756 -2.2761035750711978 153 153 149
0.4061768549919672 0.3667979174573994 -2.281868550682386 173 175 174
0.4121902684448834 0.3686684070830003 -2.282056589802565 185 186 188
0.42217668839922007 0.3717768052144238 -2.2843653618576596 198 199 200
-0.15360632883934588 0.18679736589079493 -1.41625311349266 125 113 100
-0.12868717253098155 0.19458098432853183 -1.4096383226929001 120 105 86
-0.1245346171481535 0.1958795175468946 -1.4128453505601324 116 99 77
-0.09535155521018912 0.20499463435571 -1.4040583789930539 124 106 83
-0.07709323880571317 0.2106981184145364 -1.4004227871464683 117 99 75
-0.0616163182603332 0.2155330046609363 -1.3980693535837039 112 94 70
-0.04543479687194729 0.22058790707649045 -1.3953247066554795 114 94 71
-0.03840433474793531 0.2227851001231982 -1.3969775682209815 114 94 70
-0.034388434185954275 0.22404090188986445 -1.4000833887431814 112 92 67
-0.027546744395755884 0.22617913462874625 -1.4017970832604967 114 94 68
-0.01540409369791812 0.22997273452094222 -1.4008852679541328 111 91 62
-0.008207444759134153 0.23222179735615858 -1.4023777395239563 116 95 66
-0.00032643812144050877 0.23468456255559525 -1.4035115921742105 120 99 70
0.009604091706941376 0.23778733728623486 -1.4036037331665734 113 92 65
0.014692417802976365 0.2393780007311498 -1.4060842695920488 106 85 55
0.018263876429434667 0.24049498078356157 -1.4093135591677484 107 86 55
0.021686752612450733 0.24156556036965843 -1.4126116812530913 107 86 55
0.024790637548185224 0.2425365256181102 -1.4160655303410574 114 92 62
0.030170255571859927 0.2442181391065682 -1.4183615154025966 109 85 56
0.033722760739062996 0.2453291916772579 -1.42157439353152 106 83 54
0.042757597909034606 0.24815221863388578 -1.4219813156305108 110 86 57
0.044518006926246245 0.2487036441365372 -1.426090633138764 111 88 58
0.05806918953766488 0.25293697803403914 -1.424133963558555 111 88 57
0.05915172764848703 0.2532767180016517 -1.4285726238855267 114 91 60
0.06611101700488448 0.2554515862442541 -1.4299684516554083 113 89 59
0.06888383765212325 0.2563191464300062 -1.4335233276242176 114 90 61
0.0720152052684967 0.25729866821036296 -1.436887924188934 113 90 59
0.07594606679376376 0.2585278440743143 -1.4398290715542004 110 87 55
0.07673898257633321 0.25877714243514255 -1.4444133281912677 108 85 52
0.07784056187525928 0.2591228273730553 -1.4488391658337685 108 85 51
0.0815402699025169 0.2602798183053334 -1.4518916923492589 100 77 43
0.0845102197323433 0.2612089294600327 -1.4553256465589413 105 82 48
0.08686264933593668 0.26194521011859717 -1.4590853380782862 107 84 50
0.08857463426858858 0.26248150303635026 -1.4631866225629742 109 86 52
0.10007564089915899 0.2660745401661182 -1.4620262982934058 106 83 49
0.10492380520315292 0.2675901362995521 -1.4644184918170975 109 87 52
0.10289803670797576 0.26695926661433467 -1.4705216319750216 90 67 34
0.10317413232290695 0.26704718336377475 -1.4753893869756483 99 76 44
0.1035176408758407 0.2671561527002859 -1.4802269645368125 124 101 67
0.10348077611789325 0.2671463491444231 -1.4852790751861566 111 91 54
0.10417962980045531 0.26736628257207684 -1.4899349032283487 105 83 48
0.10355427819532681 0.2671727242397597 -1.495325681019831 104 81 48
0.10658532720947933 0.2681209065979173 -1.498703872571904 106 83 50
0.1092370958751141 0.2689506547971996 -1.5022884738097309 124 101 67
0.11279495542035067 0.27006333423404416 -1.5053655742003256 101 78 43
0.10917883749453988 0.26893590016844615 -1.512447515220985 112 90 53
0.1158462034962387 0.2710195374701001 -1.5137815389875169 110 88 51
0.11768807374006512 0.27159638906393546 -1.5178140896713306 111 89 50
0.11186622396865592 0.26978022024668113 -1.526177517752275 110 87 47
0.11333145873880962 0.2702394719920218 -1.5304398513587425 112 89 48
0.11469501860863757 0.2706669762579655 -1.534762072142727 98 75 36
0.11769307311282984 0.2716048541178048 -1.538153429101761 91 67 31
0.12113134426081196 0.27268018843645037 -1.5412884780956189 136 113 70
0.1313009147411221 0.2758573673607402 -1.5405472473402735 154 126 82
0.13279585459357202 0.27632588974375977 -1.544778454869319 152 124 78
0.13399130416368182 0.27670089741004555 -1.5491849648121967 132 104 64
0.13000781227890434 0.275458793469742 -1.5566035286704367 119 90 55
0.1339349756735974 0.2766867763263521 -1.5594340511729627 123 94 54
0.13193698503046086 0.27606464876145476 -1.5657230289532833 128 99 59
0.13063158641546896 0.27565878548918765 -1.5716214312908372 127 99 59
0.12837213814310428 0.27495502948648864 -1.5780950523017534 124 96 53
0.13137599064919225 0.27589471497601836 -1.5814748401680514 128 99 57
0.1284469410743962 0.27498188826515396 -1.5883692356439225 128 99 59
0.14419656714311668 0.27990135268392036 -1.5841675624001075 140 111 69
0.1425752190465761 0.2793968462700104 -1.5902830124105074 147 118 71
0.14414044933657744 0.2798873269905806 -1.5945037553630292 139 110 69
0.14472990641332922 0.2800731320153861 -1.5993128258129947 130 104 62
0.14973863850441949 0.2816388141277111 -1.6014616192010362 154 129 81
0.15734603434133243 0.2840158974393462 -1.6020250800356293 158 132 81
0.16500555943035344 0.2864092497073202 -1.602533846323768 157 129 80
0.17397180932189366 0.2892106033150828 -1.6022230068636603 143 113 70
0.17524430010654657 0.28960966793313614 -1.6065877266806834 144 117 75
0.18411812481680445 0.2923821488573075 -1.606291894862231 143 117 79
0.1935790929338097 0.2953379474296739 -1.6056061952294525 132 106 70
0.19839412285610736 0.2968431096349045 -1.607758962843977 135 110 75
0.2046116912289181 0.29878618884629266 -1.609030780240936 131 107 71
0.21746487947398985 0.3028011274651653 -1.6061592578495896 130 106 70
0.22247433691394175 0.30436697768919807 -1.608135626102237 135 111 75
0.22981861870280373 0.30666183158878846 -1.608637895193502 136 114 74
0.2350738382263563 0.30830440623629857 -1.6104295582037915 151 123 83
0.2398350765751473 0.3097927399166309 -1.612518618600246 134 105 68
0.24321468860073747 0.3108496839000291 -1.6154692462785876 168 141 98
0.24593246807089253 0.3116999820732386 -1.6188335550238262 108 84 48
0.24649212845827118 0.3118764518767134 -1.623567793241865 124 106 75
0.24397974173538428 0.311093743775506 -1.6302689732537816 131 107 76
0.24616372553286098 0.31177737812348133 -1.6339807069705747 97 70 43
0.25397270665021254 0.314217287072141 -1.6340766948011551 113 88 57
0.25799331391093305 0.31547435844586147 -1.6365903489833646 99 79 43
0.2615744770810124 0.31659422122187864 -1.6393794064303537 102 83 47
0.24064512714886138 0.3100630456304286 -1.6632254649329576 106 86 58
0.2085485813141843 0.30004707364071437 -1.6998504500642655 97 80 54
0.1851077205327255 0.2927301282256718 -1.7205701829737563 103 86 60
0.18917316825043962 0.29400124858012056 -1.7231981835969072 101 83 56
0.18922091819322057 0.2940179618719238 -1.7284842869892574 96 77 45
0.189733509282908 0.29417981016873146 -1.733469136373607 93 73 41
0.18775680695047053 0.29356445799333675 -1.7401233701886172 105 84 50
0.1870695145594729 0.2933516878617831 -1.745930431950287 120 98 62
0.1870443702954202 0.29334565534963875 -1.7513038078300234 114 91 56
0.18571436117347034 0.29293222613615133 -1.7575660549910745 117 93 58
0.18118467337485938 0.29151981333149435 -1.7660078185109485 125 103 60
0.19008335461385883 0.29429994178595364 -1.7653620514590975 147 126 77
0.19244923046473067 0.29504042827227794 -1.7691353446018052 150 120 80
0.1937480508015325 0.29544776557343355 -1.7736360385958234 162 134 97
0.1954294388889421 0.2959745462687915 -1.7778775913488931 106 82 46
0.20580653314187075 0.2992162275090308 -1.7761421448091501 113 90 57
0.2038987331636063 0.29862241933862727 -1.7828429777839232 107 84 52
0.2017183407291524 0.29794351082717774 -1.7897494229634057 105 82 50
0.2050630544983718 0.2989895983277005 -1.792839415872054 105 82 50
0.20662662583495484 0.2994795958346955 -1.7971636317613355 111 90 55
0.2056987762690733 0.29919175279076715 -1.8032298372570574 121 99 60
0.20476824314478526 0.29890307628226714 -1.809310773714426 146 122 79
0.2056247287927112 0.2991723228022012 -1.8141486553582378 122 99 57
0.2060755124896781 0.2993149086068857 -1.8192776235488957 105 82 49
0.20648513496628174 0.2994446460060037 -1.8244425620380391 105 83 49
0.20849251741175756 0.30007321306195534 -1.8284810581391548 103 81 46
0.21169933289744303 0.301076247169357 -1.8316659944702505 103 80 46
0.2116595628448804 0.30106568694019475 -1.8371632271272405 103 80 46
0.21161366153932337 0.3010532156070673 -1.8426739391513633 102 79 45
0.2120472525082593 0.3011904454006926 -1.8478493704203578 102 79 45
0.2127574906692143 0.30141404693311863 -1.8528324961884781 101 78 44
0.21346834437454998 0.3016378426099433 -1.8578209865156468 95 72 38
0.21505353343363842 0.30213460675425075 -1.8621814142412083 93 72 38
0.2166339572946343 0.30262988386557554 -1.8665472306711566 88 68 33
0.2173313130303201 0.3028494701274138 -1.8715591654313792 86 66 31
0.21718466763972494 0.30280556414242454 -1.8771945834517911 88 68 34
0.21794872878789884 0.30304598022029117 -1.882171307372204 86 63 31
0.21871372026254332 0.30328668865904074 -1.8871529963842015 110 87 54
0.21977558922606089 0.30362008247128597 -1.89192111101877 109 86 52
0.22007032288652284 0.30371398309175185 -1.8972617948594093 108 85 51
0.22198054248847487 0.3043122293486122 -1.901410005778624 103 80 46
0.22421931801683093 0.30501304830129916 -1.9053138694065632 106 83 49
0.2262726320281495 0.3056559674676607 -1.9093553904340346 111 88 54
0.22845624215507487 0.3063395637871996 -1.9132990766975784 107 84 50
0.22848812282715025 0.30635141217925876 -1.9188602980366916 104 81 47
0.23148980016265674 0.30729040115420625 -1.9221903099073154 102 79 45
0.23465887463137702 0.30828164800693353 -1.925389194157397 103 80 47
0.23552223006217243 0.3085530768110651 -1.9303327219287063 104 81 47
0.2361219270676287 0.30874219680494 -1.9354822695745095 105 82 47
0.2402013535216524 0.31001764104118124 -1.9379815015261617 107 85 48
0.24293495311592017 0.3108729351229639 -1.9415019461185372 108 86 49
0.24503406146714268 0.31153014994659056 -1.9455064865115546 106 84 47
0.24542680304441078 0.311654665225833 -1.9508253208129016 110 88 51
0.24646935091574418 0.3119820413072587 -1.955649553349113 117 95 58
0.2495480897543717 0.31294508080331906 -1.9589001499071264 112 90 53
0.25979925956606265 0.3161472157947039 -1.9565701160586664 115 93 56
0.25901263355659315 0.31590355563510564 -1.9628081092994953 109 87 50
0.2555479421944833 0.31482386283240665 -1.971153496221205 109 85 51
0.261377471243183 0.3166456363284146 -1.9722343689704518 111 87 53
0.26753946228743064 0.3185711910805797 -1.9730359170330698 106 82 48
0.2695644209801842 0.3192052524499417 -1.9770823817242584 105 82 48
0.2706348511326428 0.31954133260390316 -1.9818842090434448 105 82 48
0.2718911301520913 0.3199354317324473 -1.9865429655833293 106 83 49
0.2730710691332021 0.3203057006461112 -1.991266075938015 105 82 48
0.27194847789180787 0.31995718101058535 -1.9978315639797637 104 82 45
0.2763897902707221 0.3213455675647183 -1.9999563157117344 103 81 42
0.26989872940763004 0.31932116592858806 -2.0108500796076423 105 83 44
0.2620226069488517 0.31686440118795633 -2.022899836071625 102 80 42
0.28005085927532003 0.3224942394861634 -2.0140684610323962 101 79 41
0.28700173673377843 0.3246660289402301 -2.0141368184555324 109 86 47
0.27125026736694524 0.3197508393065267 -2.03263082258895 105 82 41
0.2846411575889266 0.3239329989487397 -2.0274574826865552 105 80 34
0.28007588322501986 0.32250980955586395 -2.0369076731135696 163 134 79
0.2800001488431346 0.3224881155906234 -2.04270878792868 178 148 88
0.27991339610090904 0.3224629854904939 -2.0485290418408875 163 133 89
0.2732427895337065 0.32038260984188593 -2.0597885417357165 117 93 49
0.2790882745244504 0.3222093244095645 -2.0607389428259024 113 89 43
0.28436728512250364 0.3238592001814994 -2.0621408638855456 113 87 42
0.27371802733364536 0.32053686113903374 -2.076776726104549 113 87 43
0.2889613602267793 0.32529721982238535 -2.0698731341059755 105 80 39
0.2962910509777029 0.3275872267904471 -2.069526722690392 106 81 40
0.30302625643176206 0.3296916504397845 -2.069653462053286 108 83 41
0.3026738593092376 0.3295836052590415 -2.0757216670594687 105 81 39
0.3003342862787033 0.328855250197623 -2.0834785027320057 103 79 37
0.3011260361232073 0.32910436874591475 -2.0886063150185867 104 79 37
0.30332985078440733 0.3297942750111229 -2.0925415799405696 102 79 38
0.3060023511872739 0.330630484052976 -2.096077025393085 99 76 35
0.30726783662829493 0.33102748504690727 -2.100810520891656 153 127 79
0.3121161953317806 0.3325428967128966 -2.1024802283250135 181 151 94
0.3169046735111781 0.33403961176596003 -2.104187508133411 180 146 92
0.3142179532531336 0.3332029191363486 -2.1123179954324045 147 117 72
0.3015180414414149 0.32924059839931175 -2.129118631983912 111 84 44
0.3075419163701908 0.331124943128253 -2.1356470354859414 110 86 42
0.324080854271081 0.33628955681838013 -2.127122377644476 109 85 41
0.3276125972003564 0.33739397018297024 -2.129886953325059 110 86 43
0.33262410820379495 0.3389602870898505 -2.1313478639599217 105 80 39
0.34057922958571685 0.34144543742924793 -2.130208143520371 106 81 40
0.3488683093804636 0.3440348214824241 -2.1287446356545194 108 83 42
0.34331312518872914 0.3423027760551795 -2.1394802061111022 104 79 38
0.3444602436647839 0.34266282857862407 -2.1443158981048436 104 79 39
0.34457183634203203 0.34269965007208336 -2.1500759788130392 110 85 45
0.3466545882917763 0.34335175745203017 -2.1540894488074205 109 84 44
0.34472549632220184 0.3427516010762002 -2.1616870857172668 110 85 45
0.3463002140042404 0.34324513345790647 -2.16616527026362 109 84 43
0.34848826102068664 0.34393011120633055 -2.170094652617217 110 85 44
0.3524094097788991 0.34515605749136147 -2.1724616147543694 114 89 48
0.3580146739291462 0.34690767732692795 -2.1732972397306316 109 84 43
0.3664266735728294 0.34953537804229395 -2.171571444462699 112 87 46
0.3710796459562904 0.35098973807032074 -2.173228842940491 114 89 48
0.3776394617647596 0.35303928734564805 -2.1731352691947357 114 89 48
0.38060550558045125 0.353967087513703 -2.1763023573254463 113 88 47
0.3743124235385088 0.3520047988391516 -2.1879488991783234 111 86 45
0.38523566479634214 0.3554163079925171 -2.1838181853183647 110 85 45
0.3867775783415895 0.355899587431463 -2.1882861830700358 110 88 47
0.3886110791815775 0.3564738812074534 -2.1924871514422626 110 88 47
0.38659124052039084 0.35584543078868386 -2.2002595079996077 111 89 48
0.3855286194847069 0.3555157633330986 -2.207163231431518 112 89 48
0.38711301068073006 0.35601230969151276 -2.2116164789144475 106 83 42
0.39437252635102826 0.3582802209022665 -2.2107694356640186 101 78 37
0.40150144692684286 0.36050736064106603 -2.2100175625659726 98 78 37
0.4027650249593726 0.36090376524980583 -2.2147498054606882 98 79 39
0.4038825384551272 0.36125458075671546 -2.2196235322971654 89 72 32
0.41339971562946753 0.3642271367039803 -2.2165663659118295 86 71 30
0.4164786907157819 0.3651901659441763 -2.2195692546477845 83 70 28
0.41418615317425755 0.3644766233628713 -2.2276692949267094 90 76 36
0.4148242216599675 0.36467779387044474 -2.233000166862304 85 72 32
0.41580707163987285 0.36498658025940445 -2.2380088747594558 93 80 35
0.4200618837839202 0.36631661271544214 -2.2398889255257846 104 91 49
0.42182400586534496 0.36686862540843923 -2.244151316873617 94 85 60
0.4213286841643922 0.3667160496314532 -2.250589182722045 93 88 75
0.4228602326154751 0.36719609924184937 -2.255082791866319 114 110 102
0.4121837885499312 0.3638658370661835 -2.2714013075372117 145 144 138
0.4173398372617805 0.3654771614897242 -2.272412727031494 168 168 168
0.42304968792241265 0.36726132983387483 -2.27286822072137 182 183 185
0.43202180147426295 0.3700636878796172 -2.2701188120874316 190 191 194
0.4359657850176465 0.37129669048577907 -2.272255094093331 196 197 199
-0.13098666537354753 0.1889070944390381 -1.4062059674148426 125 110 93
-0.10727841683044459 0.19634877129479236 -1.4052742632071353 121 104 78
-0.09312300878683694 0.20079234441444033 -1.403651622532057 115 98 74
-0.04963244321938626 0.21444673815329168 -1.3929428206688994 114 95 71
-0.03786406212747839 0.218140724557219 -1.3923142300930538 110 90 66
-0.02794188704830758 0.22125492116178652 -1.3925476466284958 112 91 66
-0.021292163529662456 0.22334140905416297 -1.3943498995832775 106 86 59
-0.013735912015960694 0.22571260081036817 -1.395690424303279 102 82 54
-0.0063114433076773 0.22804241341605608 -1.3970750911283487 111 91 61
-7.601156864561753e-05 0.22999881174288908 -1.3990268923554023 115 94 63
0.005700380781304859 0.231811052477473 -1.4011904752876592 119 98 68
0.012991993217429887 0.23409916145334242 -1.4025856673497887 112 91 62
0.018643709543575582 0.23587225848523277 -1.4047803375982282 108 87 56
0.019446197789450947 0.2361224277595402 -1.409393300663749 109 88 57
0.02411193669309425 0.23758587804387787 -1.41206593183363 107 86 55
0.028645478420706194 0.23900781446074143 -1.4147952817154759 111 89 58
0.03399601269260055 0.24068633818093707 -1.417100645449147 110 87 55
0.04253133231022305 0.24336507890094827 -1.417771912899515 110 87 56
0.05139874322777688 0.24614812550416929 -1.4182486375302947 112 89 57
0.05824264242384647 0.24829567574715977 -1.4197370562348945 115 92 61
0.05906764112301188 0.24855292688505684 -1.424305510094688 114 91 60
0.05889535409730989 0.24849696646559014 -1.429393670871121 114 91 60
0.06809616329731688 0.2513847465407928 -1.4296289679142475 115 92 61
0.075169718393853 0.25360444334815957 -1.4309439499230214 108 85 54
0.08187335773170606 0.255707969980749 -1.4324326598374035 116 93 62
0.08112083974355333 0.25546978367800327 -1.4378129812689893 113 90 57
0.08180949019985745 0.25568421540756114 -1.4424452854358403 110 87 54
0.0830486535881626 0.25607154305771673 -1.446791732380482 112 89 55
0.08547906371458058 0.25683300137461684 -1.450509470471705 114 91 58
0.08839948694776106 0.2577483578182107 -1.4539647142803636 108 85 51
0.08913729692868116 0.2579782249283479 -1.458581814255939 111 88 54
0.09169803665936088 0.2587806169102602 -1.4622267035074432 115 92 58
0.09439191916292444 0.25962482591896197 -1.465797691691916 113 90 56
0.10691155411536385 0.26355501927590597 -1.464061705749198 110 87 53
0.10814841041818563 0.2639416268078785 -1.4683973283255527 86 63 30
0.10941809010799236 0.2643385422124309 -1.4727179305165516 86 63 31
0.10989491013069003 0.2644864407181228 -1.477473874759106 100 77 44
0.1095601166429287 0.2643794305098389 -1.4826800851148725 119 99 63
0.11073141178281548 0.2647454410811184 -1.4870675814618908 112 90 55
0.11320193342659679 0.26551950542506286 -1.4907416208836652 102 79 45
0.11194626083486209 0.2651232622978424 -1.4964761359709808 103 80 46
0.11348845875276442 0.26560576051081186 -1.5006691951212008 113 90 56
0.11764326701133365 0.2669088201305736 -1.5034075706489678 108 85 51
0.11727413844224532 0.2667910130343898 -1.508668054511991 111 89 52
0.11670837530096756 0.2666114437443077 -1.5140481563297208 112 90 53
0.12371554352436559 0.2688103744341567 -1.5151719877787952 109 87 48
0.1214324233875852 0.26809141510454465 -1.52152806449125 109 86 46
0.12254582382592705 0.2684392325371564 -1.5259740709168241 111 88 47
0.12098641860740289 0.2679475689276386 -1.531945152138002 112 88 50
0.12413845131932588 0.2689356807881538 -1.5352386205474755 95 71 34
0.1276539185877127 0.27003794312691515 -1.5383190360597734 124 100 59
0.13086987798305844 0.2710461370924867 -1.5415655984221457 152 127 81
0.1396409810751601 0.2737991192008846 -1.5416002308015258 154 127 79
0.1365108289016641 0.2728140989684277 -1.5485019921926804 152 123 80
0.1337821570496524 0.2719551706343453 -1.5551908150125284 117 86 48
0.13752060846912917 0.2731274749614947 -1.5581261633643306 118 89 48
0.13551648497775798 0.27249610924215656 -1.5644156774178402 134 105 64
0.1348006322948752 0.2722693686834475 -1.5699645644200473 132 103 62
0.1348611940777567 0.27228648756716267 -1.5750667278094979 138 109 65
0.14220677234333767 0.27459175466414376 -1.5758684317117173 131 102 60
0.14611843840601663 0.27581846963057305 -1.5786861006661501 131 102 61
0.14662221115810298 0.27597479706215794 -1.5835250810376937 133 104 61
0.1382535250147428 0.2733443513664845 -1.5936709920960002 144 116 71
0.14305621816996045 0.27485092867323546 -1.5959627803860117 148 121 78
0.1529443562267384 0.2779548169309619 -1.595184007882465 123 99 58
0.15541990881075757 0.27873046442891286 -1.598847010480855 143 117 72
0.15933368666901715 0.2799578524981543 -1.6016369468229217 161 134 81
0.16343106238526894 0.28124291087450026 -1.604307373797145 156 127 74
0.1742614913313577 0.28464280312901336 -1.6028638414860645 154 123 77
0.18214911879973827 0.2871183820172041 -1.6031842371403477 142 114 73
0.19004377592116822 0.2895961779326568 -1.6034759509023095 141 115 77
0.19925896472757537 0.29248876073360275 -1.6029299161744703 134 108 73
0.20473448630720503 0.29420672562093964 -1.6046648406068988 133 108 73
0.212286233665069 0.29657683975388055 -1.6050979001698802 129 105 69
0.2166492826824355 0.29794538784538965 -1.6074913918924691 123 99 63
0.22126566260998476 0.299393511445314 -1.6097167254741134 144 120 84
0.23052996285952937 0.3023015646172663 -1.6090202666545725 132 109 71
0.23690188282894808 0.3043011216870729 -1.6101106525328528 145 121 81
0.24146635587017934 0.30573295842046055 -1.612321946228014 136 110 74
0.24088789537885263 0.3055493767654524 -1.6177750417867052 162 137 93
0.24158292700010792 0.3057658027886653 -1.6224304820745803 128 104 64
0.24625332479162992 0.30723091647326867 -1.6245601189833752 136 114 76
0.2461996576311838 0.3072121697920521 -1.6296957939428338 132 109 72
0.2481355127110378 0.3078183456000837 -1.6335647843407135 87 62 34
0.25448608630110464 0.30981122484926693 -1.6345952606261995 114 91 60
0.260193305192914 0.31160202690489736 -1.636022116615599 104 83 48
0.26488669885117 0.3130743815166329 -1.6380891373393516 102 82 48
0.2696461069921592 0.3145674763727613 -1.6401015849616616 120 98 65
0.25545558525834694 0.3101081702692142 -1.6544460327520865 121 101 70
0.23810149349652943 0.3046551202473865 -1.670926210341566 88 69 45
0.21654221212997338 0.29787919163207716 -1.6954834047300842 97 80 54
0.19068637477331968 0.28975553147386685 -1.7177920548478347 96 79 53
0.19344739616037726 0.29062084636910046 -1.7212741117540578 92 75 49
0.19381120053592882 0.29073315588613213 -1.7263450195110739 96 78 48
0.19447098026998333 0.29093843395477625 -1.7312256633615242 86 67 37
0.19412248295508833 0.2908269913591456 -1.7367859852217944 88 68 37
0.1937284636866876 0.29070124571851386 -1.7423868708904338 113 91 57
0.19289906450283262 0.290438734665338 -1.7482909138088585 114 91 56
0.18787647229319587 0.28885904925320954 -1.7570370997517677 115 92 57
0.19406762254652743 0.2908018332349632 -1.758221217443279 118 95 56
0.1960718005142264 0.29142940143527774 -1.7622310958768899 125 103 58
0.2008664311887962 0.29293351605199064 -1.7643395855811503 159 133 92
0.2022985568728108 0.2933813910625188 -1.7687343868814829 137 112 74
0.20614209262727734 0.2945867492975322 -1.7714780849119212 112 89 54
0.2133685149181011 0.29685476238426356 -1.7718866846297927 107 84 51
0.2153380242171377 0.297471447770024 -1.7759001397472318 103 80 48
0.21008362139978698 0.2958189044219142 -1.7849144546865585 105 82 50
0.2184503248732098 0.2984411289797065 -1.795285249604977 119 96 62
0.21420402507208408 0.2971052342281414 -1.803666984732705 136 111 74
0.20991498585702056 0.29575590351703535 -1.8121062207215481 121 96 59
0.2061865288816187 0.29458265951797435 -1.8201777151845508 102 78 44
0.2077189677665665 0.29506202761089567 -1.8245517879701592 103 80 45
0.2065717153751911 0.29469961303576886 -1.8308300927812082 107 84 50
0.2144823634708375 0.29718259437165484 -1.8306727531052673 105 82 48
0.21514303900110393 0.2973881112967769 -1.8356676276669646 97 74 40
0.2151911629697078 0.2974012012833084 -1.8411073640022184 103 80 46
0.22035721613026354 0.2990220199515415 -1.8428775384237064 97 74 40
0.22020581189599858 0.29897242829969206 -1.8484671803246782 97 74 40
0.21936655008336553 0.2987067502944825 -1.854563890696855 100 77 43
0.2213780108366929 0.29933659262687806 -1.8586054214251295 96 75 41
0.21822623316374962 0.298344452649272 -1.8664039216801394 103 83 48
0.21906005536861584 0.2986043457508201 -1.8713165661837572 94 74 39
0.21974079446546585 0.2988161470271291 -1.8763465961210464 97 77 42
0.22042222067338446 0.29902816192822684 -1.8813821325394113 102 81 48
0.22110433769481874 0.29924039161344895 -1.8864231828780005 104 83 50
0.22208572904460688 0.2995466344981981 -1.891249137767213 100 80 45
0.22315864692456433 0.29988162829170245 -1.8960119540970557 104 82 48
0.22424923737576907 0.30022217226876835 -1.9007659256216751 103 80 46
0.2277396468859404 0.3013166110819245 -1.9037346210000734 102 79 45
0.22881860778125074 0.3016535005439558 -1.90850029598851 100 77 43
0.23013180913571407 0.302063974792914 -1.9130945254843628 105 82 48
0.23239259096400622 0.30277212997915937 -1.9169789236009345 103 80 46
0.23302742326900194 0.30296949261703987 -1.9220894873924212 99 76 42
0.2409822655342601 0.30546644432485115 -1.9216645701314032 103 80 47
0.24253119542835294 0.3059509742850607 -1.9260769348810323 104 81 47
0.24099978445299242 0.30546780480034325 -1.9328376426720615 105 82 48
0.2454145464282087 0.3068526430243326 -1.9350720124810659 107 85 48
0.24822322607808173 0.3077329268440868 -1.9385260497659402 109 87 50
0.2488464620691968 0.3079266425106686 -1.9436561198791857 103 81 44
0.24970761343511927 0.30819509845425647 -1.9486092348860358 101 79 42
0.2531350652394533 0.30926977462052885 -1.9515834612596086 113 91 54
0.25366254171076297 0.3094334020727695 -1.9568001405320488 114 92 55
0.2616185638719123 0.3119307721375786 -1.9562455651126438 114 92 55
0.2580648293517547 0.31081224778707517 -1.9646428497974977 112 90 53
0.2621479924460648 0.3120929278229412 -1.967090286903579 103 80 45
0.2683570570067766 0.3140414882024407 -1.9678596441451475 110 86 52
0.2694126446249581 0.31437102639164893 -1.9726660317581037 110 87 53
0.26588565189082125 0.3132608838255323 -1.9810948706955904 105 82 48
0.26920946606619933 0.3143030104695529 -1.9841249207299896 104 82 45
0.26817479300963276 0.3139758545723971 -1.9906103434520928 105 83 46
0.2721660491522575 0.31522766954572357 -1.9931067455732925 106 84 47
0.27272861389836967 0.31540230661809043 -1.9983330689624057 105 83 45
0.274764403681662 0.31603978096667495 -2.0023858339766134 103 81 43
0.27421312370706097 0.3158644791321452 -2.0085175847192818 104 82 43
0.27407744570417925 0.3158197422557042 -2.014326553119725 105 83 45
0.2786579526695039 0.31725668731699663 -2.0163333393714598 100 78 41
0.2935580513313779 0.32193575624657944 -2.0099613852580953 104 82 43
0.2718477503919342 0.315112879358282 -2.0332971301192835 105 82 42
0.2869271826375228 0.3198483032018751 -2.02674346191133 103 80 38
0.28586440562927884 0.3195122887526731 -2.0333302324776774 140 115 61
0.28164211668913897 0.3181836297431764 -2.0425235033482325 190 160 96
0.2810706864801785 0.3180019707667793 -2.048743185902143 175 143 88
0.2729042834646168 0.3154341444539589 -2.061241928957057 134 108 59
0.27776537927056466 0.31695924682081034 -2.063009485095088 113 89 43
0.28569868475035154 0.31944957607798885 -2.062213801537064 109 85 43
0.27555900699014546 0.3162617591252248 -2.076432200733031 111 86 45
0.28785383694237665 0.3201223977981774 -2.0719824991776337 106 80 41
0.2973427316252918 0.32310148312421816 -2.069832171803078 104 79 40
0.2996068830711788 0.3238106978214981 -2.0737114783607415 108 83 42
0.30688535623530233 0.3260953269008151 -2.0733675052247835 88 62 24
0.30099459353780955 0.3242424053328433 -2.0841187317314733 102 77 37
0.30496337428379106 0.3254871868587702 -2.0865586288954248 102 78 34
0.3062498263158252 0.3258892229061392 -2.091267242781664 105 82 38
0.3079251146119243 0.3264134247039055 -2.0956482903718885 92 69 28
0.3074575346730113 0.3262643636869308 -2.101861571601451 148 122 74
0.3115478045912081 0.3275473212072396 -2.104182491696789 187 157 101
0.3165651928091099 0.3291215730387469 -2.1056967670789546 187 155 98
0.31729146057004265 0.32934760267313834 -2.1108935732698924 171 140 92
0.3067835996049614 0.3260439674213378 -2.1258038877906147 105 77 37
0.31235971245203786 0.32779159275664294 -2.1327018068834214 109 84 42
0.32206360582465443 0.3308383204649666 -2.130118058011024 103 78 36
0.32970241746780105 0.33323622453717483 -2.129301068202338 109 84 43
0.3369816237092058 0.33552115250123926 -2.128771355196865 99 74 33
0.3377364196298831 0.33575614295614487 -2.1339501839255997 107 82 41
0.3473909861302078 0.33878741650154764 -2.131290533155457 112 87 46
0.3449258114835654 0.3380107009027257 -2.1393061187297673 105 80 40
0.3437120910686864 0.3376271830626338 -2.146234793950935 103 78 38
0.34246891864640183 0.3372344053787524 -2.153205893017584 107 82 42
0.34184498089715265 0.33703618588005607 -2.1596413793357185 111 86 46
0.3443965269932723 0.33783570520080064 -2.163251292654052 110 85 44
0.347441110009132 0.3387901392058273 -2.166416543009142 110 85 44
0.3455264331403398 0.3381863558507372 -2.174035357294737 109 84 43
0.3504658268661849 0.3397361478840429 -2.1754945224576407 110 85 44
0.35449096367807753 0.3409986804917346 -2.1777655445832367 110 85 44
0.36037788348663025 0.34284620175826597 -2.1783383867681216 111 86 45
0.3628851117061159 0.34363180499558454 -2.1819644648247762 112 87 46
0.37474144240069535 0.3473549784785471 -2.177063833226543 113 88 47
0.3733037145984664 0.34690104915638786 -2.1842680642729646 114 89 48
0.37728983923682047 0.3481513451851134 -2.186516916542267 112 87 46
0.38540535863751774 0.35069914845164235 -2.184958912380732 113 88 47
0.3862789090745439 0.3509714461908039 -2.19004679238347 114 91 50
0.38763998340535727 0.351396928326576 -2.194689762859694 115 92 51
0.39039551225490426 0.35226056691244745 -2.198043195667299 113 90 49
0.3889431095369185 0.3518020101988163 -2.2053051007969495 115 92 51
0.39022400109674066 0.35220229250612506 -2.210036580987562 110 87 46
0.396854718007587 0.3542835809471521 -2.2097701853314167 107 85 44
0.39879452405329974 0.35489090852473226 -2.21387764899165 106 84 44
0.3998736015965507 0.355227778544859 -2.2187946695182887 103 83 43
0.4065174218871756 0.35731320114118414 -2.2184705365942916 96 76 36
0.41604997999293114 0.3603063351477745 -2.2153914209004157 95 77 37
0.4142839291421202 0.3597492111174761 -2.2229834317244 96 80 39
0.4197777337271346 0.36147329382298427 -2.2236942187460347 97 81 40
0.41492131330362686 0.3599450938056701 -2.2342523900302695 93 78 36
0.41916409518674924 0.36127607739209333 -2.2361494603689396 99 85 40
0.42149407040156356 0.36200601177430813 -2.239868084392718 112 98 57
0.4244329093587736 0.3629272681949639 -2.242999829331314 102 89 64
0.42610927083959144 0.36345182074384463 -2.247343321412269 91 82 68
0.4255623336275105 0.3632777478992514 -2.253837078221801 108 103 93
0.42203263890051973 0.3621663984386316 -2.263234716801 135 132 125
0.4217903577000841 0.3620880449546937 -2.269467460163498 161 161 159
0.42945396443086337 0.36449396899473085 -2.2680092013282676 178 179 181
0.43321232191683084 0.36567274655173376 -2.270336263613922 188 189 192
-0.13241381791532192 0.18350251486093389 -1.4023562619202155 129 115 101
-0.1080998776245673 0.1911755068579214 -1.3960223653782984 125 108 91
-0.08972003552174607 0.1969689890404188 -1.397551430852909 116 99 74
-0.07566066987275999 0.20140362366599923 -1.3959422665720485 113 95 72
-0.049223464108622994 0.2097474569502882 -1.3883323656206539 111 93 71
-0.03999654187315976 0.21265602813584544 -1.3889454524795937 111 92 67
-0.02943111965027334 0.21598735664298888 -1.3888827152273138 103 83 58
-0.020108321456709766 0.21892626840927568 -1.389393057458774 110 89 62
-0.011015599208029636 0.22179254553285555 -1.3899885840289914 115 94 66
-0.0023788915877444583 0.22451482880124096 -1.390781350204486 100 79 50
0.00024931430285024536 0.225339470385263 -1.394507833801084 112 91 60
0.007943673199866885 0.22776417070386878 -1.3957279814016366 125 104 72
0.014167600472719588 0.22972448089115652 -1.3976563148253518 119 98 67
0.018096830297823607 0.23096005868113248 -1.4007115785459554 114 93 62
