ply
format ascii 1.0
element vertex 673
property float x
property float y
property float z
property uchar diffuse_red
property uchar diffuse_green
property uchar diffuse_blue
end_header
-0.9585167726279669 -1.652664729279362 -1.3238827330889547 216 216 216
0.46417172468961676 0.08161428098790771 -0.02169105782533612 180 180 182
0.36082242630920913 -0.10132142102321168 -1.2311617299463748 192 193 195
0.35100291511450094 -0.1127744682504378 -1.2305421138091013 192 193 195
0.2581428870539718 -0.2188190548953679 -1.1805734719696128 193 194 196
0.25387678255464197 -0.22393174497690377 -1.1829721904475907 193 194 196
0.2988846622148553 -0.17292691986784348 -1.214858529127813 194 195 197
0.14667919818439124 -0.346509237850654 -1.1284000019332574 194 195 197
0.10769251289847834 -0.39114021742642513 -1.1095422199980316 195 196 198
0.09930645605899056 -0.4009230729927355 -1.1090467060387363 195 196 198
0.10725208504170307 -0.39211276182465793 -1.1184569520009766 196 197 199
0.08960908408620531 -0.4124304719805084 -1.1122704283950646 197 198 200
-0.026232556526815637 -0.5445036567488921 -1.0457252713692171 198 199 201
-0.016981541149167393 -0.5341955442055601 -1.055700126197988 198 199 201
-0.013723160396387404 -0.5307087478781485 -1.0620182002052425 199 200 202
0.1838009662669361 -0.31815648529340684 -1.4219954918737363 207 208 210
0.19920104240554634 -0.3009961333956501 -1.438590084679022 211 212 214
0.1902516999125692 -0.3113835524701607 -1.4370372519227899 213 214 216
0.44346470912156905 -0.02555458099322183 -1.6383087564140282 214 215 217
0.4306859682688989 -0.04030309047586289 -1.634461078483575 214 215 217
0.42037873224395733 -0.052254120348058986 -1.6324293379174748 215 215 217
0.4071776120853495 -0.06747412864862012 -1.6281428945597258 214 215 217
0.39963505508200686 -0.07629476524865397 -1.6281216131637577 214 215 217
0.39069992326713965 -0.0866875588399757 -1.626997446660563 214 215 217
0.3845849431679567 -0.09389129716471001 -1.6280049325426167 213 212 214
0.37555145157811987 -0.10439138183199448 -1.6267297275679589 191 190 188
0.3596581090069898 -0.12263944003935634 -1.6200898459065582 151 145 135
0.3494178106009637 -0.1344975177178418 -1.6177723498401066 132 118 100
0.33808986027582305 -0.14758160120018027 -1.6145563067209738 131 114 89
0.3298809148622466 -0.15714039219511022 -1.6137311135005616 128 110 80
0.3201245792376763 -0.16844459032046266 -1.611650611222053 125 106 77
0.3099711864422851 -0.18019472150469928 -1.609210290828753 125 105 78
0.2999401271910581 -0.19180425247583355 -1.6068183101402302 123 103 76
0.2954319403525035 -0.19717709588797905 -1.6087690788387705 124 103 76
0.28520257653818304 -0.2090062912362528 -1.6061379397159554 124 103 75
0.27609724668572666 -0.21956446496131005 -1.6043573343403834 126 105 76
0.2673491300471481 -0.2297173519172711 -1.6028204906081283 127 107 78
0.2575232413654053 -0.2410841035148717 -1.600373684704427 126 105 76
0.24775055286279707 -0.25238841332128853 -1.5979226070577426 126 105 76
0.23698867190397138 -0.2648060711173739 -1.5946217005287364 128 107 78
0.23262850095040338 -0.27000109537740696 -1.5964808574959306 131 110 81
0.2273361525191701 -0.2762464193062543 -1.5975610487223124 132 111 81
0.22718936205911472 -0.276688819759433 -1.6028370305944108 128 107 77
0.2273790113381171 -0.2767522271722174 -1.6083956976258171 123 102 74
0.22428724087412477 -0.2805149984953115 -1.61125387333784 118 97 71
0.22516918559851662 -0.2797984534917409 -1.617392380546843 112 91 66
0.22490657105004463 -0.2803723799266468 -1.6225915528855173 109 89 64
0.22271447830931784 -0.2831207477064355 -1.6261874674303756 99 81 57
0.21841712752474712 -0.2882407754955945 -1.6280169545603995 102 84 61
0.21249698023278674 -0.2951880504463298 -1.628467285346348 106 84 65
0.210052582521714 -0.29821893863521876 -1.6318181457417662 111 93 72
0.2078126673735588 -0.3010191766364922 -1.6353348845914628 116 102 82
0.20422397568245249 -0.3053379757104687 -1.6377025545271475 113 101 84
0.20302041643301688 -0.3069705387162641 -1.6420853969437914 128 119 107
0.19781005406443392 -0.31311400695829644 -1.6430493303695084 162 158 152
0.18949648673839425 -0.3227494948859743 -1.6413341071194398 210 210 208
0.18072425045053792 -0.332899171150987 -1.639184900269251 217 218 219
0.17204957683644556 -0.3429368622656736 -1.6370770795130434 216 217 221
0.16359597136314696 -0.35272363414304064 -1.6351181688928371 215 217 219
0.43262202574043407 -0.05188868985538675 -1.9043843897510695 216 217 219
0.42439189776764397 -0.061456145526917694 -1.9032452218372589 216 217 219
0.4222961570080704 -0.06412613269927969 -1.9075098461450057 216 217 219
0.340238544277363 -0.15666664305463307 -1.8405928009180605 216 217 219
0.34517912297228626 -0.15141723768875748 -1.8509037790765728 216 217 221
0.34346550862530617 -0.15364649490004956 -1.8552892891761281 216 217 221
0.3476318113170014 -0.14926967093709498 -1.8649569908389219 216 217 220
0.34754446191350885 -0.14967272402927956 -1.8708210456571739 216 217 219
0.3517097095659739 -0.145299690072636 -1.8805385620823547 217 217 218
0.351840457541273 -0.14545916637473688 -1.886626907984887 217 217 218
0.3415821646724331 -0.1572848082208126 -1.883267097795402 217 218 220
0.34474144891998193 -0.1540433456089546 -1.8921076596254263 216 216 217
0.3549570507249976 -0.14288184248561242 -1.9074377890939112 213 212 212
0.35596951566144147 -0.1420537686701554 -1.9143778190415717 206 205 204
0.35738867462321006 -0.14076995961070693 -1.9217062969239669 193 192 189
0.3525669884568117 -0.1464901102256111 -1.9232797636158772 181 178 174
0.3475209377315446 -0.15246095670115634 -1.9246248273278006 170 167 161
0.33051750118945483 -0.17184506470410688 -1.914821691519098 166 161 155
0.3148602477145255 -0.18971447618746173 -1.9061838246936926 163 157 149
0.30464473585753726 -0.20147641611970357 -1.9025576868537821 160 153 142
0.29498394389710475 -0.2126136245628586 -1.8994005628979993 157 149 136
0.2765047245824905 -0.2336359813973128 -1.8878859442056128 153 143 129
0.2703701193607127 -0.24081364017573204 -1.8879378242243863 151 139 125
0.26593830942802843 -0.24608109392927224 -1.8895756047421144 152 139 123
0.2612850732264041 -0.25159577314855874 -1.8909843237653292 151 136 121
0.25435176619025157 -0.2596645907577768 -1.8901982151109 149 134 118
0.24978207511414907 -0.26508327719095937 -1.8916404763831767 147 131 116
0.24728843589538457 -0.26817507201184454 -1.8950559247594128 142 125 111
0.2426993935112437 -0.2736137550510407 -1.8964468018805163 139 121 107
0.239902481236696 -0.2770441703746981 -1.8995487531555024 136 119 103
0.23710998796054372 -0.28046917303679586 -1.9026459446585395 133 116 99
0.23586235303798325 -0.28216387431564316 -1.907235129997266 129 112 93
0.23338473597491766 -0.28523565300476383 -1.9106256963873773 130 112 92
0.22728232688544114 -0.29236477970426744 -1.9104656197771055 129 111 87
0.22835144714418093 -0.29146546789723515 -1.9173087058847802 129 109 85
0.22621644276968988 -0.29415269766137053 -1.921014386418148 130 108 85
0.2231853145025331 -0.29784240242013404 -1.9238308590461566 130 108 85
0.2202811192492654 -0.30138955025833647 -1.9267623785720007 131 109 86
0.21944899092526898 -0.3026182358218459 -1.9317405314321776 131 111 86
0.2140172632355204 -0.30899178019396567 -1.932142568410778 132 112 87
0.21215999822806625 -0.3113664970317074 -1.9360885360260114 131 111 86
0.2079373399735766 -0.3163860329993048 -1.937662095035317 131 111 86
0.21289464310395145 -0.3111409571417514 -1.9484386724919225 130 110 85
0.20958198601312755 -0.31514279000733214 -1.9509209803716268 126 106 81
0.2062566632729529 -0.31915814567118117 -1.953378130467938 127 107 82
0.20165202632214768 -0.3246026121326496 -1.954526254207748 129 108 80
0.19646445864817408 -0.33069742948934466 -1.9550616166664654 129 108 79
0.18932076091182493 -0.33897657400851267 -1.953578876560031 126 105 76
0.19557689095607167 -0.3322845965261143 -1.965762531937218 124 103 75
0.19357567695023864 -0.3348181606796924 -1.96952306998402 123 102 73
0.1929499111477062 -0.3358153717094907 -1.9746938878621512 123 102 73
0.1924129387472739 -0.33671362663855875 -1.979960126446687 123 102 73
0.19253057255217954 -0.3368812361038144 -1.985908052002548 123 102 73
0.18989189622941516 -0.3401262704995154 -1.9890039787068607 120 99 70
0.1878269663225105 -0.3427304620779149 -1.9926886204867347 117 96 67
0.18525193346082125 -0.34590369117099096 -1.9958358365249504 114 93 64
0.18221787346984664 -0.34958872280329223 -1.9984944078648312 113 92 63
0.17874424151699025 -0.35376363323229265 -2.0006805280014976 115 94 65
0.17542474026601967 -0.35776590214728565 -2.003015326430953 115 94 65
0.17419096504660175 -0.3594410925532433 -2.0075401852690855 120 99 69
0.17134947253483163 -0.3629092878481258 -2.010362258200816 122 101 70
0.16939344360877934 -0.3653896102621896 -2.014115126403282 118 97 66
0.16832046548049212 -0.3668851691443136 -2.0188043903823583 111 88 57
0.16711834254527785 -0.36852475026627374 -2.0233567489313296 114 91 60
0.16563087579684288 -0.3704823936645563 -2.027603634137869 116 93 61
0.16553150713374565 -0.37089298974572343 -2.0333407243698436 116 93 61
0.16460083620062105 -0.37223026680563576 -2.038189015142669 114 91 59
0.16346813586492182 -0.3737927331722103 -2.0428209180948613 115 92 60
0.16168502360969644 -0.3760797797674526 -2.046748534106931 116 93 61
0.160104358770436 -0.37814116643189083 -2.050892894233801 115 92 60
0.15744506982648104 -0.38140366349842236 -2.0538593020912743 114 91 60
0.15485335653990545 -0.384590463434794 -2.056890782818287 114 91 60
0.1546756514330943 -0.38508922995469896 -2.062560608806077 112 89 58
0.156940416719701 -0.38286944130176714 -2.0709227155006307 111 89 56
0.15415607562882588 -0.38627051156327935 -2.0737393104347657 112 92 58
0.149911976708148 -0.39129558473779685 -2.074932059986134 113 93 58
0.1475348261343043 -0.39424235253957407 -2.078176343621323 113 93 58
0.1446888477142093 -0.3977103409576136 -2.0808921317126234 116 93 59
0.14253437585508555 -0.40040860118327365 -2.084369038320661 114 91 58
0.1402972229043506 -0.4031985254509151 -2.0877477346036715 113 90 58
0.13735848771960585 -0.4067683194045864 -2.090333292801836 112 90 58
0.1290658069358681 -0.4162905272790183 -2.0868864427389062 109 88 57
0.13198111993540607 -0.41335028099064314 -2.096036277099261 110 89 58
0.13063860127071397 -0.41514421445549254 -2.1003965975122734 110 89 58
0.12898744657072653 -0.41728113125677685 -2.1044062030895825 110 89 58
0.12758699606873874 -0.41913932330457887 -2.1086983480900523 104 83 52
0.1253402118689168 -0.4219377980438892 -2.1120241476221833 104 83 52
0.12469387684743105 -0.42295799552923236 -2.117174089277015 105 84 53
0.12172813273196609 -0.42655465160170825 -2.119667515704142 103 82 52
0.11938906766515023 -0.4294547656366653 -2.1228706932241237 104 81 50
0.11709246896004283 -0.43230736288988075 -2.126115803677008 104 81 49
0.11449349092553418 -0.4354953281915446 -2.1290044016336243 104 81 48
0.11181552529493338 -0.43877052778679865 -2.1317926482255993 104 81 47
0.11022437588385131 -0.44083897326587473 -2.135835589758006 103 80 47
0.10627444519109752 -0.4455249690844168 -2.137125394867743 103 80 48
0.10455523351431928 -0.44773488555693436 -2.141006385346219 106 83 51
0.10613230418924835 -0.44628766768125067 -2.1487496633981937 116 92 55
0.10580125495270842 -0.4469579781646836 -2.154267350218589 122 99 59
0.10754586661385929 -0.44532649008813796 -2.1622383521848416 129 105 64
0.11370311532151023 -0.4388027065239775 -2.175446018843472 132 107 67
0.1110117241841837 -0.44209239457324623 -2.1782106069679483 135 110 69
0.10813727497386144 -0.44558453626873173 -2.1807481485299682 134 108 67
0.1026003742647521 -0.45202726198710336 -2.1801011217789963 136 108 69
0.09828841725425325 -0.4571109972631072 -2.1808903641409274 142 114 75
0.09308029643060961 -0.4631867344556015 -2.180585378324796 141 113 73
0.08224030479599592 -0.47550082196431 -2.1734855096990993 140 112 70
0.08201600596889808 -0.4760520909126471 -2.179116488129873 141 114 73
0.08003953781767476 -0.47854437749891365 -2.1826366294218165 145 118 77
0.07995619890578537 -0.47893992363472193 -2.188445797043182 141 115 74
0.07639623011828106 -0.48318535631298076 -2.1900383434621413 136 111 68
0.06919108136389779 -0.4914655153603548 -2.187174644415281 139 115 71
0.06926652473558054 -0.49168467004668526 -2.1931654370712206 142 118 74
0.06848320493873938 -0.49285469440695284 -2.1981128937421572 138 115 71
0.06793395108900535 -0.4937658559175947 -2.2033507226268823 140 117 73
0.06254240796402949 -0.5000347786631075 -2.2026297616229757 148 124 80
0.06157098301279346 -0.5014125951453436 -2.207339168998806 147 122 78
0.06068886485020153 -0.5026917170042082 -2.21216079529741 146 122 77
0.05660044478053183 -0.5075167860382803 -2.213004240552397 149 125 79
0.05366285631501738 -0.5110683743567259 -2.215261126894089 150 126 80
0.04872054374636636 -0.5168357045380529 -2.2150044875401065 149 125 78
0.045933570213497865 -0.5202192869137552 -2.217420255646777 160 136 88
0.04621288944094881 -0.5202134303552397 -2.2236729949320857 155 131 84
0.04545100451879558 -0.5213586574574919 -2.2286257690024294 150 126 82
0.030684108934524723 -0.5379777232936838 -2.2159149154179842 148 124 81
0.028100942589927236 -0.5411328146002887 -2.218523246469323 147 124 80
0.042003902099733814 -0.5260781188666575 -2.2420293902821316 144 123 80
0.03595630399257038 -0.5330610518955015 -2.2402695146773457 140 121 81
0.033072012255903116 -0.5365494615076074 -2.2425099682820395 130 113 79
0.030811635996879472 -0.539348486528012 -2.245536671194096 127 111 78
0.027417247897911112 -0.5433989066149437 -2.2471028990164235 122 106 75
0.023472701349241842 -0.5480557561438706 -2.2479473983479537 107 92 62
0.021300875249592788 -0.5507554846990754 -2.2510573440467088 90 82 52
0.018277857429027322 -0.5543940067834018 -2.2530611868287242 94 87 63
0.019503984446937683 -0.5533445067792926 -2.2605561026111407 115 107 90
0.023046701765551014 -0.5497407417800981 -2.271075813248472 141 135 125
0.02056095474336489 -0.5527867536910176 -2.273778893193705 165 161 158
0.018791923018455392 -0.5550420594519727 -2.277408866004179 181 180 179
0.016746965628305133 -0.5576013598378864 -2.2806738801631514 191 191 190
0.013018332316557024 -0.5620162199365941 -2.2817238207896913 198 198 198
0.013364527205477261 -0.5619393788622914 -2.2881175214125014 200 202 201
0.011170943036324321 -0.5646616947998093 -2.2911717143498413 203 204 206
-0.02887770407653234 -0.6090899193580502 -2.2441557851402694 207 207 209
-0.027841725047546145 -0.6082473105567672 -2.2513485286489896 208 208 210
-0.06730877120514264 -0.6520147998046606 -2.204712667274304 209 209 211
-0.07337055611646157 -0.6589826920234808 -2.2023362827608706 210 210 210
-0.09263487339478998 -0.6804852096967773 -2.1822838059695124 211 211 211
-0.08045633102963595 -0.6673673964933216 -2.2042311140194712 211 211 211
-0.14941305942374974 -0.7435577591562175 -2.1172903697196808 212 212 212
-0.2506423507862755 -0.8693698891226517 -2.2618010616222115 218 218 218
-0.2538327743675641 -0.8731318872683452 -2.2623954430004614 218 218 218
-0.2554023533711149 -0.8751255232999653 -2.265472101382349 216 216 216
-0.2580818117526469 -0.8783290870409816 -2.266830207258989 213 213 213
-0.25946230559856676 -0.8801159957766546 -2.2701880058394797 217 217 217
-0.26253016001872886 -0.8837418914691361 -2.2709237546942322 218 218 218
-0.9609408919772034 -1.6516419683459378 -1.3168014674036606 216 216 216
-0.9620971354671384 -1.653048772093277 -1.3178630051907576 216 216 216
-0.9634438630386355 -1.6546611997560237 -1.318590011493282 216 216 216
0.45914033476543314 0.08252318053278707 -0.021591854646287365 180 180 182
0.5511156829404917 0.12415099840437682 -1.3343945085846327 190 191 193
0.5372357555115851 0.10799982557576315 -1.3319008176644689 191 192 194
0.5226723686149939 0.09107065158832028 -1.328941497142696 192 193 195
0.24885110319882808 -0.22238698648479427 -1.1772610189494794 193 194 196
0.2596331337661472 -0.2103165890580287 -1.1886321958153447 193 194 196
0.2902468337429562 -0.1755928239095888 -1.2119599674518475 194 195 197
0.12546410072319258 -0.36408006077770355 -1.1177418466406122 194 195 197
0.10117959818320574 -0.3920513682182778 -1.1076901970185253 195 196 198
0.0934667877261907 -0.40109101565169186 -1.1075879220218037 195 196 198
0.06358238678554064 -0.4354473380338808 -1.0939291382601046 196 197 199
0.08078653919181697 -0.4160305922816365 -1.1089646825338317 197 198 200
-0.03890753547562609 -0.5529115785502692 -1.0399036060512628 198 199 201
-0.037834184625701435 -0.5519007535228793 -1.04481718529547 198 199 201
-0.029911328629759627 -0.5430723064235548 -1.0539881552906551 199 200 202
0.2828023184497526 -0.19851027820348832 -1.493171541364506 206 207 209
0.2803692883850892 -0.20154312167549326 -1.4967320752827264 209 210 212
0.1803889485898802 -0.3152894890487092 -1.427347192115831 211 212 214
0.16957625185307637 -0.3278180456913518 -1.4243445480084946 213 214 216
0.4451114439074534 -0.015423693370864466 -1.6369402534391295 214 215 217
0.43537997930412525 -0.026759186298573656 -1.6354221608188042 214 215 217
0.42530407838295 -0.03848313516348123 -1.6335975445510904 214 215 217
0.4135127929359497 -0.05215045684284281 -1.6304199719351073 214 216 216
0.39982582752143436 -0.06796492902320839 -1.6257377171915492 214 215 217
0.3915957900134993 -0.07758773861874868 -1.6251718272116633 214 214 217
0.38341910412289565 -0.08714816205072706 -1.6246094900105879 209 207 208
0.3760438913915549 -0.0957980348693912 -1.6246286407589547 172 167 163
0.358934332901748 -0.11548122447318054 -1.6170731759338057 129 119 108
0.3480860272642448 -0.1280630967688694 -1.6142996100524096 127 111 90
0.33808858010970616 -0.13967803208221707 -1.6121378145393714 129 109 84
0.3314377777227891 -0.14749814957432072 -1.6125486392114288 128 107 81
0.32038639291530585 -0.1603029248286053 -1.6094728399594163 127 107 78
0.3134643459018932 -0.16842677302119013 -1.6095990754747898 126 107 76
0.3017247223079877 -0.1820063489098508 -1.6058831147413608 122 103 74
0.2904560797749208 -0.1950495727057091 -1.6024836433215532 127 108 79
0.284506028134304 -0.20206666583339328 -1.603266030507938 130 109 80
0.26722022388476324 -0.2219187441809387 -1.5949614254467845 127 106 77
0.2639330082509299 -0.22591670705832517 -1.5977968255277188 128 107 78
0.2585691751131671 -0.23226502766055235 -1.598949585144963 127 106 77
0.2531700246583667 -0.23865217825936524 -1.6000510748353898 127 106 77
0.2478820939243429 -0.2449122890196504 -1.6012197084582622 128 107 78
0.23456209114228965 -0.26026097438889156 -1.5958347854271793 127 106 77
0.22936673928800716 -0.2664129435357445 -1.597011854481524 129 108 79
0.22402372442780655 -0.272730867607901 -1.598046023680569 121 100 71
0.22075179264605377 -0.27670471082222575 -1.6007586044539583 125 104 76
0.21651962281036913 -0.28176411975808274 -1.6026683246492421 129 108 79
0.21185545610333345 -0.28731126077924346 -1.6042040085467897 124 103 72
0.21136317202011184 -0.28813971832149204 -1.609182277129647 116 95 66
0.2078492175326236 -0.29238496679916065 -1.6116487834611384 110 89 61
0.20861706916608708 -0.2917887530853033 -1.6176793497461603 107 87 62
0.20768179248923113 -0.29311833674649374 -1.6222934800029327 106 87 63
0.20491829549708934 -0.29651438526766544 -1.6253716944645324 107 87 63
0.2033519843368023 -0.2985570192058606 -1.6294513724592248 109 91 67
0.1977466614462674 -0.30516359196891374 -1.6301097330727452 111 94 72
0.194361455095876 -0.30926052675071564 -1.6326291457068094 118 103 84
0.19572433116422194 -0.3079929100199654 -1.6391826341924554 124 111 96
0.19100133806563685 -0.31360039807250667 -1.6405470883057172 127 118 108
0.18853485109360735 -0.31665834118371455 -1.6438274418506578 155 150 144
0.17972607132910923 -0.3268781401843682 -1.6416421199041191 209 208 209
0.1711478009151826 -0.3368354939981696 -1.6396128510330639 215 217 220
0.1626120033681897 -0.3467427891461749 -1.6375786116433972 214 218 220
0.42263679334284643 -0.05440596809287879 -1.8872104681731392 216 217 219
0.4178127186973636 -0.06015716518257752 -1.8890738421895656 216 217 219
0.40988486915849964 -0.06940883359467487 -1.8881756352710883 216 217 219
0.39909951985670666 -0.08188183418331096 -1.8847074711647562 216 217 219
0.39179792503125543 -0.09042298259006654 -1.8842827664964354 216 217 219
0.38707518557552567 -0.09605423761991505 -1.886124210998954 216 217 219
0.3414396136859316 -0.147815967249318 -1.8513362280733314 216 217 219
0.3430408094727796 -0.14630967362093295 -1.8586984385684264 216 217 219
0.3425080176300696 -0.14720979467206807 -1.8641555937428638 215 218 221
0.3458161699532022 -0.14378094023663734 -1.8730873788725746 215 218 220
0.3483236100199416 -0.14125581273166143 -1.8813201079897288 215 215 217
0.34877152701542996 -0.14105252893514253 -1.8877023612341566 213 213 214
0.3498192185521622 -0.1401740056016203 -1.8946419055104429 206 203 204
0.3513743080226997 -0.13872457199470623 -1.9020594410310376 195 192 192
0.35125529753187046 -0.13916167070578078 -1.9079570028235182 185 181 180
0.3520703135686473 -0.13854718082703665 -1.9147216245763314 175 169 166
0.32134320821583157 -0.17345283173267356 -1.8923630269405631 167 161 155
0.3156995134242224 -0.18010716366081891 -1.8930761038010608 163 155 147
0.3120800223139157 -0.1844813654340799 -1.8956454945377297 155 146 137
0.30610083964173274 -0.1915110905589824 -1.8960011282888494 151 143 133
0.2984956180262093 -0.20036956193214106 -1.894808543847881 150 141 129
0.2914352475433087 -0.20861301958833278 -1.8940903410900036 148 138 123
0.25999135695283176 -0.24429147101634385 -1.8703883880576844 147 136 119
0.2565128815307247 -0.24849804611017112 -1.872913028363248 144 132 114
0.25544965986547896 -0.24998700460339396 -1.8777121682522029 142 128 109
0.2505830451084348 -0.2557539703537641 -1.8788992740756676 143 128 109
0.2449273012909114 -0.26240734184168013 -1.8793132397004495 143 127 110
0.23214843751380487 -0.2770691705439007 -1.8728923843873841 142 126 109
0.23692627777347663 -0.2719881367495831 -1.883237883238143 142 125 108
0.23177374560081154 -0.2780723868110532 -1.8840679892151737 139 122 105
0.2304767997011249 -0.27982169565221593 -1.888594824932618 136 119 102
0.2278535004561305 -0.28306165270004213 -1.891837920150326 133 116 97
0.22523399466213512 -0.28629694005794304 -1.8950766326070037 132 115 95
0.222530119850244 -0.28962661603854956 -1.8982251406081128 132 114 92
0.220475545000348 -0.29222641768334034 -1.9019991971106602 131 113 91
0.22033801065212993 -0.29267261188444393 -1.9076464657754946 132 113 90
0.21636570109828945 -0.29742608473036813 -1.9095324374700378 132 112 88
0.21202385260085865 -0.30259372480711655 -1.9110380203559636 130 108 84
0.20727485772752197 -0.3082175900152988 -1.9121226933994806 130 108 84
0.20667150086639446 -0.30918619612353837 -1.9172970668970888 127 105 82
0.20088212752617596 -0.31597642731738507 -1.917317626666333 129 109 83
0.19575971982514329 -0.3220167021060272 -1.917976310768327 129 109 82
0.1980163219663426 -0.31977492274692176 -1.9259947843403584 126 106 79
0.20355643565698261 -0.313849879288267 -1.9373295260363372 127 107 81
0.20025737616882194 -0.31784372300982666 -1.9398079738583072 127 107 81
0.20271403761535223 -0.3153803765138773 -1.948084963306206 122 102 76
0.2014806931903227 -0.3170569196566362 -1.952647868111696 123 102 77
0.19547412998702846 -0.32408644682630006 -1.9523631304719509 124 103 75
0.18837775048452948 -0.3323365429905638 -1.9509394993639 124 103 74
0.1886313439974417 -0.3323443938622187 -1.9569897771967042 122 101 72
0.18703476006146236 -0.334426757623122 -1.9611532790758266 120 99 70
0.18580695699814842 -0.3360956680647976 -1.9656936994811698 121 100 71
0.1848546534304879 -0.3374558347979184 -1.9705182466878237 119 98 69
0.1834115415211941 -0.33936606443138007 -1.9748371960043183 117 96 67
0.1816713389495846 -0.3416090916691984 -1.9788469236502728 117 96 67
0.18003029389744085 -0.3437408886576936 -1.9829567830683867 117 96 67
0.177514381432816 -0.3468524857477009 -1.9861517607088024 116 95 66
0.1757378917073832 -0.34913559429451413 -1.990112477779435 116 95 66
0.17275067212145745 -0.35277427835458874 -1.99279973935132 118 97 66
0.17027046879857094 -0.3558447611037462 -1.9960098158168167 121 100 69
0.17083475164749995 -0.35550668266277363 -2.002425121391071 124 103 72
0.1680322911901186 -0.35893757693334855 -2.00528833958965 123 102 71
0.16523467227805055 -0.362362569428027 -2.0081471158301243 126 105 74
0.1617374539924702 -0.3665699257885694 -2.010251572832496 124 103 72
0.16047136464312955 -0.3682803108443429 -2.0147241310162194 115 92 61
0.15908542203233422 -0.37012476692158536 -2.01906823048654 103 80 49
0.15701597559977865 -0.3727336946302664 -2.0226774952962057 108 85 54
0.1554034656932043 -0.3748313411277606 -2.026773730552441 110 87 55
0.15670032494345854 -0.3736755838915491 -2.0340098998888623 112 89 57
0.15614679648903085 -0.3745894578396794 -2.0392576437863 112 89 57
0.15539316468319692 -0.37572724440978134 -2.0442923387581615 111 88 56
0.1538109700725494 -0.37779130335003597 -2.048427486746061 110 87 55
0.15069845031033713 -0.3815655198662135 -2.050888646285393 111 88 56
0.14764104380733156 -0.38527756247811207 -2.0533985144196794 113 90 58
0.14992455992371773 -0.38302180236010086 -2.061765472653691 108 85 53
0.14692796538261726 -0.38666561001230204 -2.0643363745055483 108 86 53
0.14378876056238177 -0.3904681513927114 -2.0667386905934033 113 93 58
0.14054578194573308 -0.3943859852924224 -2.0690140915566824 112 92 57
0.1379031354712275 -0.3976328342135628 -2.071944075995513 113 92 58
0.13551435025947484 -0.40059580858704713 -2.0751481580229854 115 92 58
0.13217783476272954 -0.40461638112979337 -2.0772857608889774 116 93 60
0.1308857051405008 -0.4063544366806284 -2.081701492842187 116 93 61
0.12803017746146594 -0.40983721788217425 -2.0843596594990483 114 91 59
0.12412253225783121 -0.41449347036682666 -2.0858216808618284 111 90 58
0.12431792367516387 -0.414571218217028 -2.0919045336269413 110 90 57
0.12203585881669293 -0.41741306063176215 -2.095188276295773 108 88 55
0.12091066423294011 -0.4189642493303575 -2.0997803739830045 103 82 50
0.12138602621120015 -0.4187305464971142 -2.1061976253599384 101 80 48
0.11791662101952732 -0.4228959317958786 -2.10811665984623 103 83 50
0.11829632951209668 -0.42276933818765916 -2.114433544638511 109 89 57
0.11562796797766717 -0.42604097463068347 -2.1172571177279225 109 88 57
0.11295657940926607 -0.4293155222327169 -2.1200680320527256 107 84 52
0.11080235936463423 -0.43201328077480555 -2.1234675246825914 107 84 51
0.10822897968683942 -0.43517777854303885 -2.126375268917923 108 85 50
0.10559939519560835 -0.4384044573692506 -2.1292090736869325 113 91 54
0.10312324857516553 -0.4414597685296691 -2.1322127242924256 113 90 55
0.09947833543329843 -0.4458163707871042 -2.1338423448864123 114 91 58
0.09705682969093454 -0.44880983490156595 -2.1368902025954446 116 93 59
0.10050330090488907 -0.4452694558267973 -2.1468265720425217 114 90 54
0.10043818986052738 -0.4456398565507156 -2.1526549542991544 117 93 55
0.10119588683734171 -0.4450947874987369 -2.159463238743067 130 106 67
0.10082853740369979 -0.44580245498199556 -2.1649513276969 135 110 70
0.09914838864750963 -0.447971229089849 -2.1688851777864078 143 118 77
0.09585482808768087 -0.4519349212976367 -2.170893800644873 141 115 74
0.06685399674158854 -0.4844953300423348 -2.1421756703009613 141 113 74
0.07284711592003879 -0.4781242319365828 -2.1551988886110154 138 110 71
0.07924211393537878 -0.4713085854851389 -2.168752025432522 144 116 77
0.07788040804730667 -0.4731203621503505 -2.1730117447451502 149 122 80
0.07567757905660905 -0.4758672240385653 -2.1762546418375734 151 124 81
0.07310412391212312 -0.47902574942721393 -2.1790422510065697 146 119 76
0.07165418197651807 -0.4809351184653445 -2.1831853813575886 143 118 75
0.07050708339018713 -0.48250787282956054 -2.187695792264588 140 116 72
0.06881985201078478 -0.48468079412125253 -2.191547213046963 140 116 72
0.06868469397152588 -0.48512931120266034 -2.1972957606240304 143 119 75
0.06570750310523771 -0.48873502589940876 -2.1995626364118603 144 120 75
0.061577933650661054 -0.4936199858415191 -2.200399432557834 147 121 76
0.05970111751567386 -0.49600244388449527 -2.203997354484214 153 125 81
0.05650592626765116 -0.49984842739989077 -2.2059593758351608 151 124 79
0.05398599841664031 -0.5029441407435762 -2.2087461797304733 150 126 80
0.05178344295065551 -0.5056871563739909 -2.2119191965924148 148 124 78
0.04891635512172532 -0.5091673128053024 -2.2142566263701635 151 127 81
0.04100497006074072 -0.5182440267368671 -2.2102732871574697 151 127 81
0.04098823800228457 -0.5185599681055268 -2.216146756077276 154 130 82
0.04132730291498515 -0.5184816437149351 -2.2224756629565743 153 129 81
0.04085541364297335 -0.5193032618042687 -2.227792431910327 152 128 83
0.04075129453469345 -0.5197173048832564 -2.233579142199843 150 126 82
0.04179707172283448 -0.5188567808566682 -2.240830959661164 142 119 75
0.038804250471033974 -0.522474121332155 -2.2429649535671214 137 116 73
0.030213120962244433 -0.5322960604424949 -2.2379526730958945 139 120 79
0.02792626998433123 -0.5351288561117289 -2.2409458455651987 134 116 80
0.025107518994596845 -0.5385506649151672 -2.2432503113489095 127 109 76
0.02072300694805279 -0.5437066232745004 -2.243532652082368 123 107 75
0.017742381199912005 -0.5473063766256919 -2.2456015234791065 114 99 69
0.01630482770426256 -0.5491964880871194 -2.2496509053424885 95 85 56
0.01367595056314097 -0.5524057695390547 -2.2521563119544616 92 83 58
0.013855239520489115 -0.5525053330435734 -2.2582972872081153 104 94 75
0.014811740639137205 -0.5517449689762761 -2.2654592340202813 126 118 105
0.014046782783632528 -0.552890772986238 -2.270389577083923 151 146 140
0.011455160641750506 -0.5560582861398945 -2.2729330529090417 173 170 168
0.009485453987643444 -0.5585371587620316 -2.2762828493461518 186 185 184
0.006648724281485108 -0.5619749960558915 -2.2784871152692525 195 195 195
0.005625425257672068 -0.5634062976282675 -2.283071397846578 198 200 199
0.005729771381250304 -0.5635904851354684 -2.2891477275233374 202 203 205
-0.00406645893907559 -0.574723456089437 -2.282109918616368 205 206 208
-0.02208158426092896 -0.594940689933996 -2.264090476599588 207 207 209
-0.07521379675466039 -0.6539732855511917 -2.1991652749960746 208 208 210
-0.07303424083934443 -0.6518513882976049 -2.2077690753112234 210 210 210
-0.08576748171556842 -0.6662112402175671 -2.1964231027456806 211 211 211
-0.08473091651460257 -0.6653520180578865 -2.2034865966873007 211 211 211
-0.11909642939386542 -0.7036050861317708 -2.1629053861332714 212 212 212
-0.12273195694521336 -0.7079020040397523 -2.163570143488726 212 212 212
-0.25752960778233497 -0.8709471385531611 -2.262043346553598 217 217 217
-0.2594163421897022 -0.8732900844853281 -2.2646275378295546 213 213 213
-0.2617092977200159 -0.8760773557689991 -2.266576456129863 214 214 214
-0.2640127277043092 -0.8788756239964859 -2.268499875382188 217 217 217
-0.2666018649384429 -0.8819860383667861 -2.2699693343443412 217 217 217
-0.9658665378136206 -1.6536587087864354 -1.3115156775752888 216 216 216
-0.9669955111398565 -1.6550378508960506 -1.3126097372358565 216 216 216
-0.9683318861748719 -1.656641822434132 -1.3133392734476035 216 216 216
0.4161577196140812 0.038814562178240725 -0.021200109607479506 180 180 182
0.4146156904742163 0.03680551583445765 -0.0251508195944722 180 180 182
0.16252022963057178 -0.3110495117094102 -1.0624599039622142 186 187 189
0.20519787533915387 -0.26229181960127546 -1.0911635010906044 187 188 190
0.2141911392580714 -0.25220580482190696 -1.101012837162286 187 188 190
0.5255663805559516 0.10295952702035505 -1.3219246551610542 190 191 193
0.5248499349062388 0.1018599339756261 -1.3271111725621312 191 192 194
0.5122964431773551 0.08718890459543283 -1.3253051179954256 192 193 195
0.5238681438932951 0.10017742195042978 -1.3377612243530073 192 193 195
0.2560260394860002 -0.2073643482021983 -1.1887098284588407 194 195 197
0.17578956657547962 -0.2995625412491526 -1.1454512917063124 194 195 197
0.17609170920282444 -0.2994528227397554 -1.150403072591586 194 195 197
0.07773440920348981 -0.41238379639611544 -1.0955697186153255 194 195 197
0.07468298584571169 -0.41610444406639047 -1.0982465662977343 195 196 198
0.05224013320945031 -0.44203773163014043 -1.0890635616487458 196 197 199
0.07614206672454958 -0.414882915901984 -1.1082104371826156 197 198 200
-0.06021990605152548 -0.5712785908985842 -1.028738276954804 198 199 201
-0.053499844402783055 -0.5637917855947312 -1.0371022249524295 198 199 201
-0.04848494527599327 -0.55825934942778 -1.0444460139149996 199 200 202
0.4382170607328633 -0.01526987328617524 -1.6349633409882163 214 215 217
0.42932960667551673 -0.025675339391850183 -1.6340651731809297 214 215 217
0.4168900266441648 -0.04012155895979974 -1.6304265783705971 214 215 217
0.40570602961775054 -0.05313595002782401 -1.6276854941287953 213 215 215
0.3947762836405527 -0.06585838925011378 -1.6250855833521891 214 214 217
0.3871837329442338 -0.07478142856553449 -1.6249969032162004 200 198 198
0.37666219251493266 -0.08703476913035824 -1.622616315611418 146 142 133
0.3576111382645943 -0.10898757483227173 -1.6135875103233828 124 113 99
0.34679863022816765 -0.12156571246773629 -1.6108574970366154 126 108 89
0.33651427135515166 -0.1335406716674722 -1.608486999122929 125 104 80
0.3322630499606585 -0.13865321061236924 -1.610783718614625 131 111 82
0.32203327996023684 -0.15056204740840196 -1.6083741789206636 130 109 80
0.31137934223794594 -0.1629506398180166 -1.6055817335890412 128 107 79
0.3025623164310601 -0.17324876845118098 -1.6041889458217633 134 113 83
0.29290866801277726 -0.18449567072373163 -1.6020915426797901 125 106 74
0.2851302126621689 -0.19360937098572595 -1.6014396420691206 128 108 77
0.27753898511549807 -0.20250855751998054 -1.6009013103822227 131 110 79
0.26779362027538633 -0.21385332511148125 -1.5986027216840635 129 108 78
0.2611883100717912 -0.22162878717902867 -1.5987809477779082 127 106 77
0.2555445048744216 -0.22831067985146447 -1.59970498661289 126 105 76
0.2485588262370575 -0.2365153146201061 -1.599518798852245 124 103 74
0.24262405590760222 -0.24352501200875548 -1.6001541242520305 125 104 75
0.23004021675479186 -0.2580828578327907 -1.5953459592533337 129 108 79
0.2248553330591686 -0.26423772603417006 -1.596523740911408 130 109 80
0.2195919155086934 -0.27048064959177903 -1.5976150902154829 126 105 76
0.21462515667243448 -0.27638575041763125 -1.5989281314457264 118 97 69
0.20821545257068397 -0.28392735945376074 -1.5990285876444303 121 100 70
0.20235380850887463 -0.29084563558121784 -1.5995542421542912 123 102 71
0.19920537186624032 -0.29468425977902357 -1.6023098767592576 123 100 69
0.19715014304619355 -0.2972821607841948 -1.6059666941508732 119 96 66
0.20133772156357577 -0.29279856253813746 -1.6148443792211749 105 84 56
0.19633195774453194 -0.29874326516560373 -1.6160311612599985 107 87 60
0.19388567837304427 -0.30178438088976095 -1.6193534478838172 106 86 58
0.19411310232547996 -0.30179346583478234 -1.624929342306272 103 84 56
0.19220490615560964 -0.3042242122559707 -1.628701686177728 103 83 58
0.1878024527761598 -0.30948228099423436 -1.630347209008291 113 94 72
0.1855785978034586 -0.3122700779270772 -1.6338350865280655 119 101 83
0.18139509631514256 -0.3172785185286038 -1.6356382874849762 128 112 98
0.18016093079665413 -0.3189439633935258 -1.6399598436152556 128 117 104
0.1781007480863942 -0.321545319147354 -1.6435688642647934 150 145 138
0.16881111676039184 -0.33233674905792915 -1.6409177804901387 213 211 210
0.16024742612928766 -0.34230357963870495 -1.6388509753411047 215 217 219
0.36716358508628366 -0.10820974647863801 -1.82440935938159 215 217 219
0.4226337895073573 -0.045685255225900834 -1.878822895428414 215 216 218
0.39963697038629825 -0.07202863080492417 -1.864774244460388 216 217 219
0.38793090376639694 -0.08558244456141273 -1.8605320761721593 216 217 219
0.3908643652592242 -0.08256045781067434 -1.8691476295728766 216 217 219
0.381274259168467 -0.09371537367439242 -1.8667019038527457 216 217 219
0.3767210883875441 -0.09916724986360625 -1.8686820212017299 216 217 219
0.3655299896014026 -0.11212993635758761 -1.8647298417016847 216 217 218
0.35342081037444417 -0.12612862023703175 -1.8599005104730868 217 217 217
0.34907351254728675 -0.13134281146587856 -1.8619690293782671 214 214 214
0.3430477352301397 -0.13845485126273893 -1.862510278377618 212 212 212
0.34010870564082696 -0.14207423019772714 -1.8658099785973927 213 213 212
0.33512005679425605 -0.1480111076549322 -1.86724478538396 208 207 205
0.33396530338994773 -0.14961164108154268 -1.8721403300306738 197 194 193
0.32644124492643334 -0.15841358969983343 -1.871233769199977 187 182 179
0.3178038726368351 -0.16847234819093748 -1.8692736828158065 177 171 166
0.31033353076301023 -0.1772098477682893 -1.8683411424078202 172 166 160
0.30176945858014464 -0.1871817117745198 -1.866366796256309 168 160 153
0.29773584540055814 -0.1920317874230859 -1.8685304928764521 160 151 143
0.289959284684371 -0.20111029143472203 -1.8672137341813932 153 143 134
0.2835034202734365 -0.2086948363603507 -1.8670855006284435 150 139 127
0.2853661272935369 -0.2068810022325437 -1.8746754526851415 149 137 124
0.2797690733075505 -0.21349374931703446 -1.8753136359747509 145 134 121
0.26603330676744674 -0.2292965967823385 -1.8682982093485023 143 130 114
0.26652909394275154 -0.22902567311878586 -1.87459075829345 144 130 112
0.2453229358610876 -0.25325776732298455 -1.8604252455697599 140 127 107
0.24124235581269193 -0.2581509805802722 -1.8623451952356256 137 122 103
0.2352111434604161 -0.2652451589809838 -1.8623973674287342 138 121 101
0.23014574033698226 -0.2712479249787467 -1.8633409131048453 139 122 101
0.22509991027707754 -0.27722749158309357 -1.8642807262262133 139 122 102
0.21960031780673656 -0.2837179372140868 -1.8647635326160232 139 122 102
0.22765946841731965 -0.2749105809057968 -1.8782491597744013 135 118 98
0.22750830697198787 -0.27536737698357083 -1.883876774249214 132 115 95
0.2242308209207065 -0.2793506047675075 -1.8864885277569188 133 115 94
0.2223299774883854 -0.28178076064643853 -1.890423310805527 133 115 92
0.2179996884917227 -0.2869501246135473 -1.8919911364875661 132 115 90
0.21400931749262836 -0.2917353478511123 -1.8938723494947496 135 117 92
0.2100258702012907 -0.29651195894348104 -1.8957440611924103 134 115 91
0.20650224826349417 -0.30076947691824785 -1.8980508951802786 135 115 91
0.20224115621786765 -0.30585744391744907 -1.8996180323956782 132 111 87
0.19915871346965242 -0.30961636835167605 -1.9023312541640478 126 104 80
0.19836369493680017 -0.31079752531462135 -1.9072995044582217 124 102 78
0.19965659283106718 -0.3096266887049287 -1.9143451087809706 122 100 76
0.1964911394761591 -0.3134784739067613 -1.9169626534551791 125 104 76
0.19508542647792265 -0.31534778870039437 -1.9213278052292588 128 107 80
0.1931970949368083 -0.31776053256969083 -1.925208132036078 125 104 76
0.19281201616887034 -0.3184805033288576 -1.930596393471716 123 102 74
0.19747590378009727 -0.3135166214608964 -1.9410827138241853 123 102 74
0.19428344701424294 -0.3173979857727288 -1.9436564587303589 123 102 74
0.19003380427113548 -0.3224686284831947 -1.9451457125904823 123 102 75
0.18611667973589052 -0.3271641725350257 -1.9469552362953773 124 103 74
0.18308769110062456 -0.3308595872975445 -1.949655198380777 125 104 75
0.18129505858158962 -0.3331635090804317 -1.9536101870822868 122 101 72
0.17908070829584583 -0.335941655108974 -1.957128815453099 117 96 67
0.1769707265355327 -0.3386021216864613 -1.960749055556344 118 97 68
0.17510584663149203 -0.340986687981195 -1.9646172263733725 117 96 67
0.1733890238102067 -0.3432045859811535 -1.9686350217757793 115 94 65
0.1711760571325508 -0.3459801508309147 -1.9721344050672418 116 95 66
0.17153870658550185 -0.3458600762744221 -1.978312080739937 118 97 68
0.16935161177979763 -0.34860636604704526 -1.9818345639804356 118 97 68
0.1638323110064538 -0.35509721238531655 -1.981858127372826 117 96 67
0.16157185934701435 -0.35792485094447596 -1.9852816877006823 118 97 66
0.15987403343178325 -0.3601200536103567 -1.9892922537773912 118 97 66
0.15859407387994257 -0.3618456968811425 -1.9937419291128544 120 99 68
0.1568835067948654 -0.36405499669564306 -1.997734665763778 119 98 67
0.155214924302442 -0.3662170017126109 -2.001769173720224 120 99 68
0.1539090200428503 -0.36797161932046035 -2.00618795715997 120 99 68
0.15257949804652093 -0.3697527346175411 -2.0105810806922904 118 96 65
0.15088633870139928 -0.3719420451448824 -2.014583477047506 110 87 56
0.14902861672403356 -0.37431593067882635 -2.018405983710899 98 75 44
0.14639191709079835 -0.3775638720102233 -2.0213839595998064 103 80 48
0.14516137892888237 -0.3792334662438715 -2.025875205783558 108 85 53
0.14575373679144427 -0.37885779344527515 -2.0323452225760663 109 86 54
0.14524203850438472 -0.37972125720785604 -2.037624824004423 103 80 48
0.14403072204772865 -0.3813696950175135 -2.042145205673528 97 74 42
0.1414451296301833 -0.38455942624858724 -2.04516114576914 109 86 53
0.1392432867214622 -0.38731841508812476 -2.048590016770957 113 90 57
0.1366005142261542 -0.39057148077652604 -2.051527332911941 107 84 51
0.1350014372049808 -0.39265406735082425 -2.055608367888289 110 88 55
0.133284093201892 -0.39486910740988207 -2.0595561704673098 111 91 56
0.1313077379259721 -0.3973742835935451 -2.0632133083585904 107 87 52
0.13005582908616348 -0.39906742336873746 -2.067672642595671 103 82 47
0.12700075402389288 -0.40278088220919384 -2.0701179277211095 107 84 50
0.12266714202029344 -0.40792608225746846 -2.0711196575097715 112 89 56
0.12289949386583787 -0.4079558971138349 -2.077230451164054 114 91 59
0.11941117607358626 -0.41215317225238585 -2.0791595334244586 112 89 57
0.11778725051867905 -0.41426198836079814 -2.08318031606089 109 89 55
0.11697115798540253 -0.4154661967524566 -2.0881137247272745 105 85 51
0.11594651020708452 -0.4169040122358504 -2.0928128931029715 97 77 43
0.11573902692618337 -0.4174272200000649 -2.098444291098695 102 82 49
0.11426224063880158 -0.41937131793511756 -2.1026322621014635 99 79 45
0.11126071183457442 -0.4230215416836576 -2.1050720097929223 103 83 49
0.11123229130426993 -0.42334473889690083 -2.1109158444416347 109 89 56
0.1079357849212445 -0.4273243014262082 -2.113002672095418 111 91 58
0.10488302190675652 -0.4310305722673788 -2.115357824077158 109 87 54
0.10111836778752537 -0.43553242256228963 -2.1168766136004127 121 98 64
0.10138616822852409 -0.43552431992309837 -2.1230633037757025 119 96 62
0.09939759667466719 -0.43803944098902564 -2.126631321987454 118 96 61
0.09664631161823167 -0.4414069518293064 -2.129303538544167 113 91 54
0.09244503524443004 -0.4463946776038138 -2.1302675162163345 118 96 58
0.08944396472437277 -0.4500401326633602 -2.1326219631880985 119 97 58
0.09817006310661519 -0.44058095015984194 -2.14877724927848 122 98 60
0.09663072208556489 -0.4425940357526155 -2.152873157361343 122 99 60
0.09580861396282353 -0.4438058103153295 -2.1578165070703976 131 107 66
0.08431161190820446 -0.4569407957418052 -2.150085399738537 138 113 72
0.08245671935313692 -0.45930448800034673 -2.153769435482502 141 116 73
0.08009228054106493 -0.4622369380858871 -2.15684092673618 144 119 75
0.0674004805118944 -0.47669890997905795 -2.1475393527376503 134 106 65
0.07306426298439522 -0.4706672116930787 -2.1602011335059905 129 101 62
0.07665922488970212 -0.4669467959369851 -2.1704173642820286 143 115 74
0.07385804007339669 -0.47036575002564224 -2.172943784422341 148 121 77
0.06932219739480772 -0.47571970464893193 -2.1733600550677297 148 121 77
0.06648551729323798 -0.47917694673339367 -2.175816943254646 148 121 77
0.06748936661148691 -0.4783496915221609 -2.1829374393767207 142 117 73
0.06531154388732774 -0.4810716827045126 -2.186189765975933 139 115 71
0.0631497694227145 -0.48377546497831625 -2.189455420171866 140 116 72
0.06096314624486404 -0.4865066445595579 -2.192684367623365 141 116 72
0.05829315690489173 -0.48977636699332616 -2.195312224724312 146 120 76
0.05395357806090717 -0.4949066075744639 -2.1958707891552787 151 124 78
0.05021160939224584 -0.4993697966473237 -2.1971478368141235 156 128 82
0.051362136227536215 -0.49838038448553984 -2.2044762230544483 157 129 83
0.049583088416455534 -0.5006557318691096 -2.20817708831113 150 125 79
0.04524130353573169 -0.5057857351244082 -2.208678557114293 142 118 72
0.0443213030503542 -0.5071034656663118 -2.2134374371433965 140 116 70
0.041544581019093196 -0.5104890317148809 -2.2158706010285307 141 117 71
0.028763131274470388 -0.5250141769405665 -2.205717232781852 152 128 80
0.02955893256596287 -0.5244196880180424 -2.212598559768657 163 140 90
0.028399176753232835 -0.5260026956590405 -2.217022054141812 156 132 85
0.030668201000545514 -0.5237695446969158 -2.2257904765095162 149 125 81
0.03273054202249043 -0.5217675567828759 -2.2343197602665295 141 118 74
0.02954643815563357 -0.5256041148854844 -2.236187986809199 143 121 78
0.027055571490372687 -0.5286687989421113 -2.238928308039406 140 121 79
0.021493892970760875 -0.535148758247568 -2.237727456209685 137 117 80
0.01877407570012607 -0.5384666927186452 -2.240146058027687 129 110 76
0.015829867806887887 -0.542033635369817 -2.2422655160336276 131 112 80
0.013000349965813895 -0.5454724789782467 -2.24452120384914 127 110 78
0.01211033633154851 -0.546754744969089 -2.2492759385638723 104 93 62
0.009510628444059088 -0.5499373918962195 -2.2518143069138206 96 86 59
0.008925522379059858 -0.5508807372137219 -2.25696418904838 99 87 67
0.009275774298975914 -0.5507849863638673 -2.2633384170754804 114 104 86
0.00799944071874481 -0.5524968377850614 -2.2675959387957496 138 132 120
0.005074607394877639 -0.5560398053309907 -2.2696913141877104 162 158 153
0.002391368051312681 -0.5593138679604118 -2.2720925131988485 179 177 176
-3.153979818582009e-05 -0.5622983408863582 -2.274826701400246 190 190 190
0.0003658632995369726 -0.5621510607390261 -2.2812798160817227 196 198 197
-0.003209535223380522 -0.5664145730565155 -2.2824798068653256 200 201 203
-0.01004787456584566 -0.5742989371465625 -2.2793286074387 204 204 206
-0.08722419907231735 -0.6602401544166401 -2.1824513569310353 207 207 209
-0.07118187614178956 -0.642720296846678 -2.2095339021771045 208 208 209
-0.07281206260470993 -0.6448126469739495 -2.2130741654642283 209 209 209
-0.08083069679270813 -0.6539912293023393 -2.208035578874895 210 210 210
-0.08814574919083801 -0.6623871180555019 -2.2038961865620728 211 211 211
-0.1221260217855539 -0.700350115965936 -2.1637342004484643 212 212 212
-0.12351931986618112 -0.7021714871017958 -2.167426881335564 212 212 212
-0.262312781728993 -0.8699579869068028 -2.260011774207533 217 217 217
-0.2564803631879431 -0.8638206564999582 -2.2745420325073042 215 215 215
-0.26052985820920493 -0.8685445256223386 -2.273783999815095 217 217 217
-0.26817338303414506 -0.8772158612769962 -2.2674106483433762 217 217 217
-0.9707529375793076 -1.6556593414825822 -1.3062720410622743 217 217 217
-0.9719887669428127 -1.6571567808387686 -1.3071660679909096 217 217 217
-0.9732225434266197 -1.6586517154685403 -1.3080582614011795 217 217 217
0.42065550821285247 0.05081843858789384 -0.021175317394410198 180 180 182
0.42094004250109796 0.050959820972195286 -0.02515854008626006 180 180 182
0.16044057579596702 -0.3067317918567113 -1.0632695379878996 186 187 189
0.2022421302929502 -0.25882700204763115 -1.0915285389053182 187 188 190
0.20651463091550454 -0.2541400047371124 -1.0987129462569893 187 188 190
0.508862605905295 0.09179233107968898 -1.3146014748535626 190 191 193
0.5180250029354847 0.10205925084661016 -1.3255826101403918 191 192 194
0.5204820179539738 0.10461179608470006 -1.3326459248070082 192 193 195
0.523244069369126 0.10751419828780695 -1.3399096288324073 192 193 195
0.24187249400169447 -0.21653558623458058 -1.1824640118347127 194 195 197
0.1828090077758706 -0.28490967541922185 -1.1566369502294676 194 195 197
0.057475734040252385 -0.42919656640085946 -1.0853384191319628 195 196 198
0.061395773514021396 -0.4249104171852498 -1.0922214563911898 196 197 199
0.06226851016873179 -0.4241271888535907 -1.0972639820289078 196 197 199
0.07036914754171233 -0.41503966058004327 -1.106759901703222 197 198 200
