ply
format ascii 1.0
element vertex 689
property float x
property float y
property float z
property uchar diffuse_red
property uchar diffuse_green
property uchar diffuse_blue
end_header
-0.30152222831306696 0.21969410052124227 -1.9203219396475402 85 64 32
-0.300386509617455 0.2195590640366067 -1.9269796221777342 86 65 34
-0.3001300192788183 0.2196354572801178 -1.933016283743518 80 59 28
-0.2997508629278409 0.21968263590055873 -1.9391515937119435 78 56 24
-0.3033418546086734 0.22068290842773414 -1.9424141898649268 80 57 26
-0.3071473845346827 0.22173449626586292 -1.945513585062086 80 57 26
-0.3108048979118387 0.22275038886177584 -1.9487132269665417 78 55 24
-0.3134570304076974 0.22352497117604447 -1.95264231546173 80 57 26
-0.315571838540405 0.22417063738395776 -1.9569634535221554 90 68 37
-0.3169913497055528 0.22464959776642168 -1.9617966289824336 89 68 37
-0.31878037359936545 0.22521718803081964 -1.9663591581045725 87 66 35
-0.3206305348780101 0.22579945129411008 -1.9708772819147435 86 65 34
-0.32575227623844916 0.2271655646304533 -1.9729627633162985 86 65 34
-0.32805972693803387 0.22785722626827232 -1.9771338509760785 83 61 30
-0.3340379127501096 0.22942794000918978 -1.9785571336721384 81 58 27
-0.33106860255890047 0.22885591820302392 -1.9866771014833002 80 57 26
-0.32682077502598245 0.22797836520647805 -1.9957813875122363 78 55 24
-0.33974257896493926 0.23121063102945064 -1.9919527588449493 75 52 21
-0.33823766982153736 0.23098979968322156 -1.9989978038192768 77 54 23
-0.32721256834310297 0.22849189499257053 -2.0132873686041552 78 55 24
-0.3356015785580228 0.23063862708324312 -2.012850182341572 75 52 21
-0.3399626963773432 0.23182154898025548 -2.0154609162565023 72 51 21
-0.3351331044405176 0.23080705471332735 -2.0251015090658138 99 76 41
-0.341889455031644 0.23256245083702895 -2.0258714902273254 105 82 41
-0.33453913751077613 0.23094644306391823 -2.037489745185998 132 107 64
-0.34339818502126856 0.23320392414528573 -2.0366237918494483 155 124 84
-0.34380628852473877 0.23344215484133812 -2.042276755410556 133 109 72
-0.3417676090327672 0.23309626779294812 -2.049838811128166 91 69 33
-0.3423910611238022 0.23338638294005365 -2.0553438740239667 86 64 28
-0.3422543475687669 0.23349520095793 -2.0614495321400534 78 55 22
-0.3488135862657955 0.2352021580278425 -2.062314667809242 82 59 27
-0.34534769402773935 0.2345167867039902 -2.071042574200248 81 58 26
-0.3432351810840198 0.23415482565913184 -2.0787280645901283 77 54 22
-0.35120885617702485 0.2361986328316497 -2.078454956646208 82 59 27
-0.3481228739202837 0.23560491894903532 -2.0869272356431887 83 60 28
-0.3524958764500526 0.2367897479653304 -2.0894892517587613 94 72 40
-0.35661022622253336 0.2379126813759301 -2.09224681574228 78 59 30
-0.35941181802958766 0.23872260812212825 -2.096045047406888 91 71 36
-0.36486321334332333 0.24016365127101097 -2.0977135161245917 128 102 60
-0.36668967248053397 0.24074103223575233 -2.1022830465132225 143 118 81
-0.37306808108176565 0.2424022453872438 -2.103180089823098 109 85 53
-0.3787792626571325 0.24390415348660555 -2.1045969413006196 82 62 28
-0.38264872348599566 0.24496734721436758 -2.1074913961823274 80 57 22
-0.38397861027541913 0.2454260834552014 -2.112444194910549 83 60 26
-0.3818719599788752 0.24506740830515686 -2.120205107613219 83 60 26
-0.3825933354351949 0.2453817599274909 -2.1256702100064104 80 57 23
-0.3865545296139569 0.24646658650021483 -2.12848178602702 78 55 21
-0.38952712590796384 0.24731619283553635 -2.1320980711934516 76 53 19
-0.3944338555107265 0.24862536040743924 -2.1341131349858538 78 55 21
-0.3943267597246848 0.2487428941414956 -2.140265451014601 81 57 22
-0.3940910902280202 0.24883011769907792 -2.1465343746134553 84 60 24
-0.39583956175454416 0.24938881287786252 -2.151161875290672 85 61 25
-0.39853147454623955 0.25017154706408695 -2.1550028923267472 89 65 29
-0.40209517595843336 0.2511611542116525 -2.1581107670304207 86 61 26
-0.4076643941587726 0.25262655561422603 -2.159527445380705 87 64 28
-0.41123336428533175 0.2536169545958711 -2.1626114482810883 91 69 32
-0.41091445261544984 0.253684904087898 -2.1689706921980223 87 65 28
-0.4159984254194532 0.2550344710754485 -2.170766306553437 83 62 25
-0.41794790789678726 0.2556404866092121 -2.1752086925374545 86 62 26
-0.42117079519843675 0.25654836845937923 -2.178567086066452 82 58 22
-0.4246167312031298 0.2575089742922416 -2.1817292167152553 82 58 22
-0.41517294867032906 0.25541535258557524 -2.195920528832903 85 61 25
-0.421803804568332 0.2571308070304258 -2.1963650798892154 91 67 31
-0.425745525958275 0.25820888485256777 -2.199102789113248 91 67 31
-0.4290593977433607 0.2591380884245738 -2.2023732753719583 92 68 31
-0.432650902930315 0.2601328629312445 -2.2053971063657176 100 77 36
-0.43634572835894186 0.2611519086356516 -2.2083235991550145 97 73 32
-0.43994701644204026 0.2621486311501703 -2.2113233656313853 103 78 38
-0.4450390758228767 0.2634978026842536 -2.21301402910204 106 81 39
-0.44736104573131874 0.26419153502467985 -2.2171146084769444 100 75 36
-0.44967719801928363 0.26488385440552725 -2.22121870388267 96 72 34
-0.4528962788951002 0.265789563907148 -2.2245264774288844 96 73 32
-0.45726529673435096 0.2669668805537471 -2.2268133524155003 100 77 36
-0.4608576810314871 0.26796043955037896 -2.2297760485678166 101 78 37
-0.46131464659611604 0.2682132275336118 -2.2355135558884403 100 77 36
-0.4660925702840055 0.26948655561369694 -2.237413266508665 98 75 34
-0.46843988875367343 0.27018573222366343 -2.241468318553101 98 76 35
-0.4704808517167582 0.27081255884253297 -2.2457957330080554 98 78 37
-0.47542859860128656 0.2721252943632987 -2.2475148369654234 104 83 46
-0.4778326641391221 0.27283760116256145 -2.2515079288802253 100 83 54
-0.4705585282938752 0.27126720794058 -2.2642299287625534 106 95 76
-0.46277383162112773 0.26957749824334215 -2.2774592460764023 143 139 127
-0.4864331431952073 0.27573851118925347 -2.2807487231660706 204 203 207
-0.4941421825055077 0.27770016930537844 -2.2798774761203897 206 205 209
0.09385366656552213 0.09875221810762523 -0.8935661157363329 167 160 155
0.0822772249759724 0.10174843953248923 -0.8950501886613622 125 111 93
0.06857261587571062 0.10527288341868248 -0.8958743664360604 139 120 94
0.05815357102816049 0.10797991256951861 -0.8976380389331499 141 120 89
0.05038918922022195 0.11002666887839097 -0.9001682395071628 140 120 88
0.03913509795484027 0.1129399491846998 -0.9016312095501242 130 110 80
0.03346987199841789 0.1144642431734314 -0.904752826841742 80 65 44
0.029985921862692277 0.11544650669348334 -0.9085249511671235 72 56 39
0.02510396199423298 0.1167758049207359 -0.9118652895115977 87 71 54
0.01911803079577845 0.1183789703869092 -0.9148573543744527 96 77 59
0.017489612722597414 0.11890009607223127 -0.9191806855834589 91 72 51
0.014063791404871184 0.11986736830489063 -0.9229475728787313 84 70 45
0.01170787719944022 0.12056900920284286 -0.9270431286306435 90 75 52
0.012535390039213723 0.12048072305143878 -0.9321347264516872 97 82 61
0.008581422784792625 0.12157887748756223 -0.9357293255719594 94 79 59
0.007635334505503466 0.12193077313374906 -0.9402695092419588 90 75 55
0.005631684347650712 0.12254503037177672 -0.944476364193414 92 77 56
0.004099344917403047 0.12304241016938366 -0.948833671224337 88 73 52
0.008787112892409354 0.12199766337573487 -0.9551914063874507 85 70 49
0.007781490443150851 0.12236477999248434 -0.9597314726792845 95 77 55
0.006589463150271313 0.122778169909089 -0.9642140128738393 97 79 56
0.018363686826131154 0.12021589510751493 -0.9827344726212799 73 54 30
0.0265655406079785 0.11830331222340396 -0.9903626253007333 62 46 22
0.08224049208634937 0.10512277812548235 -1.0339790299713651 59 40 17
0.08349243892745084 0.10493541824221617 -1.0394612304359512 64 44 19
0.08621059826553518 0.10438555220349752 -1.045456513648665 65 47 22
0.08575860146436948 0.10462028359836077 -1.0503758213693324 68 50 26
0.08786542274960307 0.10422224990003036 -1.0561854649207485 75 57 33
0.09158069921248818 0.10342677996093425 -1.0625677925050308 69 51 28
0.09098391264367833 0.10369795182017627 -1.0674629665959832 64 49 28
0.08958895006845147 0.10416655815836091 -1.072082691955688 66 53 34
0.08819320025247057 0.10463540780770662 -1.076704151433573 64 52 37
0.08723530028998089 0.10499609802394187 -1.081482732558377 57 45 30
0.0878222723167128 0.10497514217131294 -1.086814632469816 56 44 32
0.08931720923608161 0.10473007841651853 -1.092479836857479 41 32 22
0.08580487950388682 0.10572216379193136 -1.0963578523160342 34 27 18
0.08171682613302816 0.10685631586518402 -1.100023041270512 29 22 15
0.08446501186062266 0.10630220441902569 -1.1061600551542745 26 20 14
0.08377743092737117 0.10659674425133216 -1.1110614405358201 22 17 13
0.08309360909919217 0.10689046337438213 -1.1159686289183872 21 16 12
0.08162783556622716 0.1073772847809718 -1.1205927969676368 22 17 13
0.08470250954791703 0.10674370157779314 -1.1268956350958497 24 17 12
0.08704801789277011 0.10629044006740071 -1.1329450816747606 24 19 13
0.09037517982734145 0.10559537154556944 -1.1393750749614207 17 15 11
0.08548751044480057 0.10692691195796725 -1.1427477069847 11 11 7
0.08513068868263207 0.10714087833921465 -1.1478145221489895 13 8 4
0.08344331380021469 0.10768305010401619 -1.1523843334723516 45 37 30
0.07140076840581616 0.11077805719317046 -1.1530259707404786 85 70 52
0.06699891980287243 0.1119889314344035 -1.156545822695256 121 104 74
0.061838747917556225 0.11338649205132804 -1.1597672231550178 151 133 95
0.05702956474536092 0.11469730877366786 -1.1631128722029123 112 94 54
0.05470868942597762 0.11539487425961557 -1.1674100979503708 105 86 53
0.05272178662376148 0.11601014999586905 -1.171835818203316 102 84 55
0.0512407326630156 0.1165008481431173 -1.1764587186366278 92 75 45
0.04484647445797907 0.11820139748928918 -1.1791604654610781 94 77 45
0.03970084305408639 0.11959417757114528 -1.1823380063140594 103 86 52
0.03537761226758612 0.12078426015817108 -1.1858294587155764 98 79 47
0.034758053668554556 0.12106263386332594 -1.190781554650602 91 72 40
0.031053826756378855 0.12210016582458166 -1.1945099246503479 99 81 45
0.025778771354302843 0.12352402329886064 -1.197604134195704 100 84 42
0.020515192442633223 0.12494478402022804 -1.2006916537544816 107 88 45
0.010821348047294232 0.12745487006595593 -1.2019806044282264 88 67 25
0.005572608610586727 0.12887124904260622 -1.2050438859779737 98 79 37
-0.0010235606664507624 0.13061863439642046 -1.2075476283323043 93 77 36
-0.006896546643809287 0.13218786083029932 -1.210330896812377 110 93 50
-0.017251655111172937 0.13485836025827053 -1.2112613875331435 114 96 53
-0.025855981056883026 0.13709792714829983 -1.212884254381722 105 87 45
-0.03956641682613432 0.14059146615475665 -1.212370942728583 102 85 46
-0.055069769312476646 0.14452444373423473 -1.2110716020025285 98 82 46
-0.067803861299363 0.14777612491204237 -1.210880679321553 102 86 52
-0.0718727710072199 0.14889902531058324 -1.214283433332662 90 75 42
-0.08123211765889932 0.1513206693673797 -1.2154524156015931 93 77 44
-0.08846842076264011 0.15322051839287537 -1.2174925654343676 121 100 64
-0.0920323490960388 0.15421857717587467 -1.22107244023219 111 89 52
-0.09583453691078803 0.1552749653519055 -1.2245450815553272 108 86 55
-0.09304409499549615 0.15471367461054963 -1.2308318135919007 122 99 66
-0.09405853097803152 0.15508616223205512 -1.2355005819823175 116 96 63
-0.09094628968876445 0.15444658967355746 -1.2419527633879788 114 90 61
-0.0841689635237946 0.15290868065846558 -1.250010301650964 76 53 28
-0.07761968456807966 0.15142743199060177 -1.2579995150341432 71 50 26
-0.07369717786426788 0.15059083640956955 -1.2648717700113834 67 48 23
-0.07132782362539863 0.150135417064666 -1.2710838849440191 75 57 33
-0.0724095267669807 0.15052606145604636 -1.2757921036017965 83 67 42
-0.07151407455493547 0.15043235934683946 -1.2813773794115944 75 61 34
-0.06999390447444148 0.1501858687744964 -1.2872500801490978 72 55 29
-0.06624707038165778 0.14939431709949075 -1.2941273591944786 66 48 26
-0.0658767364083413 0.1494300975173871 -1.2995145239406443 67 51 29
-0.05965594644002392 0.14803367358984507 -1.3075377989911177 62 46 21
-0.05633240901589265 0.1473471887969976 -1.3142839228729415 65 49 25
-0.05275764467149213 0.1465996766528937 -1.3211627963871082 55 42 19
-0.047852693360772636 0.14552714229040745 -1.3286662316408377 56 39 15
-0.04779280866658914 0.1456406164807137 -1.3339834998659237 74 52 21
-0.05228829497257759 0.14686860143964903 -1.3372211999077341 155 132 87
-0.07104649696248927 0.15158468156607946 -1.333889992441136 197 173 113
-0.08178981744812563 0.15497781256961718 -1.3605571989486778 132 103 60
-0.08895780271353215 0.15685692876127122 -1.3624626331145853 121 95 55
-0.0970123729139033 0.15895211232191886 -1.3639285168350226 102 80 47
-0.1014187837248684 0.16015595068976868 -1.3671097113047757 117 93 64
-0.11100836608747677 0.1626249710503837 -1.3678039517939375 108 85 53
-0.11754039801229976 0.16434699393990473 -1.3699376979171705 122 99 64
-0.12097747171303241 0.1653132958405844 -1.3735457231253643 118 95 61
-0.12340931159315993 0.16603418682628504 -1.3776344545910628 126 101 69
-0.13192002818721482 0.1682380271029582 -1.378770577662491 130 104 72
-0.1300020868595687 0.16789759247892921 -1.3849641718649226 100 77 44
-0.1327482722800315 0.1686949390934223 -1.388890751681381 112 91 55
-0.1351585616592058 0.16941031563525294 -1.39297933263586 138 115 77
-0.13884513321340958 0.17043678302093695 -1.3964372793148114 152 125 87
-0.1451425779084458 0.17209945567273346 -1.3985973404658816 140 114 76
-0.15118195382786365 0.1736988499282937 -1.4008694467542577 126 103 66
-0.15674125140773099 0.17518090828482585 -1.4033656429861485 133 105 68
-0.16574293777079496 0.17750120723582163 -1.4041264690152035 150 120 77
-0.16978248909786736 0.17861231864633495 -1.407352448452259 143 114 74
-0.1712292366804759 0.17909186800210541 -1.4118772459103677 140 116 80
-0.17272762083811444 0.17958403369894282 -1.4163777692546342 143 123 84
-0.17674915861295987 0.18069042364667304 -1.4195989958357882 115 94 59
-0.17748623479584646 0.1809972727596419 -1.4244860370565129 125 102 62
-0.18089035965676975 0.18195320019629974 -1.4280135964695198 102 79 44
-0.1843625679262776 0.18292555823614715 -1.431500719969802 109 86 54
-0.18708111297073488 0.18371445759770136 -1.4353703574941776 97 76 41
-0.18902394212719037 0.18431463796788414 -1.4396381525579713 87 67 34
-0.19678763641029523 0.18633014068767606 -1.4408852417627207 85 64 36
-0.18697484613291399 0.18407225415307804 -1.4512646791366337 96 75 48
-0.19285884585866991 0.18563062614950462 -1.453483518914708 86 65 34
-0.1950052449459485 0.18628036562699637 -1.4576482245757032 97 76 44
-0.19639219735427355 0.18674556845471996 -1.4622119982277684 83 62 31
-0.19250682155222737 0.1859300818317341 -1.4695637619569162 73 52 25
-0.20169727901368673 0.18829087701989325 -1.4700035613821358 73 52 26
-0.20599129800861354 0.18946202530602807 -1.4730216823032496 59 38 15
-0.2074862194522371 0.18995339367649788 -1.477525844836337 54 36 17
-0.20627838756829237 0.18978875552387187 -1.483480404818366 78 59 35
-0.20800581460577922 0.19033675680978213 -1.4878680393643384 88 69 45
-0.2096353558010069 0.19086102672636018 -1.4923093291202376 108 89 64
-0.2074048209285121 0.19044889409121413 -1.4988430060756408 140 117 87
-0.20228367463524782 0.18933603821215894 -1.5069642162649979 91 66 37
-0.20279604823704195 0.18971981641374006 -1.5173997911271582 76 50 24
-0.20862722521834154 0.19126336346257267 -1.5195642413435455 74 50 24
-0.22110283811276543 0.1944169006885082 -1.5180501981090235 73 51 24
-0.21384329433860572 0.1927873420041605 -1.5274149221599194 68 48 21
-0.21781497944660771 0.1938796066501222 -1.53057928817815 56 38 12
-0.21853313233550198 0.19418360894920633 -1.5355485801911266 58 38 11
-0.2198871481282162 0.19464171575619302 -1.5401671164067832 116 90 55
-0.22452705165420045 0.19589547888609538 -1.542944400900895 149 122 75
-0.2286672011999452 0.19702800811027762 -1.545992568518635 144 113 67
-0.2264892663539983 0.19663115007633258 -1.5526015513305023 106 83 50
-0.21825574863488834 0.19476932124535976 -1.562659491788505 51 34 11
-0.22343353516207942 0.19615315555399454 -1.5651282017149957 61 42 21
-0.22758696461257566 0.19728890228727003 -1.5681690049868053 78 56 31
-0.22235622395505372 0.1961549454586048 -1.5765760884866822 86 63 33
-0.23411751198686942 0.1991302645168505 -1.5752456000096977 149 126 90
-0.23609622899332172 0.1997397356179555 -1.5795180873239767 114 93 61
-0.2417083869853855 0.20122740692374952 -1.5816879387257408 91 74 46
-0.24743517405120835 0.20274242893500474 -1.5837767958928963 122 104 75
-0.25314608744987965 0.20425325440973574 -1.5858599805071931 136 113 78
-0.2587465642354944 0.20573704253615346 -1.5879928339951739 160 136 94
-0.26243532685319426 0.20675878391257121 -1.591232524742879 131 110 73
-0.27568861533992156 0.21008981608441768 -1.5888362255948538 132 111 80
-0.2810925558914535 0.21152482726351796 -1.5910302015636528 128 103 71
-0.28811771670422237 0.21335080925969777 -1.5922497842857755 172 141 102
-0.29351988184482514 0.21478464407140335 -1.5944139358071912 158 132 87
-0.30089211383304015 0.21669345757669345 -1.595389099286547 127 97 55
-0.3068987373639573 0.2182723320453157 -1.5971597947237228 177 146 98
-0.314098447628637 0.22013854908334599 -1.5981977154910583 166 138 87
-0.3196117995250419 0.22159763371185104 -1.6002304763220911 190 160 107
-0.32386640787973 0.22275291742011022 -1.6030096826630058 194 162 110
-0.3271561265894689 0.22367540940797112 -1.6063646613365372 172 146 98
-0.3313540146280711 0.2248166147074665 -1.6091614501426088 131 108 70
-0.3340588203984615 0.2255978702298334 -1.6128605515837562 77 54 25
-0.33636027846452937 0.22628188908398472 -1.6168034787622745 92 69 38
-0.33545228194691457 0.22619293321254313 -1.6227171526632187 90 69 39
-0.339474074941483 0.22729125631098215 -1.625602627876269 79 58 29
-0.3401469824623613 0.22758318492246915 -1.6305511217997006 82 63 32
-0.33149664512814875 0.2256312805664486 -1.6412907839570603 81 61 29
-0.32455940607569606 0.2240926445471776 -1.6510066272665578 83 63 30
-0.3225628530714539 0.22374353642771228 -1.6576720807372294 109 86 54
-0.29587390148339066 0.21758843014835966 -1.685320974145507 117 94 51
-0.265539840391564 0.21042821250706695 -1.7099559030505205 114 91 50
-0.26500778671480674 0.21043522759267472 -1.715862827478664 107 83 48
-0.25819175377856424 0.20893221054245648 -1.7257696103903148 105 79 44
-0.25835208147942124 0.2091064046954398 -1.7312688815302477 107 81 46
-0.26215878728393954 0.21015678030893203 -1.7344455817519393 104 78 43
-0.27290457153575465 0.2128736630489193 -1.7331664460981369 95 71 37
-0.273351071894472 0.21311641050767466 -1.7384747439456563 95 75 40
-0.2681279107871935 0.21199808596053904 -1.747447216003549 105 84 49
-0.2676900851653427 0.2120291482198136 -1.753352141886583 117 94 59
-0.2697030080752149 0.2126486045704741 -1.757675753690621 108 88 54
-0.27445622974972345 0.2139255610198943 -1.7602142379632546 64 43 13
-0.28050122708091657 0.21551212041561374 -1.7618970806145666 63 42 13
-0.2794545841082179 0.21539742344561058 -1.768211774358517 83 62 31
-0.26249365728852375 0.2114669784834558 -1.7850043908872684 91 70 39
-0.26633388565786004 0.21252525886016793 -1.788153532870272 91 71 36
-0.2766477634128497 0.2151350004038889 -1.7870108104126334 97 77 38
-0.2744546826495138 0.21474677821871602 -1.794136249255758 99 79 44
-0.27628034441542104 0.2153218115021544 -1.7986028185070273 84 63 35
-0.27871512903913864 0.216042766659579 -1.802663109558495 67 47 16
-0.2803337332745876 0.21656821355096306 -1.8072684629238327 80 59 26
-0.2851171276470622 0.2178514527151086 -1.8097477863482885 77 54 23
-0.28541792799418203 0.2180613534023888 -1.8152382011190338 89 67 35
-0.2901279208850283 0.21932668204881178 -1.817753005982908 89 69 36
-0.27435407653472255 0.2156903608576787 -1.8341562155441393 91 71 38
-0.27977460534408527 0.21712616001006274 -1.8362075898985348 85 64 32
-0.2763684747799407 0.2164504697904306 -1.8442713884759654 81 60 29
-0.2752503792815195 0.21632246248359055 -1.8507909151947661 81 59 28
-0.29045688605360975 0.22009757351537285 -1.8461077464304667 83 60 29
-0.29276354271307786 0.22078796099888426 -1.85025873038156 80 57 26
-0.29354657796937533 0.22111421313547522 -1.8554616416021343 81 58 27
-0.2915857059115792 0.2207850153947294 -1.8625724262307506 83 62 31
-0.29122463665785214 0.2208383679481541 -1.8685872788792555 88 67 36
-0.2892128487866922 0.2204977453860374 -1.8757639223912586 87 66 35
-0.2905291979684688 0.22095217898955816 -1.8806284775001927 87 66 35
-0.2896956162851686 0.2208934675811019 -1.8870052040764183 87 64 32
-0.291335892482451 0.2214254625000538 -1.891652099273338 86 64 32
-0.2920251079363844 0.22173056346185546 -1.8969722662070798 84 61 30
-0.2928795762598285 0.2220752229411484 -1.902180990487355 79 58 27
-0.29471743341434714 0.22265454392125753 -1.9066958303899526 79 58 27
-0.29758383456966464 0.22347913954633442 -1.9104782346911193 79 58 27
-0.2982251125318835 0.2237731767696054 -1.915847724184355 82 62 30
-0.2982984848408018 0.22393199802889874 -1.9216303467552875 88 68 35
-0.3021728350983707 0.2249967720014276 -1.9246873399793434 86 66 34
-0.30317264324546134 0.22537651377289195 -1.9298100482808649 78 56 25
-0.30529506552211544 0.2260237547760583 -1.9341247404505406 76 53 22
-0.3035834165945242 0.22575795321055153 -1.941221732844454 80 57 26
-0.3042895923454931 0.22606818690700936 -1.9465747528667379 79 56 25
-0.3064845248539302 0.226732926526442 -1.9508463669766878 79 56 25
-0.30756560446713144 0.22713257455632602 -1.955932902825586 83 60 29
-0.3086114298803495 0.22752393271827487 -1.9610493792341606 90 69 35
-0.31058048139810185 0.22813500105446635 -1.965489857607524 89 69 37
-0.3153299442945589 0.22940730280856217 -1.9678758472587512 86 65 35
-0.3171447012630211 0.2299815445636225 -1.9724248667677702 85 64 33
-0.3232180140132549 0.23156810927285265 -1.9738089815674202 87 66 35
-0.32395844002595764 0.2318868410404104 -1.979151256468271 83 61 30
-0.3275016184579309 0.23287165082311573 -1.9824031908100683 81 58 27
-0.3395938676991527 0.23588712272786427 -1.9792362898986702 80 57 26
-0.33161488918777077 0.23413467752738332 -1.9911230009901868 78 55 24
-0.331801976103605 0.23432227241420306 -1.9968930323695173 75 52 21
-0.3352186235219619 0.23527672155660892 -2.0002273472165784 77 54 23
-0.33374840930268834 0.23507119950124633 -2.007264097552402 77 54 23
-0.33517297530010043 0.23555292585030363 -2.012112964473885 72 49 18
-0.33501693823707657 0.2356597551365195 -2.018171036938128 74 50 21
-0.33267108631087455 0.2352474571950644 -2.025915377970385 105 83 48
-0.3340239889700007 0.2357126698310139 -2.0308390454544445 103 79 40
-0.34091242515172965 0.23763462638159527 -2.0374646443249023 158 127 87
-0.3397460625247802 0.23750287603032647 -2.0443392240640192 126 98 62
-0.3407502011320472 0.23788566176453052 -2.0495418888288337 90 67 31
-0.3406788414645859 0.23801383201825968 -2.0555870648540444 84 62 27
-0.33703940332251686 0.237297347807998 -2.064429801856681 86 63 29
-0.34538605400392275 0.23941900279308906 -2.0639049000578917 85 62 28
-0.3486638810649973 0.2403402754481998 -2.0673350851193706 79 56 23
-0.3403718538390807 0.23852370066567496 -2.079879163028644 75 52 20
-0.3482393934889439 0.24053111582581382 -2.0796959664962156 80 57 23
-0.3447709273958008 0.2398567627719541 -2.088473095957951 84 61 26
-0.34959934379939295 0.2411448842005908 -2.0906786623962605 95 74 40
-0.3511862972187314 0.2416664022920616 -2.095455968536127 80 60 32
-0.36657936112482015 0.24545100735307263 -2.0891951563710065 113 92 57
-0.36722564965222965 0.245749581315176 -2.0946990543432777 131 105 68
-0.36756883614357905 0.2459767028363131 -2.1004529649324137 155 130 95
-0.3726471103327396 0.24732234481703516 -2.1023954511544742 107 81 47
-0.3726561844712305 0.24747068092363572 -2.1084240164393564 82 58 24
-0.38085520426408 0.24955262956725086 -2.10781840552881 81 60 25
-0.38614086147899424 0.2509462939188418 -2.1095540972369493 84 61 27
-0.37947994803086005 0.2495207186604455 -2.1210205138156275 82 59 25
-0.38021959322177007 0.24984191069950717 -2.1264726099188938 81 57 23
-0.38398022578775026 0.25087572698101995 -2.12945205325199 81 56 25
-0.38773592458375666 0.25190818212389593 -2.132427388646893 82 57 26
-0.39394442744218316 0.25351864195145335 -2.1333707596917724 82 58 25
-0.3951278755407147 0.2539443482597776 -2.1384523850187733 83 60 24
-0.3937425348603487 0.25376489419148945 -2.1456693330161714 84 62 25
-0.39423830463236514 0.2540289410390325 -2.151336846529087 85 63 26
-0.39747627722041007 0.2549389602061222 -2.1547231814201373 88 66 29
-0.4008669120715395 0.25588478297776895 -2.15797597271481 87 65 28
-0.40256534955224904 0.25643212032910345 -2.162642259938488 86 64 27
-0.40693430842584016 0.2576079555867441 -2.1650626955150356 87 65 28
-0.4111620327339781 0.25875029117946086 -2.167591146854795 87 65 28
-0.4110499677326475 0.2588715704356125 -2.1737815704724213 85 63 26
-0.4146625134344364 0.2598689778464667 -2.1768212617828935 85 63 26
-0.41742711135119703 0.2606668439377928 -2.1805748946837524 84 61 24
-0.4203566024333326 0.26150337964048637 -2.1841841822420776 85 61 25
-0.4249263091542516 0.26272524112343665 -2.186385460823633 86 62 26
-0.41652260857430407 0.2608989435915393 -2.1997071344080346 89 65 29
-0.4224070954119274 0.26242976792921685 -2.2007834684111147 90 64 31
-0.42614053296752713 0.26345504265073727 -2.2036973737265466 90 64 29
-0.43105980220479456 0.2647584999048755 -2.2055769100643916 99 74 35
-0.4318686216321269 0.26509689630945454 -2.2110089999662077 95 70 32
-0.4357009010099342 0.26614486070845855 -2.213816148633993 102 77 36
-0.4416504852356119 0.26768929618812587 -2.214767165015632 108 84 41
-0.4439748029070486 0.2683830545315243 -2.2188708613778667 99 74 34
-0.44666988506028443 0.26916370621319996 -2.222647691546196 92 66 30
-0.4503015789769338 0.27016382528727567 -2.225597177426131 91 68 27
-0.4526128014362244 0.2708543004042663 -2.2297035749177883 101 78 37
-0.455153249151182 0.2715984434334841 -2.233605661039354 99 77 36
-0.4585047235664604 0.2725324904223364 -2.2367857106527063 94 72 33
-0.46427815510380666 0.27403353468514635 -2.2378050062488852 96 74 33
-0.463674873492252 0.2740412534637129 -2.244492991138996 99 77 36
-0.4680717533651386 0.2752195918643625 -2.2467219911892062 100 78 38
-0.4747200004244044 0.2769244563031751 -2.2469203438152294 106 84 49
-0.47624174961121507 0.27742949218726665 -2.2517055576476523 98 81 53
-0.4680234253137778 0.27565659992285896 -2.2652750226977387 109 101 82
-0.4600794199130688 0.27394906125332835 -2.278646556763725 149 147 137
-0.49178602423508455 0.28210866978975224 -2.2807826067350376 205 206 208
0.08880357438907416 0.10503735493265273 -0.8965303658898145 122 111 97
0.07559644965115497 0.10842038920805995 -0.897511603300652 128 110 88
0.062475985808833734 0.11178113661239222 -0.8984828427237477 141 120 92
0.05600460631303328 0.11349949035034732 -0.901405043564368 134 114 84
0.04637473023319555 0.11599712231763899 -0.9033641383033459 118 99 70
0.041456283717819564 0.11733137128300403 -0.9067213220435729 88 72 49
0.039933691262481474 0.11782742683278657 -0.9110997771222213 80 62 43
0.03461352573850568 0.1192604479810391 -0.9143207218207716 88 71 50
0.032186659097193426 0.11997948300029085 -0.9184183301386731 100 82 60
0.029311143568187592 0.12080913280806337 -0.9223760026826302 92 73 53
0.026464422720735126 0.12163160634347948 -0.9263395625124363 74 58 38
0.02431569836466868 0.1222819089086693 -0.9305176409119539 88 73 49
0.021015960634813646 0.12321594094637439 -0.9343345439886571 97 81 59
0.018565005155591507 0.12394065578038065 -0.9384142084572736 85 70 49
0.01803273160170743 0.12419249005172656 -0.9430992456643812 85 70 50
0.016648705621760018 0.12465430733078144 -0.9475179203712357 90 75 54
0.02006224795989109 0.12393424474838341 -0.9534717935665055 84 69 48
0.01841944410406604 0.12446008448189275 -0.9578186249567368 86 71 50
0.02042841983365512 0.12408659337078536 -0.9633454405716285 95 77 55
0.01758220553067663 0.12490895237987211 -0.9673095752206273 98 80 58
0.019243672679577162 0.12462145761515168 -0.972740784002545 101 83 59
0.023219685865980944 0.12376451195252583 -0.9789422807820949 106 88 63
0.02476692294755911 0.12350580735142933 -0.9843630663608096 76 56 32
0.02975992612056788 0.12239946545065336 -0.9909358103774952 63 46 22
0.03466375188723464 0.12131562778785082 -0.9975015540317808 60 43 19
0.06778150599361932 0.11341641385711348 -1.0185305935595939 53 37 13
0.07297828680394652 0.11226316041343994 -1.0253008426517545 53 35 12
0.070422028099628 0.11301675047162235 -1.0294648190212292 55 37 13
0.0873441426020215 0.10898189693828537 -1.0402659968486878 59 42 16
0.08831353497499006 0.10886961846840562 -1.0456657553505655 60 42 17
0.09061132449699116 0.10843112978397458 -1.051532432018769 67 51 26
0.091783578564129 0.10826954691773014 -1.0570240767447712 66 49 28
0.09264301999448088 0.10818507231375722 -1.0624175110749625 57 41 23
0.09293739466437412 0.1082396280804911 -1.0676231400514582 57 44 29
0.09245924308365505 0.1084840937591515 -1.0725654043422785 42 31 19
0.08810652364444505 0.10968006096271303 -1.076147259744384 39 29 20
0.08890240968024504 0.10961183885532558 -1.0815443155245272 48 38 29
0.08906559402529163 0.10969915173816898 -1.0867255987152533 48 38 30
0.09209804936548083 0.10908246861144467 -1.0929396018138149 43 34 25
0.08923106470667741 0.1099137969300131 -1.0970520535839212 28 21 11
0.09067102168080993 0.10968840332115222 -1.102715352595754 28 21 14
0.09246589225591362 0.1093762378072323 -1.1085188093181217 25 18 13
0.09412209693058021 0.10909839733384971 -1.1142845195907514 21 16 12
0.09528446875023755 0.10894195627234929 -1.119881900453212 20 15 11
0.0925388164630308 0.10974391049973312 -1.1240539379130368 22 17 13
0.09087172038905456 0.11028141920826712 -1.1286216516124854 23 18 14
0.0894844509983595 0.11075037537719987 -1.1332943021223287 25 21 16
0.08754250759448118 0.1113553039599823 -1.1377624533018955 29 27 22
0.08513554552289698 0.11207416945028276 -1.14205684855544 13 11 7
0.0854569180808778 0.11212466813766006 -1.1473754508971372 12 11 8
0.08201966797668475 0.11309591905697894 -1.151282808243879 58 52 42
0.0735406554288825 0.11530165790350622 -1.1532731729136765 97 82 58
0.06929929321712303 0.11646933056241904 -1.1568560005844108 132 113 80
0.06421122551655095 0.1178440814044134 -1.160107248455341 107 90 51
0.06007844183560923 0.11898476665115844 -1.1637152025877664 97 79 41
0.05491055376372378 0.12037856936142499 -1.166916296937121 108 88 56
0.05009967348711153 0.12168475677518178 -1.1702450463633292 112 92 60
0.04962188673654777 0.12193073487611966 -1.1752518778555765 107 87 53
0.04638213957710674 0.12285236218468144 -1.179183466186903 110 89 57
0.044913010876889814 0.1233409023218615 -1.183806509715267 107 87 52
0.03844238064262906 0.12505232762559515 -1.1864576871452117 109 89 53
0.03923788188690924 0.12498715257058592 -1.19197337076035 103 83 48
0.02836357939905404 0.12777442234949032 -1.1928534136250655 101 81 43
0.030758721182190363 0.1273183282286856 -1.1990077603720095 115 99 59
0.025483286818927198 0.1287367118033105 -1.2020974867438339 96 78 37
0.019839166290405108 0.13024487704089244 -1.2050272381191651 107 87 43
0.013456267573791203 0.13193316620192738 -1.2076452081721134 116 98 55
0.008195488443755394 0.13334706233905147 -1.2107043429146658 112 94 55
-0.0026290287545825963 0.13611907115471975 -1.211479791615528 118 100 60
-0.011047402168553211 0.13830295810955062 -1.2132114753481622 114 97 55
-0.023629673059206935 0.14150255089644687 -1.2132057045510662 109 91 49
-0.033079254189704976 0.14393678183723072 -1.214458828309172 104 87 46
-0.04803493048929103 0.14771373362312676 -1.2133987841219036 101 86 48
-0.055682916219643774 0.149706956602131 -1.2153416256169214 100 84 49
-0.06721962838923473 0.1526481133081536 -1.21563571829425 92 77 44
-0.07687747688045199 0.1551302791585928 -1.2166865747644726 91 76 43
-0.08318949185329183 0.15679604395400792 -1.2191236076884298 113 91 56
-0.08533385240470115 0.15744551618180136 -1.2233129246307985 129 106 70
-0.09032173842089086 0.15878798708499953 -1.2262905213683633 117 93 65
-0.08371194320454145 0.1573041427191454 -1.234217039292382 129 106 74
-0.08704767990579809 0.1582440751043335 -1.2379030391134243 103 81 50
-0.08098899598235687 0.15689553634370068 -1.2456346796122162 91 68 39
-0.0728164033807076 0.15503287448153175 -1.2543097586582552 72 50 25
-0.06903220980806662 0.1542396694147617 -1.2611129981183529 70 50 26
-0.06334126652832395 0.1529827636423461 -1.2687688027311002 75 57 32
-0.062482345486867874 0.15290269495557615 -1.2743341365111567 80 64 39
-0.0624626798046195 0.1530271216496018 -1.279540208660169 85 69 43
-0.062360234144384574 0.1531315817547538 -1.2847899149684003 76 61 34
-0.06189238324585561 0.15314733026814606 -1.2902090776003559 88 71 45
-0.061158400147838965 0.15309856263037508 -1.295755453393196 59 42 18
-0.06435170067602891 0.15400510622876695 -1.2995554258440698 67 51 26
-0.06115245304640593 0.15335722966971976 -1.3062208483751778 72 56 32
-0.0568774849180691 0.15244830585187524 -1.3133896311145394 77 60 40
-0.053019291242689115 0.1516412382384688 -1.320392221968761 63 47 26
-0.04409600231254934 0.14960381950324345 -1.3297168772608887 68 48 19
-0.04639053384408098 0.1502929238982294 -1.3339642336304935 123 99 55
-0.057797493177238535 0.15319560329546783 -1.3340378801981252 191 167 113
-0.06313717332974828 0.15462383994558054 -1.336866757105619 210 185 124
-0.07359364040916094 0.15742529408386374 -1.3425914325073245 179 152 95
-0.08441604129911318 0.160314390283877 -1.3480982242404353 157 126 79
-0.0603401864820165 0.15460339464486067 -1.3646550555683068 134 104 62
-0.07685300276980278 0.15874182208582735 -1.3622067662998094 139 109 68
-0.08387431715696542 0.160576666446767 -1.3641893138881058 122 95 58
-0.09184113391009213 0.1626403536072115 -1.3657051323305596 106 85 53
-0.09692424799113919 0.16400428469977296 -1.3685718402930318 111 89 58
-0.10093475291437609 0.16510790598765998 -1.3719397453953803 132 109 77
-0.10728973672196757 0.1667795957485398 -1.3741755697945144 119 96 64
-0.1154131483072427 0.1688794365189213 -1.37554379671779 112 92 59
-0.12111591234831687 0.1703922208033753 -1.3780594726104627 116 94 63
-0.1284631168812873 0.1723030174970122 -1.3797635426921073 100 77 46
-0.12639931532435178 0.17193400301052314 -1.386031244394078 100 80 48
-0.1267382613870519 0.17214718519887423 -1.3911391175345866 69 51 21
-0.13162584525625853 0.17346176614580622 -1.3940208769764348 112 92 61
-0.13717554637445417 0.1749363501434481 -1.3965656910572957 125 102 69
-0.14271112987639972 0.17640718728092164 -1.399104202972198 129 105 71
-0.14825328520273579 0.17787928500163666 -1.4016261963745906 129 105 74
-0.15219058643953048 0.1789628031812353 -1.404934287374716 154 126 90
-0.16403485015867997 0.18195863701188567 -1.4042817211527125 147 117 72
-0.16646562486682703 0.1826771005991255 -1.4083163682808888 151 122 84
-0.16873102633173692 0.18335553460373677 -1.412432496055427 138 114 78
-0.1701237268406386 0.1838229750403909 -1.416988622606757 117 97 57
-0.16905962358633503 0.18369668151454865 -1.4227934508307247 127 107 70
-0.1710163570063809 0.18430063319517953 -1.4270710186323905 111 90 47
-0.18507761182768406 0.18782899987368878 -1.4251610816922249 93 71 36
-0.18828363184598046 0.1887341507986796 -1.4287749265196832 72 50 24
-0.19070946934351152 0.18945076621672208 -1.4327857365990602 90 70 38
-0.19182895860862015 0.18985190888895648 -1.4374698254446319 94 73 42
-0.191167505977551 0.18982319040053874 -1.4430807313444185 71 50 22
-0.192892237109985 0.19037065257323876 -1.4474592554804593 78 56 30
-0.19539726095545296 0.1911064321267653 -1.4514309133425625 89 68 39
-0.19685836438600945 0.19159029231081864 -1.455947802914121 79 58 27
-0.19195870062477427 0.19053983829129018 -1.4638137886800409 79 58 27
-0.1880732778277901 0.189734638484312 -1.4711700394081837 80 60 29
-0.19799922739932735 0.19226029730217709 -1.4712279112802298 74 53 23
-0.20454649388349755 0.19397066648122707 -1.473052686792791 75 54 27
-0.1920434970879366 0.19108884969144804 -1.4850297002512014 55 38 14
-0.20278444114903937 0.1938098664345037 -1.4846089347502915 83 60 34
-0.20552342042105926 0.19460206666113472 -1.4884568886098104 122 98 65
-0.2081252494181262 0.195361152818026 -1.4923757952208456 131 107 68
-0.210330852121886 0.19602474756540766 -1.4965067203336615 141 118 82
-0.20506419996654424 0.19488902950859804 -1.5046970303086709 73 50 20
-0.20494739552142216 0.19499381522630344 -1.5101067115649247 75 51 25
-0.19564473300816898 0.1928877594326059 -1.5205511801619505 76 52 25
-0.20019701287092062 0.1941170058224273 -1.523430324162104 82 58 30
-0.22852212835018632 0.20106585445265382 -1.5131984433727366 74 52 25
-0.20181624534671855 0.19477410696013756 -1.53329809726795 70 49 24
-0.21731292190491236 0.19863518446818312 -1.530087955098713 53 34 10
-0.21784638581262722 0.19889689954555267 -1.5351582592357722 64 44 17
-0.2161624442874247 0.19862565950499 -1.5414731870349114 121 96 59
-0.21890620751127549 0.19941903007573905 -1.5453192809694858 151 123 79
-0.22368151938840442 0.20070053648872388 -1.548019100755785 151 121 80
-0.22343330570900238 0.20077478109005378 -1.553544502892324 79 57 28
-0.21723815023175314 0.1994206718724249 -1.5624480611532943 52 34 13
-0.21705927636240446 0.19951228426164522 -1.5679627765309203 59 38 16
-0.22150870918033727 0.2007154600395631 -1.5708452961492136 78 57 31
-0.21776747050665501 0.1999520349505543 -1.5784070079724624 103 80 50
-0.2241689134191155 0.20162365327292842 -1.5801647235645824 144 121 87
-0.2305496801776747 0.20328987597364417 -1.581916905602259 109 88 56
-0.23577892681252077 0.20467938578851685 -1.584317680075711 71 54 26
-0.24374094342934627 0.20672410468691232 -1.5851196247808113 106 88 60
-0.24912226558094708 0.2081493100159849 -1.5874006099742375 131 109 74
-0.25514979966059764 0.20972912621949552 -1.5892904534647783 153 129 88
-0.2649427137616711 0.2122112162110067 -1.5889566576598497 150 127 87
-0.27125057690065035 0.21385723240220986 -1.5906417969922049 140 117 84
-0.2785677336238099 0.21574467605974812 -1.5917138824513866 132 109 75
-0.28634400021803796 0.21774158248095749 -1.5924926868164424 130 103 67
-0.29174251325486833 0.21916836025231884 -1.5946610741029246 126 101 63
-0.29992805158989566 0.2212622401663798 -1.5951540316199713 153 120 82
-0.30527766386156624 0.22267648213268354 -1.5973183929598849 168 136 92
-0.31163428009677524 0.22433144391616433 -1.5988646568960916 167 137 86
-0.318985489585089 0.22622400427832123 -1.599794225992798 178 148 95
-0.32285166867307774 0.22728210836470433 -1.6028075828200938 194 165 115
-0.32671203893027784 0.22833862727818321 -1.6058165971972849 201 177 132
-0.3293641324448952 0.22910594930549444 -1.6095526202345418 118 95 59
-0.3327355624260167 0.23004521486008978 -1.6128466871442357 86 62 32
-0.3341325932935359 0.23051228443258492 -1.6173436004304356 99 76 44
-0.33719015445814443 0.23137632890008714 -1.6208225907994998 100 78 48
-0.33698039722604844 0.23145941896330932 -1.6263104154707704 88 67 37
-0.3382425205219914 0.23189440385866208 -1.6308967466923987 88 69 37
-0.3379179914601176 0.23195042768960145 -1.6364698793184533 78 58 27
-0.3224255279188116 0.22838406728058158 -1.6514915565253512 88 67 36
-0.3134608904761231 0.2263781972085918 -1.662508176210958 107 84 50
-0.26807103541141736 0.21581542570365134 -1.7019315770848256 116 93 50
-0.2647279067768537 0.2151557237830541 -1.7095931136746305 112 89 48
-0.2638938053586137 0.2150951646486226 -1.7156893123954684 103 79 43
-0.2579958602107261 0.21382701544050495 -1.725010308549566 101 76 41
-0.257613501623677 0.21387501514791218 -1.7308522252989011 106 82 46
-0.26138596756678595 0.21491387852991564 -1.7340502506543658 109 84 49
-0.262025093013639 0.21520564434788833 -1.739248485151625 98 74 40
-0.26748016103242866 0.21664530613560526 -1.7413566089295278 101 81 46
-0.2687752981271159 0.21709340866493979 -1.7461328789686046 105 84 50
-0.26678510946541356 0.21675894215388317 -1.7530372358293587 113 90 56
-0.27025832147947143 0.21772610672514142 -1.7564123665622118 101 79 45
-0.26987456579553065 0.2177746973765939 -1.7622923443615863 66 43 13
-0.2672885250861095 0.21729923722004874 -1.7696204423598545 66 43 15
-0.2713588870654074 0.21840858115147319 -1.772606249319451 94 73 42
-0.2585687335131658 0.2155055002998521 -1.7866653001882815 94 74 41
-0.26296582054650275 0.21669301603143265 -1.7894533646041557 97 77 40
-0.26795240996307723 0.21802050160988484 -1.7918414582653244 109 89 54
-0.2700657084060897 0.21866438043326358 -1.7961235251548981 104 84 50
-0.27234856335065444 0.2193485590093986 -1.8002921876487015 69 48 19
-0.27445900250519834 0.21999172223939217 -1.8045747186557484 74 54 23
-0.2787876465936704 0.2211620352943215 -1.807370937093295 71 49 16
-0.2841647894168243 0.22258122749818848 -1.8094528025788255 81 58 27
-0.2906018358928018 0.22425184303775209 -1.810805989715912 90 68 36
-0.2897579369468615 0.22419279509315673 -1.8170631941629696 90 70 37
-0.2893707981051031 0.22424249768394672 -1.8230225050381643 93 73 40
-0.27906448570080555 0.22193772444745946 -1.8357402553742768 83 63 31
-0.27782609671184877 0.22178641166590754 -1.842321502914845 80 59 28
-0.2719722485289466 0.22054025550322046 -1.8520760694005802 81 59 28
-0.28605050934187093 0.22402348361336402 -1.8481765332749502 82 59 28
-0.2914760705634978 0.2254531851752651 -1.8501858475660269 82 59 28
-0.2886689664826514 0.22493033253234768 -1.8578689229548104 86 63 32
-0.2902342320276757 0.22544456460188783 -1.8625419983214222 87 66 35
-0.28073035881117625 0.22333521971274867 -1.8749123734881321 90 69 38
-0.2837007987953433 0.2241831116058554 -1.8786328186633208 87 66 35
-0.28459254942650986 0.22453842731369808 -1.883803138075711 85 64 33
-0.2884642727423463 0.2255997020028273 -1.8868873159582644 85 64 31
-0.29037905509442863 0.2261973567791169 -1.891340720655744 85 63 31
-0.29110011851931106 0.22651240154380298 -1.8966371693971622 83 61 29
-0.2927459535692708 0.2270464774218676 -1.9012842830884034 81 60 29
-0.29457028735347857 0.22762283224382385 -1.9058061318176054 79 58 27
-0.2961522705120216 0.22814186693332558 -1.9105013803234758 79 58 27
-0.2942868078593518 0.227845486942162 -1.9176618842636461 82 61 29
-0.29430367105304855 0.2279946673270672 -1.9234899851030371 89 69 36
-0.29881473833884803 0.22920663692075596 -1.9260957593391743 83 63 31
-0.3008338196558034 0.22982928394288743 -1.9304875606291523 79 57 26
-0.30431390087886934 0.23079719857223777 -1.9338225956275035 78 55 24
-0.2993756604205843 0.229775955577501 -1.9432581639695983 80 57 26
-0.3097101382523021 0.23236312252452745 -1.9416112437899984 80 57 26
-0.31050637054589875 0.2326968182780635 -1.9468889948618517 80 57 26
-0.3110705127269548 0.2329758467221994 -1.9523418963189378 87 64 32
-0.31241851027722883 0.2334400625799279 -1.9572255896439612 93 73 39
-0.3159406094329089 0.2344174330574301 -1.960511168384668 88 67 35
-0.320276231651557 0.2355865824209099 -1.9631891987150403 85 64 33
-0.32460414586081004 0.2367536577067731 -1.9658626479148664 86 65 34
-0.31146756556210153 0.23380176161637115 -1.9815018034391054 85 64 33
-0.3309005071893778 0.2385307287657794 -1.9729369603399594 83 60 29
-0.3300173225431689 0.23846878556877243 -1.9794795645818564 81 58 27
-0.33143754807541753 0.23895000094148067 -1.9843082143985629 80 57 26
-0.3241109114238941 0.23737040092822154 -1.9957157296487313 79 56 25
-0.32858771423127264 0.23857222878327344 -1.9982640601131711 78 55 24
-0.32250651431548205 0.23728734229967563 -2.0087863532107986 78 55 24
-0.3299255064631436 0.23918193840366564 -2.009104451242383 79 56 25
-0.3348211200586943 0.24048195070764591 -2.0113180681055627 70 47 16
-0.3284190122422628 0.23912287590811065 -2.02213883016766 76 52 22
-0.32560430025989845 0.23860878196877186 -2.0302520356240796 109 86 51
-0.3298856950781164 0.2397644077110768 -2.03294079306414 102 79 39
-0.3310358843689934 0.2401834168696909 -2.038029505273461 145 119 76
-0.32811001773949217 0.23964418724441333 -2.046268671963202 170 141 102
-0.325278698584455 0.23912773456810713 -2.054456876736755 113 87 54
-0.3373614643959747 0.24211665330683982 -2.051086495430034 89 67 32
-0.33593523667000297 0.24193057042872057 -2.0581905819334994 84 62 27
-0.33871975435021323 0.2427339310183802 -2.062021630205145 84 61 27
-0.3420190749965036 0.2436580970806687 -2.0654459530283042 84 61 27
-0.3483320509826316 0.24528965184626333 -2.0664970995442427 79 56 22
-0.354228256984894 0.24682289636166937 -2.0678570238502987 77 54 21
-0.357010737706007 0.24762502495453742 -2.071659352854329 82 60 25
-0.3579519110097163 0.2479950832572763 -2.076917124954659 88 66 28
-0.36452217070841536 0.24968556131256303 -2.077706604524566 94 73 37
-0.3635603481295928 0.24960930287462332 -2.084477791963636 88 68 37
-0.3626989738050697 0.24955693061097683 -2.0911822749774545 128 108 71
-0.36128505538827527 0.2493753806789485 -2.0983427803514103 142 116 81
-0.3610232788312736 0.24946419304231407 -2.1045928888441923 147 122 87
-0.364241295460143 0.25036845640359273 -2.1080483178742124 99 74 40
-0.3656861051226665 0.25085728396180684 -2.112931684662892 85 62 28
-0.372774841708666 0.2526676995280046 -2.1132419451554516 82 59 25
-0.38087400142205946 0.2547140634358425 -2.1127072065456396 82 59 25
-0.3782084670958774 0.25424041547235066 -2.1209213466945016 79 56 22
-0.3787134764586692 0.25450913962360366 -2.1265646468135952 80 56 22
-0.3816309783534008 0.2553423652619985 -2.1302366695753867 80 56 23
-0.3837793850670444 0.25599562387103186 -2.1345369003781385 82 58 25
-0.38748076495402806 0.25701195639976104 -2.1375557971219776 83 59 25
-0.3901691723743835 0.25779131449401926 -2.141404497125135 84 61 25
-0.3932154172898843 0.25865421517620435 -2.1449532352996483 84 62 25
-0.3916767965590737 0.2584458362141236 -2.152310169807371 85 63 26
-0.3924744210574347 0.25878354885752325 -2.1577352542857975 88 66 29
-0.3939303273758837 0.2592751195419861 -2.1626154510207765 87 65 28
-0.39421793750776973 0.2594940110832112 -2.1684780966817656 87 65 28
-0.3956907065607961 0.25998971472128746 -2.1733520455969604 86 64 27
-0.39891993721583197 0.26089532844690155 -2.176747081856484 86 64 27
-0.40988677763763737 0.2636058142693895 -2.1735920044522112 84 62 25
-0.4119885345813801 0.26424773715075967 -2.177913455258395 86 64 27
-0.4151384816687021 0.26513404461197904 -2.1813429212474826 86 63 26
-0.4183886304654574 0.2660435736211516 -2.1846814709740867 87 63 27
-0.41911549685869787 0.2663649231741204 -2.1901721628187882 88 64 28
-0.4235536197951427 0.26755108361220814 -2.192485951476086 90 65 29
-0.42388228748524925 0.2677797646379517 -2.1983223847642925 92 66 32
-0.42640763873329474 0.2685201735471709 -2.202272321496559 93 68 31
-0.42734621773522113 0.2688911112538625 -2.2075920039297925 98 73 34
-0.4299477119623966 0.2696492113032865 -2.211474669986707 96 70 32
-0.43114325836280143 0.27008009535060673 -2.216577072042861 102 77 36
-0.4409314020597275 0.2725099381055568 -2.214190492816608 108 83 43
-0.44210277936929354 0.2729348793615972 -2.2193010817328984 96 70 31
-0.4446727658640536 0.2736851047223481 -2.223189294238925 92 66 29
-0.4477243863386298 0.27454721503969526 -2.226651253782673 94 71 30
-0.4493331739305176 0.27507390367217965 -2.231380187179588 103 80 39
-0.45159120480230003 0.2757514746872715 -2.2355369968749463 101 79 38
-0.4553098055743813 0.2767682541065324 -2.2383977149139045 97 75 36
-0.4582513919262849 0.2776043982022563 -2.24194076645357 97 75 35
-0.4646377726788682 0.27924011860952513 -2.242408605338179 98 76 35
-0.4690961700327369 0.2804278518203971 -2.2445782675931385 96 74 34
-0.47126052407174934 0.2810830130454549 -2.248791901828976 106 85 50
-0.4706429316581239 0.28109284450302685 -2.2555047806045936 102 86 60
-0.4656106896533714 0.2800792272350875 -2.2662086364999015 117 109 92
-0.4580129008538696 0.27847166722595984 -2.2792651406052484 156 155 148
-0.48944755878224466 0.28652546129809203 -2.2816704713829035 205 206 208
