ply
format ascii 1.0
element vertex 867
property float x
property float y
property float z
property float nx
property float ny
property float nz
property uchar diffuse_red
property uchar diffuse_green
property uchar diffuse_blue
property uchar class
property uchar detection
end_header
0.3002 0.0215 -1.5867 0.937 -0.055 0.344 56 36 20 0 0
0.3121 0.0238 -1.5957 0.582 -0.110 0.805 158 136 97 0 0
0.3908 0.0400 -1.6167 0.777 0.362 0.515 146 120 90 0 0
0.3722 0.0291 -1.8432 0.984 0.152 0.092 76 52 26 0 0
0.3727 0.0291 -1.8485 0.984 0.152 0.092 78 54 28 0 0
0.3799 0.0292 -1.8947 0.983 -0.025 0.184 73 49 23 0 0
0.3833 0.0293 -1.9151 0.859 0.016 0.512 72 48 24 0 0
0.4049 0.0325 -1.9624 0.963 -0.098 0.251 66 44 21 0 0
0.4054 0.0325 -1.9678 0.968 0.001 0.249 68 46 23 0 0
0.4069 0.0326 -1.9725 0.965 -0.141 0.220 70 48 25 0 0
0.4217 0.0348 -2.0077 0.895 0.367 0.254 69 47 24 0 0
0.4460 0.0386 -2.0528 0.748 0.010 0.664 75 49 22 0 0
0.5161 0.0496 -2.1837 0.762 0.078 0.643 92 68 31 0 0
0.5472 0.0552 -2.2220 0.837 0.173 0.519 100 76 40 0 0
0.5688 0.0585 -2.2626 0.885 -0.249 0.393 133 130 124 0 0
0.5806 0.0607 -2.2758 0.618 -0.030 0.786 201 202 206 0 0
0.1247 -0.0118 -1.2834 0.899 -0.429 -0.085 66 48 25 0 0
0.1576 -0.0071 -1.3616 0.717 0.141 0.682 130 111 79 0 0
0.1607 -0.0065 -1.3654 0.723 0.061 0.688 117 96 65 0 0
0.2579 0.0108 -1.4833 0.688 0.671 0.276 87 63 33 0 0
0.2864 0.0146 -1.5576 0.791 -0.144 0.594 60 40 16 0 0
0.3438 0.0226 -1.7013 0.912 -0.378 0.161 80 61 34 0 0
0.3581 0.0222 -1.8141 0.793 0.342 0.503 80 56 29 0 0
0.4194 0.0297 -1.9984 0.886 -0.065 0.458 74 53 27 0 0
0.4619 0.0355 -2.1055 0.909 -0.066 0.413 89 70 36 0 0
0.5174 0.0451 -2.1833 0.826 -0.035 0.563 91 67 30 0 0
0.5181 0.0451 -2.1887 0.759 -0.131 0.638 92 68 30 0 0
0.5408 0.0495 -2.2043 0.939 0.257 0.229 99 76 38 0 0
0.5439 0.0499 -2.2136 0.867 -0.000 0.499 98 76 39 0 0
0.5804 0.0558 -2.2767 0.513 -0.170 0.841 201 202 206 0 0
0.1215 -0.0173 -1.2852 0.915 -0.403 -0.034 64 46 24 0 0
0.1225 -0.0176 -1.3003 0.897 -0.151 0.416 65 47 24 0 0
0.1246 -0.0173 -1.3045 0.862 -0.078 0.500 74 55 31 0 0
0.1253 -0.0173 -1.3094 0.931 -0.271 0.245 70 51 27 0 0
0.1266 -0.0171 -1.3140 0.938 -0.264 0.223 92 75 52 0 0
0.3938 0.0305 -1.6424 0.944 -0.304 0.131 75 50 27 0 0
0.3422 0.0169 -1.7193 0.904 0.024 0.426 67 49 28 0 0
0.3595 0.0177 -1.8136 0.888 0.240 0.393 78 54 27 0 0
0.3614 0.0179 -1.8180 0.888 0.240 0.393 76 52 26 0 0
0.3757 0.0197 -1.8589 0.756 0.182 0.628 80 56 30 0 0
0.4083 0.0230 -1.9784 0.963 -0.045 0.264 70 48 25 0 0
0.4193 0.0248 -1.9990 0.916 -0.039 0.400 75 54 28 0 0
0.4442 0.0277 -2.0792 0.988 0.056 0.144 86 63 31 0 0
0.4747 0.0332 -2.1132 0.770 -0.165 0.617 83 59 29 0 0
0.4814 0.0345 -2.1194 0.844 0.296 0.447 83 60 29 0 0
0.5021 0.0373 -2.1734 0.709 0.443 0.549 82 59 27 0 0
0.5435 0.0451 -2.2086 0.875 0.332 0.352 99 77 40 0 0
0.5447 0.0452 -2.2136 0.874 0.221 0.433 103 81 44 0 0
0.5447 0.0451 -2.2196 0.822 0.224 0.523 104 82 45 0 0
0.5476 0.0456 -2.2230 0.907 0.099 0.408 104 80 44 0 0
0.5605 0.0476 -2.2475 0.932 0.085 0.351 85 70 41 0 0
0.5617 0.0477 -2.2524 0.979 0.066 0.192 85 74 46 0 0
0.5625 0.0477 -2.2577 0.955 0.102 0.279 89 80 58 0 0
0.5842 0.0519 -2.2737 0.793 0.257 0.552 201 202 206 0 0
0.1190 -0.0228 -1.2866 0.915 -0.403 -0.034 67 49 27 0 0
0.1201 -0.0230 -1.3017 0.856 -0.330 0.398 79 62 38 0 0
0.2628 0.0029 -1.4656 1.000 -0.006 0.004 77 54 23 0 0
0.2851 0.0055 -1.5378 0.983 -0.098 0.158 170 138 90 0 0
0.2859 0.0055 -1.5427 0.983 -0.098 0.158 118 89 48 0 0
0.2921 0.0059 -1.5712 0.979 -0.017 0.202 50 31 12 0 0
0.3204 0.0114 -1.5920 0.685 0.408 0.603 151 132 90 0 0
0.3237 0.0120 -1.5953 0.587 0.235 0.775 182 160 111 0 0
0.3676 0.0137 -1.8424 0.749 0.266 0.607 77 51 25 0 0
0.3724 0.0145 -1.8503 0.982 0.180 0.058 76 52 25 0 0
0.3787 0.0147 -1.8857 0.965 0.259 0.030 78 54 28 0 0
0.3797 0.0138 -1.9194 0.731 0.340 0.591 71 48 25 0 0
0.4006 0.0174 -1.9500 0.662 -0.136 0.737 65 43 20 0 0
0.4064 0.0177 -1.9805 0.973 -0.043 0.228 70 48 25 0 0
0.4391 0.0225 -2.0543 0.757 0.279 0.590 76 56 26 0 0
0.4445 0.0228 -2.0795 0.988 0.056 0.144 89 66 33 0 0
0.4467 0.0232 -2.0837 0.960 0.176 0.217 97 75 39 0 0
0.4827 0.0299 -2.1189 0.844 0.296 0.447 83 60 29 0 0
0.5039 0.0328 -2.1725 0.719 0.373 0.586 82 59 28 0 0
0.5093 0.0338 -2.1797 0.719 0.373 0.586 86 64 29 0 0
0.5432 0.0404 -2.2035 0.969 0.170 0.179 101 78 37 0 0
0.5437 0.0404 -2.2091 0.939 0.191 0.287 99 76 38 0 0
0.5457 0.0407 -2.2133 0.910 0.120 0.398 101 77 39 0 0
0.5458 0.0405 -2.2193 0.822 0.224 0.523 102 79 41 0 0
0.5555 0.0421 -2.2346 0.898 0.176 0.403 93 74 38 0 0
0.5610 0.0429 -2.2477 0.932 0.085 0.351 82 68 39 0 0
0.5643 0.0431 -2.2629 0.951 0.073 0.302 101 95 81 0 0
0.5673 0.0437 -2.2661 0.847 -0.211 0.487 133 130 125 0 0
0.5813 0.0466 -2.2711 0.798 0.048 0.601 196 196 201 0 0
0.1160 -0.0280 -1.2779 0.992 -0.074 0.107 71 54 34 0 0
0.1171 -0.0279 -1.2826 0.892 -0.445 0.080 70 52 33 0 0
0.1622 -0.0210 -1.3761 0.818 -0.070 0.571 129 109 71 0 0
0.1649 -0.0206 -1.3801 0.830 -0.079 0.552 125 106 76 0 0
0.2164 -0.0105 -1.4171 0.815 0.111 0.568 135 103 62 0 0
0.2188 -0.0101 -1.4211 0.921 0.251 0.299 124 98 55 0 0
0.2635 -0.0017 -1.4656 0.918 -0.250 0.308 77 53 23 0 0
0.2648 -0.0021 -1.4860 0.999 0.012 0.043 177 150 107 0 0
0.2827 -0.0006 -1.5610 0.696 0.011 0.718 59 38 14 0 0
0.2945 0.0015 -1.5756 0.831 0.233 0.505 50 31 14 0 0
0.2960 0.0017 -1.5801 0.876 0.156 0.456 52 33 16 0 0
0.3272 0.0079 -1.5990 0.442 -0.033 0.897 161 133 82 0 0
0.3494 0.0126 -1.6069 0.404 0.167 0.899 146 122 81 0 0
0.3436 0.0074 -1.7249 0.808 0.254 0.532 66 49 29 0 0
0.3442 0.0050 -1.8027 0.884 0.455 -0.103 75 54 29 0 0
0.3437 0.0047 -1.8087 0.884 0.455 -0.103 78 57 29 0 0
0.3583 0.0079 -1.8098 0.661 0.302 0.687 78 54 26 0 0
0.4035 0.0125 -1.9716 0.932 -0.244 0.269 70 48 25 0 0
0.4059 0.0127 -1.9814 0.942 -0.162 0.295 70 48 25 0 0
0.4399 0.0178 -2.0543 0.803 0.103 0.587 75 54 25 0 0
0.5213 0.0313 -2.1877 0.887 0.210 0.410 92 67 30 0 0
0.5421 0.0355 -2.1992 0.966 0.160 0.204 101 78 37 0 0
0.5432 0.0356 -2.2042 0.939 0.191 0.287 100 77 36 0 0
0.5446 0.0357 -2.2090 0.939 0.191 0.287 98 75 36 0 0
0.5447 0.0353 -2.2210 0.853 0.162 0.495 100 76 38 0 0
0.5499 0.0365 -2.2223 0.926 0.035 0.377 100 77 39 0 0
0.5601 0.0380 -2.2431 0.900 0.278 0.335 60 47 27 0 0
0.5819 0.0419 -2.2713 0.814 0.053 0.578 197 196 201 0 0
0.5837 0.0421 -2.2757 0.855 -0.054 0.516 202 202 206 0 0
0.0152 -0.0533 -1.2231 0.335 -0.052 0.941 131 112 78 0 0
0.0323 -0.0496 -1.2264 0.269 0.281 0.921 132 112 86 0 0
0.1165 -0.0308 -1.2214 0.322 -0.441 0.838 137 114 82 0 0
0.1133 -0.0338 -1.2899 0.926 -0.340 0.163 73 57 38 0 0
0.1585 -0.0266 -1.3731 0.728 -0.016 0.685 139 117 73 0 0
0.1968 -0.0191 -1.4012 0.839 -0.133 0.527 176 144 92 0 0
0.2679 -0.0054 -1.4636 0.844 0.363 0.394 77 54 24 0 0
0.2613 -0.0084 -1.5095 0.934 0.095 0.345 60 40 16 0 0
0.2939 -0.0034 -1.5764 0.833 0.019 0.553 53 34 17 0 0
0.2972 -0.0028 -1.5798 0.892 -0.122 0.436 55 36 19 0 0
0.3028 -0.0018 -1.5872 0.799 0.084 0.595 67 48 27 0 0
0.3507 0.0081 -1.6065 0.513 0.291 0.807 147 124 84 0 0
0.3453 0.0026 -1.7353 0.952 0.007 0.306 46 28 14 0 0
0.3473 0.0013 -1.7898 0.727 -0.286 0.624 91 70 37 0 0
0.3476 0.0011 -1.7952 0.972 -0.146 0.183 99 78 48 0 0
0.3484 0.0011 -1.8003 0.945 0.325 -0.044 70 50 25 0 0
0.3489 0.0011 -1.8056 0.956 0.282 0.080 84 63 35 0 0
0.3700 0.0044 -1.8474 0.991 0.106 0.085 71 45 23 0 0
0.3705 0.0043 -1.8527 0.987 0.158 0.006 71 47 22 0 0
0.3857 0.0053 -1.9219 0.731 0.340 0.591 69 47 24 0 0
0.3884 0.0058 -1.9256 0.731 0.340 0.591 64 42 19 0 0
0.4054 0.0079 -1.9766 0.930 0.114 0.351 70 48 25 0 0
0.4224 0.0105 -2.0101 0.973 -0.042 0.225 60 40 16 0 0
0.4419 0.0126 -2.0770 0.797 0.175 0.578 73 49 19 0 0
0.4526 0.0141 -2.1039 0.853 0.376 0.361 141 115 78 0 0
0.4688 0.0177 -2.1022 0.844 -0.127 0.521 82 58 28 0 0
0.5068 0.0238 -2.1712 0.898 -0.286 0.334 85 62 30 0 0
0.5428 0.0308 -2.1992 0.946 0.101 0.307 103 80 39 0 0
0.5451 0.0310 -2.2092 0.956 0.198 0.216 99 76 35 0 0
0.5455 0.0307 -2.2209 0.853 0.162 0.495 99 76 35 0 0
0.5508 0.0319 -2.2221 0.954 -0.099 0.283 100 77 39 0 0
0.5675 0.0344 -2.2551 0.857 0.239 0.456 76 68 49 0 0
0.5931 0.0401 -2.2553 0.726 -0.140 0.673 188 188 190 0 0
0.5824 0.0372 -2.2716 0.814 0.053 0.578 197 196 201 0 0
0.5842 0.0374 -2.2759 0.821 -0.018 0.571 201 202 206 0 0
0.5861 0.0377 -2.2802 0.855 -0.054 0.516 204 205 209 0 0
0.1139 -0.0363 -1.2228 0.323 -0.399 0.858 142 119 87 0 0
0.1048 -0.0425 -1.3466 0.626 0.390 0.675 89 74 56 0 0
0.2061 -0.0220 -1.4073 0.768 0.175 0.616 163 137 84 0 0
0.2090 -0.0215 -1.4111 0.768 0.175 0.616 141 113 70 0 0
0.2686 -0.0100 -1.4636 0.861 0.423 0.282 76 53 22 0 0
0.2976 -0.0075 -1.5800 0.876 0.156 0.456 57 38 21 0 0
0.3034 -0.0065 -1.5873 0.755 -0.133 0.642 77 60 38 0 0
0.3462 -0.0031 -1.7686 0.892 0.130 0.434 72 52 26 0 0
0.3483 -0.0030 -1.7784 0.973 0.119 0.199 83 64 31 0 0
0.3493 -0.0029 -1.7833 0.979 0.091 0.182 82 62 29 0 0
0.3505 -0.0036 -1.8106 0.773 0.597 0.214 81 59 28 0 0
0.3667 -0.0027 -1.8903 0.975 0.189 0.118 76 52 26 0 0
0.3785 -0.0003 -1.8989 0.782 0.538 0.314 72 48 23 0 0
0.3791 -0.0004 -1.9043 0.821 0.496 0.281 72 49 25 0 0
0.3818 0.0001 -1.9080 0.778 0.510 0.367 71 49 25 0 0
0.3911 0.0016 -1.9241 0.685 0.300 0.664 68 46 23 0 0
0.4012 0.0023 -1.9687 0.904 0.164 0.395 72 50 27 0 0
0.4233 0.0059 -2.0099 0.947 0.210 0.242 66 45 21 0 0
0.4419 0.0085 -2.0539 0.687 0.009 0.727 78 54 26 0 0
0.4432 0.0080 -2.0765 0.731 -0.005 0.682 75 51 22 0 0
0.5088 0.0188 -2.1882 0.916 0.146 0.374 91 68 30 0 0
0.5642 0.0292 -2.2468 0.900 0.278 0.335 53 45 27 0 0
0.5659 0.0294 -2.2513 0.900 0.278 0.335 57 50 31 0 0
0.5686 0.0299 -2.2548 0.857 0.239 0.456 77 69 50 0 0
0.5907 0.0347 -2.2583 0.975 -0.173 0.143 189 189 191 0 0
0.5819 0.0322 -2.2728 0.942 -0.066 0.328 197 196 201 0 0
0.1158 -0.0406 -1.2223 0.505 -0.489 0.711 131 109 79 0 0
0.1209 -0.0396 -1.2252 0.505 -0.489 0.711 138 114 78 0 0
0.1259 -0.0386 -1.2281 0.505 -0.489 0.711 143 117 76 0 0
0.0969 -0.0471 -1.2875 0.534 -0.696 0.480 86 72 54 0 0
0.1032 -0.0476 -1.3423 0.965 -0.016 0.263 73 62 45 0 0
0.1050 -0.0474 -1.3468 0.854 0.266 0.447 89 75 57 0 0
0.1086 -0.0467 -1.3504 0.705 -0.037 0.708 105 89 67 0 0
0.1986 -0.0285 -1.4063 0.859 -0.066 0.507 174 144 95 0 0
0.2184 -0.0246 -1.4223 0.983 0.108 0.148 115 90 49 0 0
0.2900 -0.0132 -1.5580 0.901 0.003 0.434 67 50 22 0 0
0.3504 -0.0014 -1.6075 0.639 -0.133 0.758 134 107 67 0 0
0.3535 -0.0008 -1.6110 0.708 -0.253 0.659 144 115 73 0 0
0.3463 -0.0072 -1.7467 0.994 -0.032 0.100 86 68 44 0 0
0.3478 -0.0076 -1.7680 0.772 0.214 0.599 79 58 30 0 0
0.3488 -0.0079 -1.7842 0.993 0.100 0.066 85 63 31 0 0
0.3505 -0.0077 -1.7886 0.993 -0.110 -0.048 115 90 53 0 0
0.3495 -0.0081 -1.7949 0.997 -0.075 -0.033 98 76 45 0 0
0.3493 -0.0084 -1.8007 0.997 -0.075 -0.033 68 48 23 0 0
0.3509 -0.0082 -1.8052 0.989 -0.117 0.096 85 62 32 0 0
0.3504 -0.0085 -1.8113 0.995 0.066 0.078 81 58 27 0 0
0.3603 -0.0062 -1.8100 0.718 0.097 0.689 83 60 29 0 0
0.3688 -0.0073 -1.8951 0.934 -0.001 0.356 77 53 27 0 0
0.3885 -0.0035 -1.9151 0.825 0.183 0.535 72 50 26 0 0
0.3910 -0.0031 -1.9190 0.825 0.183 0.535 72 50 27 0 0
0.4026 -0.0010 -1.9334 0.871 0.256 0.420 67 45 22 0 0
0.3984 -0.0023 -1.9423 0.945 0.026 0.326 66 44 21 0 0
0.4054 -0.0019 -1.9777 0.915 0.250 0.317 68 46 23 0 0
0.4233 0.0012 -2.0047 0.967 0.161 0.199 67 45 22 0 0
0.4224 0.0007 -2.0113 0.937 0.210 0.279 69 47 24 0 0
0.4400 0.0025 -2.0738 0.987 -0.026 0.159 72 46 22 0 0
0.5053 0.0137 -2.1739 0.976 -0.096 0.195 85 62 27 0 0
0.5069 0.0139 -2.1784 0.926 -0.164 0.339 89 65 29 0 0
0.5519 0.0222 -2.2285 0.882 0.070 0.467 99 81 40 0 0
0.5906 0.0298 -2.2591 0.988 -0.137 0.067 190 190 192 0 0
0.5818 0.0274 -2.2735 0.942 -0.066 0.328 198 197 202 0 0
0.0996 -0.0534 -1.3444 0.582 -0.273 0.766 92 80 64 0 0
0.1032 -0.0527 -1.3480 0.600 -0.131 0.790 72 63 45 0 0
0.1092 -0.0515 -1.3504 0.750 0.154 0.643 112 99 78 0 0
0.1128 -0.0508 -1.3540 0.712 -0.039 0.701 117 99 74 0 0
0.2181 -0.0294 -1.4228 0.971 -0.013 0.238 111 83 44 0 0
0.2193 -0.0293 -1.4275 0.971 -0.013 0.238 97 72 40 0 0
0.2187 -0.0297 -1.4331 0.827 0.171 0.535 105 80 45 0 0
0.2240 -0.0288 -1.4408 0.746 0.326 0.581 81 57 23 0 0
0.2322 -0.0271 -1.4471 0.806 0.407 0.429 85 61 23 0 0
0.2900 -0.0180 -1.5584 0.921 0.014 0.389 65 46 17 0 0
0.3347 -0.0137 -1.7215 0.944 -0.315 0.103 56 40 22 0 0
0.3470 -0.0118 -1.7468 0.980 -0.198 0.032 100 81 54 0 0
0.3460 -0.0125 -1.7586 0.951 0.247 0.186 62 42 16 0 0
0.3469 -0.0124 -1.7635 0.951 0.247 0.186 65 45 21 0 0
0.3506 -0.0119 -1.7722 0.821 0.372 0.433 91 71 39 0 0
0.3658 -0.0113 -1.8520 0.965 -0.016 0.260 75 51 27 0 0
0.3919 -0.0078 -1.9189 0.825 0.183 0.535 70 48 25 0 0
0.4015 -0.0062 -1.9348 0.949 0.123 0.290 67 45 22 0 0
0.4238 -0.0038 -2.0107 0.936 0.251 0.247 67 45 22 0 0
0.4580 0.0009 -2.0953 0.886 0.032 0.463 139 112 78 0 0
0.5431 0.0160 -2.2131 0.782 0.200 0.590 107 84 43 0 0
0.5460 0.0165 -2.2165 0.882 0.070 0.467 106 83 42 0 0
0.5831 0.0228 -2.2731 0.852 0.009 0.523 199 198 203 0 0
0.1128 -0.0557 -1.3543 0.712 -0.039 0.701 94 79 55 0 0
0.2298 -0.0323 -1.4434 0.836 0.100 0.539 82 59 23 0 0
0.2322 -0.0319 -1.4474 0.876 -0.094 0.473 90 68 29 0 0
0.2350 -0.0314 -1.4512 0.822 0.023 0.568 84 60 27 0 0
0.2896 -0.0229 -1.5590 0.931 0.179 0.317 79 58 28 0 0
0.2978 -0.0215 -1.5704 0.912 0.275 0.305 47 30 12 0 0
0.3114 -0.0192 -1.5945 0.563 0.019 0.826 161 137 96 0 0
0.3156 -0.0184 -1.5974 0.563 0.019 0.826 147 119 77 0 0
0.3197 -0.0176 -1.6003 0.563 0.019 0.826 168 137 84 0 0
0.3459 -0.0171 -1.7535 0.970 0.224 0.091 85 66 35 0 0
0.3493 -0.0165 -1.7568 0.993 0.011 0.116 68 48 22 0 0
0.3476 -0.0171 -1.7635 0.953 0.123 0.278 68 48 24 0 0
0.3729 -0.0150 -1.8645 0.932 0.223 0.287 76 52 26 0 0
0.3799 -0.0145 -1.8938 0.918 0.019 0.397 72 52 26 0 0
0.4122 -0.0104 -1.9853 0.874 -0.029 0.485 68 46 23 0 0
0.4207 -0.0089 -1.9962 0.925 -0.252 0.283 67 45 22 0 0
0.4235 -0.0088 -2.0115 0.919 0.298 0.257 66 44 21 0 0
0.4255 -0.0087 -2.0217 0.805 0.246 0.539 99 80 44 0 0
0.4513 -0.0046 -2.0717 0.932 0.156 0.328 83 61 31 0 0
0.4548 -0.0044 -2.0866 0.961 0.002 0.277 145 116 70 0 0
0.4561 -0.0043 -2.0915 0.930 -0.070 0.360 143 113 73 0 0
0.4578 -0.0040 -2.0960 0.930 -0.070 0.360 132 105 74 0 0
0.5094 0.0047 -2.1776 0.832 0.046 0.553 89 65 29 0 0
0.5119 0.0052 -2.1814 0.832 0.046 0.553 95 71 35 0 0
0.5132 0.0046 -2.2045 0.993 0.119 -0.015 99 74 34 0 0
0.5458 0.0116 -2.2173 0.829 0.171 0.533 103 80 39 0 0
0.5554 0.0132 -2.2328 0.842 0.016 0.539 89 71 37 0 0
0.5852 0.0186 -2.2717 0.992 -0.072 0.101 199 198 203 0 0
0.2304 -0.0370 -1.4435 0.836 0.100 0.539 84 60 26 0 0
0.2905 -0.0275 -1.5590 0.931 0.179 0.317 89 66 36 0 0
0.3122 -0.0238 -1.5945 0.527 0.086 0.846 181 158 119 0 0
0.3203 -0.0222 -1.6004 0.567 0.086 0.819 171 140 88 0 0
0.3634 -0.0128 -1.6115 0.493 0.167 0.854 151 123 86 0 0
0.3897 -0.0079 -1.6432 0.842 0.283 0.459 56 39 23 0 0
0.3926 -0.0076 -1.6521 0.953 0.241 0.184 94 73 42 0 0
0.3331 -0.0238 -1.7235 0.962 -0.261 0.084 79 61 41 0 0
0.3492 -0.0211 -1.7518 0.857 -0.254 0.448 76 59 27 0 0
0.3803 -0.0192 -1.8941 0.862 0.131 0.490 71 50 25 0 0
0.4125 -0.0152 -1.9856 0.918 -0.154 0.365 67 45 22 0 0
0.4216 -0.0142 -2.0137 0.896 -0.052 0.441 66 44 22 0 0
0.4221 -0.0143 -2.0191 0.926 -0.071 0.370 77 57 28 0 0
0.5149 0.0008 -2.1855 0.832 0.046 0.553 96 71 34 0 0
0.5855 0.0136 -2.2782 0.990 -0.120 0.068 204 204 209 0 0
0.0853 -0.0672 -1.2315 0.383 -0.321 0.866 115 93 69 0 0
0.1924 -0.0495 -1.4161 0.931 -0.312 0.189 166 136 93 0 0
0.2298 -0.0420 -1.4441 0.872 0.227 0.433 88 64 30 0 0
0.3116 -0.0288 -1.5952 0.495 -0.044 0.868 157 132 97 0 0
0.3209 -0.0268 -1.6004 0.495 -0.044 0.868 175 145 96 0 0
0.3645 -0.0172 -1.6113 0.493 0.167 0.854 142 114 76 0 0
0.3821 -0.0237 -1.8932 0.801 0.452 0.392 68 46 22 0 0
0.4091 -0.0208 -1.9830 0.952 0.154 0.265 65 43 20 0 0
0.4621 -0.0132 -2.1057 0.925 0.036 0.378 68 44 17 0 0
0.4674 -0.0125 -2.1191 0.907 0.153 0.393 81 58 27 0 0
0.5160 -0.0046 -2.2094 0.968 0.013 0.250 104 79 38 0 0
0.0819 -0.0728 -1.2281 0.454 -0.639 0.621 114 92 69 0 0
0.0917 -0.0707 -1.2342 0.586 -0.634 0.505 112 91 64 0 0
0.0935 -0.0705 -1.2386 0.801 -0.574 0.170 128 106 78 0 0
0.1128 -0.0706 -1.3606 0.749 -0.107 0.653 100 87 64 0 0
0.1171 -0.0698 -1.3639 0.623 -0.017 0.782 123 106 84 0 0
0.1889 -0.0550 -1.4130 0.947 -0.110 0.302 163 131 88 0 0
0.2267 -0.0472 -1.4356 0.842 -0.025 0.540 95 72 35 0 0
0.2809 -0.0387 -1.5439 0.871 0.164 0.462 61 42 15 0 0
0.3115 -0.0336 -1.5958 0.409 0.032 0.912 155 128 94 0 0
0.3173 -0.0323 -1.5976 0.527 0.091 0.845 157 132 87 0 0
0.3215 -0.0315 -1.6005 0.521 0.050 0.852 187 160 110 0 0
0.3557 -0.0323 -1.8327 0.959 0.085 0.269 76 55 28 0 0
0.3668 -0.0306 -1.8534 0.615 -0.056 0.786 66 44 20 0 0
0.3799 -0.0293 -1.9012 0.768 0.305 0.563 70 48 25 0 0
0.3825 -0.0289 -1.9050 0.768 0.305 0.563 70 49 25 0 0
0.3847 -0.0285 -1.9091 0.945 0.186 0.268 69 49 24 0 0
0.3861 -0.0284 -1.9139 0.945 0.186 0.268 70 50 25 0 0
0.3874 -0.0283 -1.9187 0.945 0.186 0.268 67 47 22 0 0
0.4099 -0.0257 -1.9888 0.885 -0.121 0.450 67 45 21 0 0
0.4290 -0.0221 -2.0090 0.714 -0.005 0.700 72 50 25 0 0
0.4418 -0.0210 -2.0577 0.806 -0.034 0.591 74 50 24 0 0
0.4445 -0.0205 -2.0613 0.806 -0.034 0.591 73 49 25 0 0
0.4776 -0.0151 -2.1230 0.928 -0.160 0.336 83 59 30 0 0
0.4838 -0.0140 -2.1297 0.852 0.016 0.523 78 55 23 0 0
0.4786 -0.0156 -2.1402 0.909 -0.040 0.414 79 56 24 0 0
0.5264 -0.0068 -2.2007 0.817 -0.074 0.572 103 78 37 0 0
0.5491 -0.0024 -2.2224 0.755 0.096 0.649 98 74 35 0 0
0.5512 -0.0020 -2.2266 0.927 -0.003 0.374 89 70 33 0 0
0.5855 0.0041 -2.2736 0.993 0.117 -0.014 200 201 206 0 0
0.1885 -0.0600 -1.4136 0.947 -0.110 0.302 159 128 87 0 0
0.2504 -0.0486 -1.4921 0.966 0.119 0.231 71 53 25 0 0
0.2514 -0.0486 -1.4968 0.965 0.086 0.248 72 55 25 0 0
0.3195 -0.0368 -1.6021 0.573 -0.049 0.818 186 163 108 0 0
0.3473 -0.0375 -1.7882 0.809 -0.357 0.467 119 95 60 0 0
0.3570 -0.0356 -1.7984 0.855 -0.267 0.445 91 71 39 0 0
0.3535 -0.0374 -1.8235 0.975 0.197 0.104 81 60 29 0 0
0.3562 -0.0371 -1.8329 0.959 0.085 0.269 74 54 28 0 0
0.3646 -0.0360 -1.8555 0.907 0.139 0.398 66 46 21 0 0
0.3668 -0.0357 -1.8596 0.892 0.195 0.408 69 47 23 0 0
0.4063 -0.0311 -1.9805 0.986 0.165 -0.035 65 43 19 0 0
0.4077 -0.0310 -1.9852 0.951 0.223 0.213 67 45 21 0 0
0.4114 -0.0302 -1.9882 0.835 0.233 0.499 67 45 21 0 0
0.4141 -0.0300 -1.9978 0.998 -0.044 -0.037 66 44 21 0 0
0.4697 -0.0217 -2.1185 0.889 0.051 0.456 80 57 26 0 0
0.4704 -0.0217 -2.1238 0.834 -0.125 0.538 82 59 28 0 0
0.5456 -0.0080 -2.2203 0.807 0.011 0.591 97 75 33 0 0
0.5514 -0.0069 -2.2271 0.870 -0.012 0.494 86 68 30 0 0
0.2510 -0.0533 -1.4922 0.966 0.119 0.231 72 52 25 0 0
0.2505 -0.0536 -1.4977 0.921 0.336 0.195 74 56 26 0 0
0.2535 -0.0533 -1.5067 0.779 0.230 0.584 65 45 18 0 0
0.3916 -0.0257 -1.6277 0.989 0.012 0.146 74 56 34 0 0
0.3930 -0.0262 -1.6483 0.965 -0.221 0.144 74 56 29 0 0
0.3465 -0.0434 -1.8118 0.976 -0.142 0.168 82 60 31 0 0
0.3519 -0.0425 -1.8194 0.974 0.223 0.032 82 61 30 0 0
0.3583 -0.0419 -1.8433 0.856 0.445 0.263 72 51 24 0 0
0.3594 -0.0418 -1.8482 0.881 0.458 0.118 69 48 22 0 0
0.3601 -0.0419 -1.8534 0.881 0.458 0.118 68 46 22 0 0
0.3609 -0.0419 -1.8587 0.881 0.458 0.118 69 47 23 0 0
0.3676 -0.0404 -1.8596 0.913 0.349 0.212 70 50 25 0 0
0.3729 -0.0396 -1.8729 0.939 0.100 0.330 69 49 24 0 0
0.3728 -0.0399 -1.8787 0.969 0.183 0.168 68 48 23 0 0
0.3746 -0.0401 -1.8946 0.974 0.187 0.128 68 46 22 0 0
0.3753 -0.0401 -1.8999 0.974 0.187 0.128 68 46 22 0 0
0.3775 -0.0398 -1.9040 0.900 -0.016 0.435 69 47 23 0 0
0.3868 -0.0382 -1.9202 0.750 0.055 0.659 65 43 19 0 0
0.4039 -0.0362 -1.9712 0.860 0.309 0.407 65 43 19 0 0
0.4174 -0.0345 -2.0076 0.881 -0.306 0.361 66 44 21 0 0
0.4285 -0.0320 -2.0106 0.860 -0.071 0.506 86 65 34 0 0
0.4708 -0.0265 -2.1241 0.950 -0.094 0.299 82 59 28 0 0
0.4960 -0.0224 -2.1686 0.848 0.045 0.528 81 58 26 0 0
0.5198 -0.0179 -2.1959 0.928 -0.114 0.356 102 77 37 0 0
0.5245 -0.0171 -2.2038 0.870 -0.071 0.488 105 80 39 0 0
0.5663 -0.0094 -2.2566 0.962 -0.178 0.209 77 68 51 0 0
0.5927 -0.0039 -2.2742 0.871 -0.089 0.483 205 205 210 0 0
0.0669 -0.0919 -1.2510 0.657 -0.492 0.572 167 161 153 0 0
0.2498 -0.0586 -1.4985 0.892 0.279 0.355 74 54 26 0 0
0.3720 -0.0344 -1.6137 0.423 -0.150 0.894 170 142 94 0 0
0.3910 -0.0306 -1.6285 0.976 -0.021 0.216 82 64 42 0 0
0.3924 -0.0304 -1.6330 0.989 0.012 0.146 81 63 41 0 0
0.3529 -0.0471 -1.8192 0.974 0.223 0.032 80 59 28 0 0
0.3718 -0.0446 -1.8685 0.788 -0.250 0.562 69 49 24 0 0
0.3746 -0.0441 -1.8722 0.788 -0.250 0.562 67 47 22 0 0
0.3758 -0.0447 -1.8943 0.974 0.205 0.092 68 46 22 0 0
0.3763 -0.0448 -1.8997 0.980 0.073 0.182 67 45 21 0 0
0.3779 -0.0446 -1.9043 0.965 0.026 0.262 67 45 21 0 0
0.3804 -0.0441 -1.9082 0.922 -0.116 0.369 67 45 21 0 0
0.3844 -0.0435 -1.9168 0.840 -0.069 0.538 66 44 20 0 0
0.3918 -0.0423 -1.9286 0.942 0.318 0.110 65 43 19 0 0
0.4349 -0.0373 -2.0591 0.984 0.007 0.179 69 47 23 0 0
0.4691 -0.0314 -2.1142 0.934 0.173 0.314 82 59 28 0 0
0.4711 -0.0311 -2.1185 0.893 0.166 0.418 82 59 28 0 0
0.4731 -0.0308 -2.1229 0.893 0.166 0.418 82 59 28 0 0
0.4753 -0.0307 -2.1329 0.980 0.025 0.196 80 57 26 0 0
0.5276 -0.0214 -2.2077 0.783 -0.144 0.605 104 81 39 0 0
0.5532 -0.0166 -2.2390 0.876 -0.031 0.481 70 55 23 0 0
0.5653 -0.0145 -2.2582 0.923 0.068 0.378 80 72 55 0 0
0.0467 -0.1013 -1.2444 0.347 -0.668 0.659 156 152 148 0 0
0.0545 -0.0995 -1.2463 0.385 -0.696 0.606 181 179 176 0 0
0.0550 -0.0996 -1.2513 0.507 -0.743 0.437 200 199 198 0 0
0.0608 -0.0983 -1.2540 0.692 -0.558 0.458 202 201 202 0 0
0.1879 -0.0747 -1.4149 0.841 -0.149 0.521 148 119 82 0 0
0.1918 -0.0740 -1.4182 0.780 0.050 0.624 153 125 89 0 0
0.1940 -0.0736 -1.4224 0.570 0.338 0.749 131 105 73 0 0
0.3299 -0.0533 -1.7173 0.985 0.169 0.038 64 44 20 0 0
0.3783 -0.0494 -1.9045 0.903 0.072 0.423 69 47 23 0 0
0.3803 -0.0491 -1.9088 0.903 0.072 0.423 70 48 24 0 0
0.3882 -0.0477 -1.9203 0.721 0.186 0.667 65 43 19 0 0
0.4141 -0.0443 -1.9879 0.831 0.186 0.524 66 44 20 0 0
0.4357 -0.0418 -2.0532 0.877 0.283 0.388 67 46 21 0 0
0.4368 -0.0417 -2.0582 0.889 0.413 0.198 68 46 22 0 0
0.4402 -0.0410 -2.0613 0.905 -0.180 0.386 70 48 24 0 0
0.4412 -0.0410 -2.0665 0.905 0.090 0.416 72 50 25 0 0
0.4736 -0.0361 -2.1350 0.956 0.264 0.129 80 57 26 0 0
0.0324 -0.1097 -1.2455 0.339 -0.667 0.664 200 200 201 0 0
0.0390 -0.1082 -1.2480 0.355 -0.672 0.650 200 200 203 0 0
0.0446 -0.1070 -1.2508 0.380 -0.648 0.660 200 201 203 0 0
0.1881 -0.0796 -1.4152 0.715 -0.021 0.698 146 119 83 0 0
0.1926 -0.0786 -1.4181 0.795 0.128 0.593 130 104 72 0 0
0.1954 -0.0781 -1.4220 0.854 0.168 0.492 134 111 81 0 0
0.2408 -0.0696 -1.4776 0.809 -0.423 0.407 98 75 43 0 0
0.2688 -0.0660 -1.5529 0.940 0.098 0.328 54 37 15 0 0
0.3523 -0.0484 -1.6107 0.414 -0.019 0.910 168 141 98 0 0
0.3827 -0.0420 -1.6293 0.902 0.294 0.317 79 58 35 0 0
0.3292 -0.0583 -1.7183 0.980 0.156 0.125 66 45 20 0 0
0.3299 -0.0584 -1.7234 0.980 0.156 0.125 76 55 31 0 0
0.3651 -0.0548 -1.8401 0.894 -0.175 0.412 72 52 25 0 0
0.3788 -0.0542 -1.9047 0.904 0.321 0.281 71 49 25 0 0
0.3803 -0.0540 -1.9093 0.870 0.244 0.428 72 51 27 0 0
0.3817 -0.0539 -1.9141 0.904 0.321 0.281 71 50 26 0 0
0.3822 -0.0540 -1.9195 0.864 0.397 0.310 67 45 21 0 0
0.4133 -0.0492 -1.9832 0.856 0.448 0.259 67 45 21 0 0
0.4150 -0.0489 -1.9877 0.910 0.323 0.258 66 44 19 0 0
0.4405 -0.0461 -2.0677 0.868 0.089 0.489 73 50 25 0 0
0.4534 -0.0443 -2.0988 0.995 0.039 0.086 81 62 32 0 0
0.5662 -0.0240 -2.2588 0.923 0.068 0.378 90 82 67 0 0
0.0202 -0.1176 -1.2458 0.191 -0.477 0.858 200 201 203 0 0
0.0328 -0.1148 -1.2509 0.374 -0.636 0.675 201 201 203 0 0
0.0396 -0.1133 -1.2533 0.407 -0.604 0.685 201 201 203 0 0
0.0865 -0.1071 -1.3753 0.754 -0.075 0.652 95 78 59 0 0
0.1903 -0.0839 -1.4144 0.745 0.137 0.653 151 124 85 0 0
0.1939 -0.0831 -1.4178 0.854 0.168 0.492 138 113 80 0 0
0.1969 -0.0826 -1.4216 0.802 0.127 0.584 143 119 84 0 0
0.2256 -0.0770 -1.4543 0.922 0.031 0.385 91 68 34 0 0
0.2698 -0.0706 -1.5528 0.904 -0.065 0.423 61 44 24 0 0
0.2931 -0.0664 -1.5877 0.792 0.010 0.611 108 89 64 0 0
0.3175 -0.0611 -1.6001 0.575 0.081 0.814 173 149 102 0 0
0.3533 -0.0529 -1.6105 0.432 -0.015 0.902 184 154 108 0 0
0.3284 -0.0632 -1.7137 0.959 -0.048 0.280 75 55 28 0 0
0.3289 -0.0633 -1.7190 0.980 0.049 0.192 71 50 26 0 0
0.3303 -0.0632 -1.7236 0.938 0.315 0.147 80 60 36 0 0
0.4143 -0.0538 -1.9830 0.857 0.499 0.128 67 45 21 0 0
0.4432 -0.0503 -2.0661 0.942 0.176 0.285 73 50 24 0 0
0.4473 -0.0499 -2.0806 0.950 -0.279 0.139 110 84 40 0 0
0.5126 -0.0387 -2.1868 0.758 0.314 0.572 96 72 34 0 0
0.3182 -0.0657 -1.6001 0.575 0.081 0.814 192 171 119 0 0
0.3910 -0.0497 -1.6357 0.906 -0.023 0.424 76 55 34 0 0
0.3261 -0.0689 -1.7213 0.912 -0.214 0.351 70 50 26 0 0
0.4022 -0.0608 -1.9637 0.906 0.040 0.421 67 45 22 0 0
0.4403 -0.0558 -2.0632 0.854 0.032 0.519 71 49 24 0 0
0.4427 -0.0554 -2.0671 0.854 0.032 0.519 75 52 26 0 0
0.4469 -0.0548 -2.0756 0.904 -0.375 0.203 96 74 32 0 0
0.5560 -0.0356 -2.2453 0.909 0.023 0.415 63 50 23 0 0
0.5579 -0.0353 -2.2496 0.909 0.023 0.415 65 54 28 0 0
0.5599 -0.0350 -2.2539 0.909 0.023 0.415 71 61 35 0 0
0.3134 -0.0716 -1.5980 0.638 0.255 0.727 191 167 116 0 0
0.3168 -0.0709 -1.6014 0.642 0.262 0.720 201 176 120 0 0
0.3310 -0.0768 -1.8199 0.907 -0.269 0.324 88 67 35 0 0
0.3811 -0.0680 -1.8989 0.967 0.182 0.180 67 45 21 0 0
0.4012 -0.0640 -1.9186 0.775 0.128 0.619 64 42 18 0 0
0.4045 -0.0654 -1.9683 0.865 -0.109 0.490 67 45 23 0 0
0.4149 -0.0650 -2.0190 0.745 -0.037 0.666 89 67 28 0 0
0.5251 -0.0461 -2.2012 0.947 0.086 0.310 101 78 38 0 0
0.5532 -0.0413 -2.2486 0.959 0.139 0.247 57 44 17 0 0
0.5551 -0.0410 -2.2529 0.908 0.126 0.400 61 50 23 0 0
0.2217 -0.0929 -1.4628 0.766 -0.121 0.632 92 71 36 0 0
0.3184 -0.0753 -1.6009 0.621 0.020 0.783 197 172 116 0 0
0.3397 -0.0779 -1.7804 0.992 -0.060 -0.108 74 49 26 0 0
0.3391 -0.0783 -1.7865 0.992 -0.060 -0.108 115 89 64 0 0
0.3384 -0.0788 -1.7926 0.992 -0.060 -0.108 126 102 72 0 0
0.3544 -0.0758 -1.8156 0.938 0.301 0.173 82 61 30 0 0
0.3819 -0.0727 -1.8988 0.974 0.099 0.202 67 45 22 0 0
0.3987 -0.0694 -1.9153 0.836 0.044 0.547 65 46 22 0 0
0.4169 -0.0689 -2.0062 0.889 -0.281 0.362 68 44 21 0 0
0.4137 -0.0700 -2.0147 0.954 -0.129 0.271 69 46 16 0 0
0.4205 -0.0689 -2.0269 0.963 -0.204 -0.178 149 117 65 0 0
0.4729 -0.0610 -2.1388 0.948 -0.009 0.319 80 57 25 0 0
0.5209 -0.0519 -2.1996 0.938 -0.231 0.257 103 79 38 0 0
0.5256 -0.0508 -2.2014 0.947 0.086 0.310 103 78 38 0 0
0.5446 -0.0473 -2.2267 0.844 -0.058 0.533 90 67 31 0 0
0.5582 -0.0450 -2.2507 0.929 -0.239 0.281 67 54 27 0 0
0.5600 -0.0448 -2.2552 0.892 -0.209 0.400 73 62 40 0 0
0.1592 -0.1107 -1.4104 0.651 -0.440 0.619 146 119 80 0 0
0.1984 -0.1026 -1.4435 0.965 0.249 0.075 109 86 52 0 0
0.1989 -0.1027 -1.4486 0.965 0.249 0.075 123 101 65 0 0
0.3748 -0.0796 -1.9046 0.844 0.023 0.536 67 45 22 0 0
0.2101 -0.1053 -1.4591 0.694 0.248 0.676 101 78 44 0 0
0.2454 -0.0998 -1.5310 0.860 -0.497 0.118 64 45 22 0 0
0.3185 -0.0849 -1.6016 0.808 -0.200 0.554 194 166 119 0 0
0.3335 -0.0928 -1.8599 0.552 0.514 0.656 70 48 24 0 0
0.5348 -0.0586 -2.2067 0.948 -0.117 0.295 101 76 35 0 0
0.0309 -0.1521 -1.4041 0.060 -0.656 0.752 118 99 80 0 0
0.2159 -0.1088 -1.4617 0.931 -0.358 0.069 98 75 42 0 0
0.2463 -0.1039 -1.5201 0.873 -0.469 0.135 74 52 28 0 0
0.2392 -0.1061 -1.5294 0.756 -0.497 0.425 66 45 22 0 0
0.2424 -0.1055 -1.5331 0.860 -0.497 0.118 94 76 53 0 0
0.3352 -0.0949 -1.8077 0.965 -0.053 0.255 94 74 42 0 0
0.2420 -0.1095 -1.5121 0.873 -0.469 0.135 79 58 30 0 0
0.2435 -0.1096 -1.5220 0.873 -0.469 0.135 75 53 30 0 0
0.2446 -0.1095 -1.5268 0.813 -0.475 0.338 68 48 30 0 0
0.2472 -0.1090 -1.5307 0.801 -0.424 0.423 105 88 69 0 0
0.3684 -0.0832 -1.6257 0.935 -0.019 0.355 91 71 41 0 0
0.3727 -0.0932 -1.8674 0.628 -0.143 0.765 68 48 23 0 0
0.3622 -0.0970 -1.8923 0.737 0.398 0.547 70 50 25 0 0
0.3987 -0.0925 -1.9933 0.759 0.269 0.594 68 47 22 0 0
0.4033 -0.0915 -1.9956 0.989 0.024 0.143 67 44 20 0 0
0.4306 -0.0875 -2.0568 0.748 0.141 0.649 71 50 22 0 0
0.4989 -0.0760 -2.1793 0.823 0.055 0.566 94 70 36 0 0
0.5307 -0.0693 -2.2056 0.953 0.184 0.239 103 78 37 0 0
0.5313 -0.0694 -2.2112 0.953 0.140 0.267 101 76 35 0 0
0.5375 -0.0682 -2.2177 0.855 0.412 0.315 101 76 35 0 0
0.1068 -0.1433 -1.4058 0.431 -0.224 0.874 116 96 70 0 0
0.1975 -0.1236 -1.4722 0.629 -0.181 0.756 111 90 59 0 0
0.2362 -0.1160 -1.5157 0.813 -0.475 0.338 86 65 35 0 0
0.2394 -0.1156 -1.5248 0.823 -0.480 0.305 67 45 23 0 0
0.2411 -0.1154 -1.5292 0.823 -0.480 0.305 87 69 50 0 0
0.2439 -0.1148 -1.5330 0.841 -0.376 0.390 95 77 58 0 0
0.3697 -0.0876 -1.6254 0.836 -0.002 0.548 80 58 32 0 0
0.3497 -0.1020 -1.8271 0.902 0.050 0.428 79 58 27 0 0
0.3768 -0.0975 -1.8765 0.840 0.038 0.541 71 51 25 0 0
0.3602 -0.1028 -1.9001 0.832 0.343 0.436 70 50 25 0 0
0.4005 -0.0969 -1.9925 0.822 0.157 0.547 67 46 21 0 0
0.4118 -0.0970 -2.0547 0.921 0.120 0.372 74 54 23 0 0
0.5318 -0.0742 -2.2114 0.858 -0.091 0.506 102 77 36 0 0
0.5408 -0.0724 -2.2214 0.831 0.266 0.489 99 74 33 0 0
0.1161 -0.1463 -1.4123 0.678 -0.092 0.730 98 76 52 0 0
0.2313 -0.1222 -1.5189 0.510 -0.476 0.717 90 69 38 0 0
0.2353 -0.1214 -1.5220 0.736 -0.354 0.577 89 68 37 0 0
0.2385 -0.1207 -1.5257 0.736 -0.354 0.577 78 57 30 0 0
0.2417 -0.1201 -1.5292 0.842 -0.485 0.239 104 86 60 0 0
0.2422 -0.1202 -1.5344 0.841 -0.376 0.390 78 56 31 0 0
0.2396 -0.1217 -1.5521 0.728 -0.457 0.511 85 67 37 0 0
0.3709 -0.0928 -1.6412 0.949 0.007 0.315 74 55 30 0 0
0.3207 -0.1101 -1.7398 0.979 0.030 0.204 95 74 47 0 0
0.3501 -0.1068 -1.8273 0.902 0.050 0.428 79 58 27 0 0
0.3761 -0.1024 -1.8718 0.802 -0.297 0.518 72 53 23 0 0
0.3785 -0.1019 -1.8758 0.921 0.273 0.276 71 51 24 0 0
0.4245 -0.0994 -2.0690 0.702 -0.102 0.705 74 52 26 0 0
0.4279 -0.0987 -2.0722 0.702 -0.102 0.705 72 49 22 0 0
0.4593 -0.0924 -2.1061 0.938 0.096 0.332 80 59 27 0 0
0.4610 -0.0922 -2.1108 0.938 0.096 0.332 80 60 27 0 0
0.4626 -0.0920 -2.1154 0.938 0.096 0.332 80 59 28 0 0
0.4898 -0.0883 -2.1826 0.918 -0.044 0.394 90 66 32 0 0
0.4918 -0.0880 -2.1870 0.919 0.017 0.393 90 66 32 0 0
0.1244 -0.1495 -1.4193 0.729 -0.079 0.680 120 100 74 0 0
0.1288 -0.1485 -1.4225 0.666 -0.168 0.727 114 94 68 0 0
0.2284 -0.1277 -1.5155 0.663 -0.518 0.541 92 71 40 0 0
0.2293 -0.1277 -1.5204 0.553 -0.428 0.715 90 70 39 0 0
0.2323 -0.1271 -1.5241 0.590 -0.315 0.743 74 52 24 0 0
0.2371 -0.1260 -1.5268 0.821 -0.529 0.213 118 93 65 0 0
0.2401 -0.1273 -1.5686 0.787 -0.098 0.609 107 83 49 0 0
0.3711 -0.0975 -1.6416 0.949 0.007 0.315 75 55 27 0 0
0.4390 -0.1002 -2.0578 0.970 0.073 0.232 74 53 26 0 0
0.4269 -0.1040 -2.0737 0.707 0.107 0.699 77 53 25 0 0
0.4924 -0.0925 -2.1810 0.774 0.043 0.632 91 67 33 0 0
0.4953 -0.0920 -2.1846 0.774 0.043 0.632 91 67 33 0 0
0.5214 -0.0866 -2.2100 0.885 0.121 0.450 99 76 35 0 0
0.5503 -0.0830 -2.2877 0.826 -0.049 0.562 186 186 188 0 0
0.2216 -0.1343 -1.5143 0.725 -0.525 0.447 95 74 43 0 0
0.2265 -0.1334 -1.5223 0.514 -0.515 0.686 93 72 44 0 0
0.2317 -0.1322 -1.5249 0.640 -0.498 0.585 100 77 49 0 0
0.2334 -0.1320 -1.5293 0.756 -0.591 0.282 131 107 75 0 0
0.2349 -0.1318 -1.5339 0.773 -0.590 0.232 98 75 42 0 0
0.2417 -0.1317 -1.5681 0.596 0.020 0.803 108 85 49 0 0
0.3352 -0.1097 -1.6049 0.547 0.181 0.818 148 120 78 0 0
0.3574 -0.1174 -1.8806 0.904 -0.216 0.369 77 57 30 0 0
0.3849 -0.1127 -1.9300 0.990 0.040 -0.137 68 46 23 0 0
0.5207 -0.0914 -2.2052 0.889 0.242 0.388 98 75 34 0 0
0.5228 -0.0911 -2.2094 0.900 0.110 0.422 98 75 34 0 0
0.5295 -0.0900 -2.2216 0.870 -0.014 0.492 101 78 37 0 0
0.1740 -0.1492 -1.4701 0.801 -0.504 0.324 105 85 56 0 0
0.1759 -0.1489 -1.4745 0.801 -0.504 0.324 97 78 48 0 0
0.2258 -0.1385 -1.5231 0.706 -0.678 0.205 85 62 33 0 0
0.2288 -0.1382 -1.5323 0.703 -0.685 0.191 103 80 47 0 0
0.2302 -0.1381 -1.5369 0.703 -0.685 0.191 107 85 51 0 0
0.2391 -0.1374 -1.5700 0.511 0.601 0.615 114 93 54 0 0
0.3355 -0.1144 -1.6051 0.595 0.098 0.798 136 109 70 0 0
0.3403 -0.1133 -1.6076 0.749 -0.062 0.660 141 116 76 0 0
0.4258 -0.1140 -2.0698 0.645 0.066 0.761 72 51 24 0 0
0.4970 -0.1014 -2.1844 0.795 0.333 0.506 87 63 29 0 0
0.5193 -0.0965 -2.2011 0.875 0.378 0.301 98 75 35 0 0
0.5218 -0.0960 -2.2049 0.889 0.242 0.388 99 76 35 0 0
0.5239 -0.0957 -2.2091 0.886 0.050 0.460 97 74 33 0 0
0.5274 -0.0952 -2.2181 0.870 -0.014 0.492 86 63 22 0 0
0.5297 -0.0948 -2.2221 0.870 -0.014 0.492 95 72 31 0 0
0.2271 -0.1444 -1.5500 0.382 0.391 0.837 108 86 52 0 0
0.3393 -0.1184 -1.6086 0.651 0.002 0.759 140 115 77 0 0
0.4004 -0.1233 -2.0251 0.808 -0.288 0.514 100 80 45 0 0
0.4038 -0.1226 -2.0284 0.909 -0.316 0.270 133 107 66 0 0
0.4053 -0.1225 -2.0332 0.909 -0.316 0.270 128 103 61 0 0
0.4749 -0.1106 -2.1558 0.786 0.113 0.607 79 56 24 0 0
0.5268 -0.1004 -2.2194 0.825 -0.246 0.509 92 69 28 0 0
0.5293 -0.0999 -2.2233 0.825 -0.246 0.509 94 71 30 0 0
0.2206 -0.1512 -1.5541 0.798 0.600 0.056 105 85 51 0 0
0.3584 -0.1190 -1.6243 0.926 0.035 0.376 98 77 50 0 0
0.3120 -0.1404 -1.8105 0.896 -0.167 0.413 104 81 49 0 0
0.3200 -0.1387 -1.8165 0.928 -0.329 0.173 98 75 41 0 0
0.3204 -0.1391 -1.8277 0.890 -0.454 -0.033 98 75 41 0 0
0.3994 -0.1286 -2.0265 0.808 -0.288 0.514 112 91 59 0 0
0.4024 -0.1280 -2.0301 0.909 -0.316 0.270 141 116 77 0 0
0.4039 -0.1279 -2.0349 0.909 -0.316 0.270 109 86 45 0 0
0.4063 -0.1275 -2.0389 0.974 -0.117 0.193 86 65 29 0 0
0.3920 -0.1321 -2.0563 0.937 0.235 0.258 72 52 21 0 0
0.4193 -0.1254 -2.0643 0.948 0.285 0.141 72 51 23 0 0
0.4197 -0.1259 -2.0760 0.769 -0.306 0.562 84 62 35 0 0
0.4244 -0.1251 -2.0842 0.881 -0.369 0.297 116 92 54 0 0
0.4284 -0.1245 -2.0929 0.929 -0.252 0.270 119 99 64 0 0
0.4676 -0.1172 -2.1506 0.750 -0.087 0.656 77 54 23 0 0
0.5024 -0.1106 -2.1993 0.872 0.070 0.484 92 67 32 0 0
0.5037 -0.1105 -2.2042 0.815 0.294 0.500 95 71 35 0 0
0.5632 -0.0994 -2.2907 0.186 0.706 0.684 203 204 207 0 0
0.5687 -0.0981 -2.2917 0.861 -0.032 0.507 206 206 208 0 0
0.1558 -0.1693 -1.4808 0.799 -0.581 0.151 110 90 60 0 0
0.2000 -0.1622 -1.5662 0.939 0.341 0.044 106 86 53 0 0
0.2224 -0.1559 -1.5589 0.677 -0.551 0.488 107 87 54 0 0
0.3099 -0.1463 -1.8181 0.967 0.119 0.223 103 80 46 0 0
0.3191 -0.1439 -1.8176 0.920 -0.388 -0.049 100 77 43 0 0
0.3335 -0.1429 -1.8710 1.000 0.001 -0.026 82 61 30 0 0
0.3314 -0.1438 -1.8782 0.743 -0.192 0.642 84 63 32 0 0
0.3676 -0.1378 -1.9452 0.956 0.009 0.293 65 44 23 0 0
0.3968 -0.1347 -2.0351 1.000 -0.020 0.022 132 107 71 0 0
0.4365 -0.1279 -2.1050 0.749 0.038 0.661 73 52 21 0 0
0.4429 -0.1266 -2.1117 0.912 0.307 0.274 89 68 37 0 0
0.4824 -0.1192 -2.1688 0.904 -0.115 0.411 85 62 30 0 0
0.4880 -0.1184 -2.1822 0.901 -0.043 0.432 87 65 27 0 0
0.5026 -0.1155 -2.1997 0.869 0.130 0.477 90 67 31 0 0
0.5070 -0.1148 -2.2081 0.869 0.148 0.471 97 74 38 0 0
0.5311 -0.1096 -2.2291 0.860 0.109 0.499 94 72 33 0 0
0.5479 -0.1079 -2.2812 0.850 0.036 0.525 175 175 175 0 0
0.2019 -0.1643 -1.5217 0.733 -0.231 0.640 89 69 36 0 0
0.2035 -0.1642 -1.5263 0.873 -0.408 0.268 118 97 66 0 0
0.2059 -0.1637 -1.5304 0.887 -0.435 0.154 111 90 59 0 0
0.2077 -0.1635 -1.5348 0.972 -0.072 -0.225 104 84 51 0 0
0.2190 -0.1619 -1.5613 0.628 -0.548 0.553 109 88 57 0 0
0.2571 -0.1533 -1.5886 0.359 -0.248 0.900 107 87 59 0 0
0.2630 -0.1519 -1.5906 0.359 -0.248 0.900 113 95 69 0 0
0.3114 -0.1503 -1.8061 0.889 0.298 0.348 99 75 43 0 0
0.3132 -0.1501 -1.8107 0.889 0.298 0.348 100 77 45 0 0
0.3157 -0.1496 -1.8147 0.966 0.257 -0.033 100 77 43 0 0
0.3309 -0.1490 -1.8791 0.743 -0.192 0.642 84 63 32 0 0
0.3490 -0.1462 -1.9185 0.766 0.242 0.596 76 56 29 0 0
0.4007 -0.1392 -2.0446 0.939 0.185 0.290 76 57 25 0 0
0.4439 -0.1316 -2.1175 0.932 -0.156 0.328 79 58 27 0 0
0.5056 -0.1199 -2.2039 0.869 0.148 0.471 93 71 34 0 0
0.5078 -0.1195 -2.2080 0.869 0.148 0.471 93 71 34 0 0
0.5113 -0.1188 -2.2110 0.733 -0.133 0.668 95 73 35 0 0
0.5144 -0.1181 -2.2143 0.733 -0.133 0.668 97 73 35 0 0
0.5136 -0.1187 -2.2211 0.807 0.477 0.348 101 77 39 0 0
0.1975 -0.1709 -1.5300 0.747 -0.608 0.270 108 87 56 0 0
0.2158 -0.1678 -1.5635 0.628 -0.548 0.553 108 88 55 0 0
0.2195 -0.1670 -1.5669 0.628 -0.548 0.553 114 94 60 0 0
0.2374 -0.1629 -1.5785 0.770 -0.412 0.487 109 87 55 0 0
0.2418 -0.1619 -1.5815 0.656 -0.330 0.678 110 90 60 0 0
0.2453 -0.1611 -1.5849 0.617 -0.292 0.730 115 96 64 0 0
0.2560 -0.1586 -1.5896 0.359 -0.248 0.900 116 99 66 0 0
0.2620 -0.1571 -1.5916 0.359 -0.248 0.900 101 84 58 0 0
0.3126 -0.1555 -1.8173 0.961 0.261 -0.088 99 76 42 0 0
0.3128 -0.1561 -1.8287 0.891 0.154 0.427 100 78 43 0 0
0.3290 -0.1536 -1.8636 0.996 0.085 -0.034 84 63 32 0 0
0.3261 -0.1548 -1.8714 0.932 0.262 -0.252 88 67 36 0 0
0.3493 -0.1506 -1.9072 0.946 0.272 0.175 78 59 27 0 0
0.3492 -0.1509 -1.9131 0.829 0.396 0.395 79 59 31 0 0
0.3490 -0.1513 -1.9191 0.826 0.354 0.439 75 55 29 0 0
0.3511 -0.1509 -1.9234 0.826 0.354 0.439 68 48 23 0 0
0.3710 -0.1471 -1.9496 0.931 -0.116 0.345 65 44 23 0 0
0.3931 -0.1453 -2.0273 0.958 -0.053 0.280 130 104 63 0 0
0.4196 -0.1416 -2.0900 0.944 -0.314 0.102 143 121 80 0 0
0.4377 -0.1376 -2.1052 0.804 -0.028 0.594 73 53 21 0 0
0.4405 -0.1371 -2.1089 0.804 -0.028 0.594 75 56 24 0 0
0.5157 -0.1230 -2.2200 0.697 0.512 0.502 99 77 40 0 0
0.5223 -0.1219 -2.2324 0.770 0.446 0.456 100 78 41 0 0
0.5512 -0.1164 -2.2734 0.892 -0.276 0.359 164 164 163 0 0
0.2013 -0.1756 -1.5447 0.968 -0.196 0.159 95 74 43 0 0
0.2017 -0.1758 -1.5500 0.866 0.349 0.359 99 78 47 0 0
0.2000 -0.1766 -1.5564 0.903 0.217 -0.371 108 87 57 0 0
0.2164 -0.1726 -1.5636 0.668 -0.644 0.374 107 86 54 0 0
0.2247 -0.1710 -1.5753 0.715 -0.551 0.429 93 74 42 0 0
0.2400 -0.1674 -1.5830 0.556 -0.331 0.762 113 93 62 0 0
0.2445 -0.1663 -1.5858 0.556 -0.331 0.762 114 95 62 0 0
0.2550 -0.1638 -1.5906 0.359 -0.248 0.900 103 86 54 0 0
0.2610 -0.1623 -1.5926 0.359 -0.248 0.900 99 81 54 0 0
0.3033 -0.1624 -1.8070 0.844 -0.506 0.180 106 83 49 0 0
0.3130 -0.1601 -1.8118 0.960 0.219 0.173 97 74 40 0 0
0.3142 -0.1604 -1.8225 0.985 -0.103 0.137 101 78 44 0 0
0.3106 -0.1633 -1.8597 0.843 -0.485 0.233 90 67 35 0 0
0.3107 -0.1636 -1.8654 0.947 -0.300 -0.113 89 67 35 0 0
0.3239 -0.1599 -1.8620 0.924 -0.372 0.090 86 65 34 0 0
0.3294 -0.1585 -1.8638 0.985 0.106 0.133 87 66 35 0 0
0.3299 -0.1587 -1.8693 0.998 -0.014 -0.065 89 68 37 0 0
0.3299 -0.1590 -1.8751 0.949 0.298 -0.105 87 66 36 0 0
0.3325 -0.1585 -1.8791 0.946 0.141 0.291 89 68 38 0 0
0.3352 -0.1580 -1.8830 0.775 0.038 0.631 90 69 39 0 0
0.3372 -0.1577 -1.8873 0.664 -0.249 0.705 84 63 34 0 0
0.3414 -0.1567 -1.8901 0.749 -0.461 0.476 76 55 26 0 0
0.3447 -0.1561 -1.8936 0.673 -0.525 0.521 73 52 23 0 0
0.3472 -0.1556 -1.8975 0.742 -0.431 0.513 75 56 26 0 0
0.3516 -0.1549 -1.9060 0.997 0.033 0.070 77 58 28 0 0
0.3519 -0.1551 -1.9116 0.996 0.025 0.086 80 61 31 0 0
0.3505 -0.1558 -1.9185 0.877 0.333 0.348 71 51 24 0 0
0.3527 -0.1555 -1.9228 0.726 0.564 0.392 72 52 26 0 0
0.3702 -0.1523 -1.9508 0.910 -0.152 0.385 67 46 25 0 0
0.3741 -0.1514 -1.9537 0.831 -0.150 0.536 66 45 24 0 0
0.4030 -0.1485 -2.0440 0.966 -0.020 0.259 76 55 24 0 0
0.4168 -0.1468 -2.0808 0.930 -0.064 0.361 105 82 46 0 0
0.4186 -0.1466 -2.0854 0.930 -0.064 0.361 134 110 70 0 0
0.4204 -0.1464 -2.0899 0.930 -0.064 0.361 132 110 75 0 0
0.4236 -0.1457 -2.0934 0.839 0.052 0.542 97 76 50 0 0
0.4351 -0.1431 -2.1020 0.804 -0.028 0.594 72 51 21 0 0
0.4379 -0.1426 -2.1057 0.804 -0.028 0.594 74 54 22 0 0
0.4634 -0.1385 -2.1568 0.773 -0.336 0.537 78 54 26 0 0
0.5224 -0.1262 -2.2207 0.842 0.158 0.517 100 78 41 0 0
0.5224 -0.1266 -2.2268 0.939 0.310 0.150 101 79 42 0 0
0.0391 -0.2202 -1.4766 0.918 -0.023 0.395 146 142 137 0 0
0.1997 -0.1823 -1.5680 0.770 -0.570 0.288 106 85 54 0 0
0.2402 -0.1726 -1.5887 0.297 -0.409 0.863 118 98 63 0 0
0.2463 -0.1710 -1.5907 0.359 -0.365 0.859 116 97 63 0 0
0.2955 -0.1584 -1.5998 0.344 0.102 0.934 144 115 77 0 0
0.2993 -0.1576 -1.6030 0.463 0.134 0.876 147 118 78 0 0
0.3011 -0.1681 -1.8090 0.909 -0.398 0.124 103 80 48 0 0
0.3123 -0.1650 -1.8071 0.888 -0.188 0.419 102 79 46 0 0
0.3136 -0.1649 -1.8119 0.965 0.081 0.250 102 79 45 0 0
0.3135 -0.1659 -1.8293 0.901 -0.141 0.410 83 60 31 0 0
0.3155 -0.1656 -1.8336 0.901 -0.141 0.410 72 48 20 0 0
0.3300 -0.1634 -1.8640 0.985 0.106 0.133 90 69 38 0 0
0.3323 -0.1639 -1.8856 0.730 -0.401 0.553 86 65 34 0 0
0.3360 -0.1631 -1.8887 0.727 -0.403 0.555 82 61 30 0 0
0.3390 -0.1625 -1.8924 0.733 -0.478 0.484 78 57 27 0 0
0.3516 -0.1602 -1.9124 0.992 -0.042 0.121 78 59 29 0 0
0.3516 -0.1605 -1.9182 0.961 0.107 0.255 77 58 27 0 0
0.3461 -0.1625 -1.9281 0.733 0.406 0.546 78 59 29 0 0
0.3575 -0.1603 -1.9432 0.849 -0.427 0.312 71 51 27 0 0
0.3746 -0.1572 -1.9716 0.961 -0.095 0.261 70 51 27 0 0
0.3759 -0.1575 -1.9824 0.980 0.197 -0.002 69 50 26 0 0
0.3760 -0.1578 -1.9883 0.980 0.197 -0.002 63 45 22 0 0
0.3772 -0.1577 -1.9933 0.951 0.132 0.278 62 44 22 0 0
0.4943 -0.1374 -2.1976 0.856 0.307 0.415 90 68 31 0 0
0.5239 -0.1307 -2.2200 0.748 0.338 0.571 88 66 29 0 0
0.2956 -0.1633 -1.6002 0.337 -0.047 0.940 139 112 74 0 0
0.3002 -0.1622 -1.6029 0.437 -0.008 0.900 147 119 80 0 0
0.3050 -0.1610 -1.6054 0.399 -0.006 0.917 151 124 83 0 0
0.3025 -0.1715 -1.7856 0.932 -0.295 0.209 102 80 48 0 0
0.3036 -0.1714 -1.7906 0.932 -0.295 0.209 116 95 61 0 0
0.3032 -0.1719 -1.7966 0.925 -0.379 -0.008 109 87 52 0 0
0.2987 -0.1739 -1.8111 0.883 -0.429 0.192 105 82 49 0 0
0.3137 -0.1712 -1.8354 0.891 -0.332 0.310 101 78 46 0 0
0.3154 -0.1710 -1.8400 0.891 -0.332 0.310 99 76 44 0 0
0.3105 -0.1734 -1.8608 0.963 0.030 -0.268 92 69 38 0 0
0.3150 -0.1726 -1.8693 0.967 0.213 0.143 94 74 42 0 0
0.3486 -0.1661 -1.9152 0.977 -0.137 0.165 79 60 29 0 0
0.3522 -0.1653 -1.9184 0.961 0.107 0.255 80 61 30 0 0
0.3535 -0.1652 -1.9232 0.951 0.109 0.288 80 61 29 0 0
0.4164 -0.1567 -2.0764 0.914 -0.403 0.049 99 76 42 0 0
0.4146 -0.1576 -2.0839 0.971 -0.240 -0.007 131 105 64 0 0
0.4973 -0.1418 -2.2018 0.873 -0.148 0.465 94 72 35 0 0
0.5252 -0.1353 -2.2196 0.790 0.035 0.613 81 59 22 0 0
0.5261 -0.1353 -2.2248 0.943 0.164 0.289 89 67 29 0 0
0.1153 -0.2118 -1.5101 0.471 -0.636 0.612 108 93 73 0 0
0.1993 -0.1927 -1.5746 0.703 -0.444 0.555 94 73 43 0 0
0.3021 -0.1665 -1.6022 0.336 -0.235 0.912 132 106 67 0 0
0.2818 -0.1809 -1.7656 0.793 -0.498 0.350 96 77 46 0 0
0.3010 -0.1769 -1.7871 0.920 -0.340 0.196 120 100 68 0 0
0.3021 -0.1769 -1.7921 0.920 -0.340 0.196 110 89 59 0 0
0.3000 -0.1791 -1.8222 0.803 -0.391 0.449 105 84 53 0 0
0.3040 -0.1782 -1.8253 0.753 -0.491 0.438 108 87 56 0 0
0.3062 -0.1778 -1.8295 0.761 -0.528 0.378 106 84 53 0 0
0.3086 -0.1774 -1.8337 0.761 -0.528 0.378 104 81 47 0 0
0.3109 -0.1770 -1.8378 0.761 -0.528 0.378 102 79 45 0 0
0.3126 -0.1769 -1.8425 0.825 -0.532 0.192 99 76 42 0 0
0.3140 -0.1767 -1.8473 0.943 -0.324 0.072 96 73 41 0 0
0.3137 -0.1771 -1.8533 0.978 -0.208 -0.033 94 70 40 0 0
0.3458 -0.1714 -1.9060 0.929 -0.302 0.213 82 61 31 0 0
0.3468 -0.1714 -1.9112 0.958 -0.198 0.207 81 61 30 0 0
0.3480 -0.1713 -1.9161 0.977 -0.137 0.165 81 61 30 0 0
0.4136 -0.1626 -2.0793 0.931 -0.363 0.040 98 73 35 0 0
0.4126 -0.1632 -2.0861 0.989 -0.139 0.059 149 121 78 0 0
0.4137 -0.1636 -2.0974 0.982 0.067 0.175 91 69 39 0 0
0.4556 -0.1550 -2.1472 0.806 0.356 0.473 71 47 19 0 0
0.5286 -0.1395 -2.2233 0.797 0.231 0.559 92 70 32 0 0
0.1880 -0.2008 -1.5759 0.486 -0.669 0.563 92 71 44 0 0
0.2791 -0.1868 -1.7678 0.793 -0.498 0.350 93 76 46 0 0
0.2783 -0.1874 -1.7741 0.846 -0.516 0.131 95 76 44 0 0
0.2990 -0.1829 -1.7947 0.988 -0.093 -0.124 113 92 62 0 0
0.2985 -0.1834 -1.8008 0.931 -0.354 -0.094 108 87 56 0 0
0.2989 -0.1845 -1.8235 0.802 -0.582 0.137 108 87 56 0 0
0.4201 -0.1673 -2.1048 0.640 0.585 0.498 70 49 18 0 0
0.4376 -0.1647 -2.1449 0.896 0.143 0.420 73 48 20 0 0
0.4596 -0.1594 -2.1566 0.900 0.194 0.390 73 49 21 0 0
0.5291 -0.1447 -2.2296 0.655 0.087 0.750 95 72 37 0 0
0.2946 -0.1783 -1.6021 0.273 -0.168 0.947 155 130 87 0 0
0.2733 -0.1936 -1.7722 0.970 -0.189 0.153 89 70 40 0 0
0.2733 -0.1939 -1.7779 0.987 -0.162 0.013 96 77 47 0 0
0.3008 -0.1893 -1.8285 0.738 0.503 0.451 105 84 53 0 0
0.3065 -0.1898 -1.8652 0.891 -0.428 0.155 100 80 45 0 0
0.3039 -0.1916 -1.8845 0.761 0.152 0.630 97 77 44 0 0
0.3383 -0.1841 -1.9185 0.872 -0.459 0.168 93 70 38 0 0
0.3401 -0.1839 -1.9231 0.903 -0.428 0.048 93 70 38 0 0
0.3587 -0.1820 -1.9801 0.896 0.149 0.419 81 59 32 0 0
0.3607 -0.1817 -1.9845 0.896 0.149 0.419 78 57 28 0 0
0.4401 -0.1690 -2.1435 0.777 0.489 0.398 74 50 22 0 0
0.5053 -0.1553 -2.2150 0.686 -0.096 0.722 96 74 35 0 0
0.2799 -0.1871 -1.6003 0.503 -0.357 0.787 147 120 77 0 0
0.2848 -0.1859 -1.6029 0.503 -0.357 0.787 145 118 77 0 0
0.2897 -0.1847 -1.6055 0.503 -0.357 0.787 149 122 82 0 0
0.2691 -0.2003 -1.7812 0.948 -0.310 0.072 98 80 51 0 0
0.2733 -0.1993 -1.7841 0.946 -0.203 -0.254 116 98 72 0 0
0.3262 -0.1923 -1.9161 0.820 -0.553 0.147 93 73 38 0 0
0.3562 -0.1875 -1.9766 0.992 0.123 -0.013 86 64 33 0 0
0.4840 -0.1651 -2.1979 0.757 0.084 0.648 91 69 30 0 0
0.4882 -0.1641 -2.2003 0.763 0.340 0.550 94 72 33 0 0
0.4907 -0.1636 -2.2042 0.763 0.340 0.550 94 72 32 0 0
0.5329 -0.1566 -2.2832 0.950 -0.105 0.294 170 171 171 0 0
0.3067 -0.1850 -1.6066 0.854 -0.170 0.492 136 108 74 0 0
0.2671 -0.2060 -1.7830 0.906 -0.367 0.210 117 100 74 0 0
0.2717 -0.2049 -1.7857 0.932 -0.225 -0.284 108 90 65 0 0
0.2638 -0.2090 -1.8199 0.383 -0.151 0.911 111 90 61 0 0
0.2951 -0.2035 -1.8743 0.992 0.106 -0.061 103 80 47 0 0
0.3558 -0.1927 -1.9775 0.988 -0.133 0.077 92 69 38 0 0
0.5339 -0.1609 -2.2767 0.661 0.088 0.746 154 153 150 0 0
0.5394 -0.1594 -2.2778 0.798 -0.006 0.602 177 178 178 0 0
0.5403 -0.1595 -2.2831 0.980 -0.144 -0.138 189 190 192 0 0
0.3061 -0.1901 -1.6074 0.854 -0.170 0.492 142 116 82 0 0
0.3220 -0.1857 -1.6086 0.577 0.051 0.815 130 105 77 0 0
0.2625 -0.2125 -1.7865 0.716 -0.357 0.600 108 91 66 0 0
0.2584 -0.2148 -1.8066 0.931 -0.201 -0.304 114 93 64 0 0
0.2595 -0.2148 -1.8117 0.955 0.047 -0.293 111 90 61 0 0
0.2612 -0.2149 -1.8222 0.640 0.590 0.492 113 92 63 0 0
0.2767 -0.2117 -1.8408 0.967 0.113 -0.227 106 85 54 0 0
0.2756 -0.2131 -1.8591 0.960 0.276 0.052 106 85 54 0 0
0.2759 -0.2133 -1.8647 0.377 -0.332 0.865 106 85 54 0 0
0.2816 -0.2119 -1.8666 0.377 -0.332 0.865 104 83 52 0 0
0.2793 -0.2129 -1.8741 0.378 0.437 0.816 104 82 51 0 0
0.2848 -0.2115 -1.8762 0.618 0.570 0.542 105 82 50 0 0
0.3101 -0.2055 -1.8935 0.658 -0.665 0.353 100 80 47 0 0
0.5190 -0.1672 -2.2293 0.871 0.054 0.488 96 76 39 0 0
0.5213 -0.1668 -2.2334 0.871 0.054 0.488 96 77 41 0 0
0.5236 -0.1664 -2.2375 0.871 0.054 0.488 93 75 39 0 0
0.5412 -0.1639 -2.2768 0.573 0.065 0.817 181 182 183 0 0
0.2578 -0.2194 -1.7959 0.758 -0.651 0.035 110 93 65 0 0
0.2577 -0.2198 -1.8018 0.770 -0.638 -0.018 111 93 65 0 0
0.2565 -0.2205 -1.8084 0.770 -0.638 0.010 113 92 64 0 0
0.2586 -0.2202 -1.8128 0.775 -0.618 0.133 110 89 60 0 0
0.2585 -0.2209 -1.8245 0.363 -0.265 0.893 113 92 63 0 0
0.2662 -0.2188 -1.8252 0.525 -0.628 0.574 113 92 63 0 0
0.2778 -0.2161 -1.8347 0.612 -0.486 0.623 111 90 60 0 0
0.2707 -0.2198 -1.8630 0.532 0.847 -0.015 105 85 53 0 0
0.2719 -0.2197 -1.8680 0.638 0.766 -0.082 103 84 52 0 0
0.2707 -0.2204 -1.8747 0.577 0.792 0.200 103 84 52 0 0
0.3302 -0.2080 -1.9443 0.994 0.099 -0.036 95 75 42 0 0
0.3303 -0.2083 -1.9502 0.994 -0.055 0.095 93 73 40 0 0
0.3286 -0.2092 -1.9574 0.891 0.134 0.433 94 73 41 0 0
0.3350 -0.2075 -1.9586 0.660 -0.092 0.745 99 76 43 0 0
0.4024 -0.1973 -2.1043 0.834 0.074 0.547 82 62 28 0 0
0.5418 -0.1686 -2.2769 0.573 0.065 0.817 186 187 189 0 0
0.0662 -0.2655 -1.5845 0.196 -0.496 0.846 134 113 82 0 0
0.2743 -0.2079 -1.5944 0.274 -0.171 0.946 146 123 78 0 0
0.3054 -0.2004 -1.6141 0.808 -0.295 0.510 147 120 86 0 0
0.3220 -0.1961 -1.6204 0.958 -0.182 0.221 76 58 33 0 0
0.3231 -0.1961 -1.6252 0.958 -0.182 0.221 71 53 30 0 0
0.3222 -0.1971 -1.6367 0.932 -0.363 -0.012 72 56 37 0 0
0.2660 -0.2243 -1.8316 0.446 -0.783 0.433 113 92 62 0 0
0.2711 -0.2233 -1.8398 0.664 -0.679 0.312 111 90 59 0 0
0.2708 -0.2238 -1.8458 0.862 -0.482 0.159 109 88 57 0 0
0.2808 -0.2213 -1.8507 0.576 0.710 -0.405 105 84 53 0 0
0.2811 -0.2215 -1.8563 0.605 0.757 -0.246 104 83 52 0 0
0.2811 -0.2229 -1.8798 0.504 0.327 0.799 103 82 51 0 0
0.2854 -0.2219 -1.8827 0.482 0.312 0.819 106 85 54 0 0
0.2954 -0.2194 -1.8874 0.998 -0.018 -0.059 106 85 54 0 0
0.3074 -0.2162 -1.8906 0.636 0.484 0.601 106 85 54 0 0
0.3028 -0.2184 -1.9057 0.862 0.431 0.267 100 80 47 0 0
0.4025 -0.2023 -2.1048 0.862 -0.075 0.501 83 63 28 0 0
0.4297 -0.1966 -2.1371 0.854 0.105 0.510 80 57 25 0 0
0.4321 -0.1962 -2.1412 0.854 0.105 0.510 77 57 24 0 0
