ply
format ascii 1.0
element vertex 680
property float x
property float y
property float z
property uchar diffuse_red
property uchar diffuse_green
property uchar diffuse_blue
end_header
0.5008229240910319 -0.0018492597296752566 -2.1575947860952573 115 93 61
0.5045495726057643 0.005158063421789039 -2.157842603734257 116 93 62
0.5064384430717845 0.008212627664512029 -2.16138623999525 115 92 60
0.5109289732248872 0.01687195324413393 -2.160202128135105 115 92 58
0.5100946582393358 0.014063091288528007 -2.168672771899868 115 92 59
0.5114690697843911 0.016011805023802672 -2.173134443756612 114 91 59
0.5145812870139084 0.021708121229967847 -2.174411739281319 113 90 56
0.5204959911951484 0.03345315733697962 -2.1705185398839864 113 90 56
0.5192904274507604 0.02984001845561307 -2.1796947231588497 113 91 55
0.517213757325655 0.024342140358087294 -2.1905096642823803 114 92 55
0.514761567431246 0.01802765321638733 -2.202059433853283 115 93 56
0.5109088995801627 0.008681078420527344 -2.2162575302820167 114 92 55
0.5715599236675449 0.13874623588788282 -2.110136425680472 114 92 55
0.5631640528986677 0.11862546100129223 -2.139374960658123 117 93 55
0.5680758272780401 0.1282645236055694 -2.1369286103911653 121 97 60
0.5658476404719964 0.12245311559842353 -2.1479303126866265 121 97 59
0.5595270228130964 0.10777295782905782 -2.1667291900136956 118 95 55
0.5571043351355442 0.10152493700065579 -2.1782053429579276 119 95 54
0.5617365608974539 0.1105614545354322 -2.1762691407515846 117 94 53
0.5547666998263475 0.0944476011475277 -2.196488668148424 113 90 51
0.540874548810133 0.0633044501266708 -2.230089045245235 109 86 52
0.5435129490966834 0.06800610015194297 -2.232048059169942 100 79 47
0.54565035705402 0.07162259969064938 -2.2349577799146108 94 75 44
0.5492532829486935 0.07842333205662433 -2.235018274890873 89 74 46
0.5532289175762453 0.08603791098421903 -2.2343264063352324 87 74 48
0.5568471487203295 0.09288046614012557 -2.234298235967478 79 67 46
0.5603292780870969 0.099431257253002 -2.2345074874619524 73 63 44
0.5607440435918281 0.09931390486494779 -2.240704084081448 75 67 49
0.5623468858478129 0.1017804624919178 -2.24457370927264 93 85 71
0.5638276857322957 0.1039820047748733 -2.2486795433674724 113 107 95
0.564788006009578 0.10505048965934466 -2.2538122368364597 136 133 126
0.5685448453037245 0.1122112726663913 -2.2533972625328627 158 158 153
0.5708978288965906 0.11631671229736967 -2.2557466168142715 174 175 172
0.5724943545799981 0.11877472511639359 -2.2595929099299394 185 185 186
0.5703972945977058 0.1131764103682179 -2.2708334424174534 192 192 193
0.5699878393293027 0.11125495610801445 -2.2787236389886787 197 197 199
0.5395499777014716 0.04377482590917703 -2.3471523533068503 200 200 202
0.5393553013080373 0.042289856674557924 -2.3548324838964922 202 202 204
0.5555708638303973 0.0766571909824173 -2.3292562479571983 204 204 206
0.5414704499661658 0.044786471387731785 -2.3651527057944 206 206 208
0.5504171347785647 0.06328537552406804 -2.3542229699098196 206 206 208
0.5496790263966197 0.060611626162508425 -2.3630148220899083 207 207 209
0.5354604116875653 0.028432153032066254 -2.3994981295755737 208 208 210
0.5317987828935613 0.019338267336529436 -2.414441355346101 209 209 211
0.4685610867197467 -0.12025470154652751 -2.5524578464681413 209 209 211
0.4713613028368871 -0.11526119099249932 -2.554512920839877 210 210 212
0.4728829000928448 -0.1130679313898375 -2.5592058508673152 211 211 213
1.2427384600033622 1.5245403627498482 -1.303872184375125 215 215 215
1.2441363311224187 1.5271944352889428 -1.3037890204898688 215 215 215
1.2457993443978244 1.5304595323086656 -1.302950201222767 215 215 215
0.3458809122068742 0.025565497882836297 0.10123374958118264 177 177 177
0.3514748983104376 0.03562340533042277 0.09750322751856617 177 177 177
0.35221364010243883 0.036502713956869326 0.09395761760475668 177 177 177
0.25884738422379305 -0.32495482164474965 -1.1602406065836404 190 190 192
0.26576064741488814 -0.31184301469320186 -1.160214029138746 191 191 193
0.2733370802298092 -0.29738636540810504 -1.1595928325632496 191 191 193
0.38719599433450547 -0.06913551150139516 -1.0754818122230845 193 193 195
0.39361414228090696 -0.05694008904530956 -1.075303047527238 193 193 195
0.39237377228664455 -0.060980091506930956 -1.0867834496285853 194 194 196
0.4293548414957424 0.013010993286517392 -1.0604448892098142 194 194 196
0.4110036908654744 -0.02484723255899554 -1.0812779532017083 195 195 197
0.41408081342213604 -0.019384133912897616 -1.0838028170865452 196 196 198
0.42091976776759554 -0.006307385638787605 -1.0830565226843312 196 196 198
0.41183740906191774 -0.02544711177486489 -1.0961072305699586 197 197 199
0.4210707209025927 -0.007518996359131391 -1.093242319062781 197 197 199
0.4229060199880914 -0.004562863446873705 -1.0968035979621635 198 198 200
0.3599917640432714 -0.2545269997087899 -1.9854478748935576 210 210 210
0.3676826139218235 -0.23927823236198026 -1.9809152476462053 210 210 210
0.359511047828682 -0.25758694055307263 -2.0000583641099308 209 209 209
0.3565765157592136 -0.2648236646224595 -2.0114333882094027 208 208 208
0.3421997276413633 -0.2962972719595327 -2.0400935300411946 208 208 208
0.3422809131190742 -0.2971669388914955 -2.047054399588471 208 208 208
0.3433035625177034 -0.29604341305237086 -2.052599909070186 207 207 207
0.35075569206899493 -0.2812905676646835 -2.048361711966013 207 207 207
0.36189562886915616 -0.25870794547558507 -2.0384281439211156 206 206 206
0.3640961927064072 -0.25507450714436186 -2.042093163662475 205 205 205
0.36326424943821184 -0.2578752224621162 -2.05041213772708 203 204 204
0.36407158737225404 -0.2571991507013952 -2.05622430805763 201 201 202
0.3613091228539886 -0.2641050155027549 -2.0675679793927055 197 196 197
0.33166052490463355 -0.3281353717436844 -2.1207137413202224 183 181 181
0.33335963444528444 -0.3255925112507903 -2.1253294213090466 162 159 153
0.36449661436518166 -0.2625610048877819 -2.098167250924755 142 132 123
0.3759318187228657 -0.23927478106745137 -2.087256063577615 133 123 113
0.3861753870716912 -0.2185100243206095 -2.0781270172904613 123 113 102
0.39855700675694355 -0.1931777688164507 -2.065504987576681 116 106 93
0.40199627493598666 -0.18688102803545448 -2.0670302241267673 113 103 91
0.40613046870972636 -0.17909981864711744 -2.067420786357986 115 105 92
0.40998041942647473 -0.17192025840031222 -2.068237799926367 115 104 88
0.4121054211825667 -0.16841594798884313 -2.071806651079706 114 101 85
0.41489152494898573 -0.1634997362718663 -2.074298196438427 114 101 83
0.4182267770708942 -0.1574090325800881 -2.075883394419018 115 100 80
0.41755384539064566 -0.1598737897186766 -2.083967999070083 117 101 79
0.4205572270774098 -0.15448873556376252 -2.0860727896662725 115 101 75
0.42344688138996156 -0.1493440146997883 -2.088345552614941 115 102 76
0.4264578699896526 -0.14393740670619887 -2.090401851372795 118 103 79
0.4293170204657256 -0.1388527817613086 -2.0926899770341647 119 104 82
0.43223270978722605 -0.13364472385612958 -2.094867715837094 120 104 84
0.43606367840652277 -0.12647535478921024 -2.095509280439173 119 104 82
0.439068347348686 -0.12107091073751591 -2.097498809915486 120 104 83
0.44126225782682843 -0.1174000723656835 -2.100823707193928 119 103 84
0.4426234668474053 -0.11551178575961529 -2.1055338942959647 122 106 87
0.4435921763745168 -0.11446459257310804 -2.1109030010881096 121 106 85
0.4445939613495067 -0.11334699099840378 -2.1162197744237945 118 103 80
0.4457505001680795 -0.11189792278299282 -2.121277823694732 117 101 79
0.45157249572713437 -0.10043867155661135 -2.1184185902834165 117 101 79
0.4571410586452731 -0.08951607859252575 -2.1159411108649264 117 101 78
0.45818050138548033 -0.08831172893634809 -2.1211535183396193 116 99 75
0.46482005131767673 -0.07507836675089952 -2.1167710911311874 115 97 73
0.4665091402872512 -0.07247422984532403 -2.120840863599712 113 95 71
0.47040569733609244 -0.0651240397940821 -2.1210984647388322 113 95 71
0.4739852020586769 -0.05845139217136075 -2.121875582193108 113 95 72
0.47434588346285605 -0.058699695257920625 -2.128214723799407 113 95 71
0.47467300367232534 -0.059021707993683004 -2.134622385558169 112 95 69
0.47793179853102347 -0.053033481597141774 -2.1359186379633788 114 94 69
0.4779824802298205 -0.05395156009764879 -2.1428154128365158 114 94 69
0.4805446894480712 -0.04946028795797269 -2.145309842397877 115 96 66
0.48267613261532605 -0.0458953646964988 -2.148549557397234 113 94 64
0.48453297487210345 -0.04292111989145009 -2.1522654435215642 113 94 62
0.4871174538201139 -0.038376319312664886 -2.154683002175748 114 93 62
0.49938619401932993 -0.012931508178950113 -2.139840095447007 114 93 62
0.4983097448927945 -0.01627728068618184 -2.1487130403715944 110 90 57
0.49978443909928144 -0.01411753339635713 -2.1530404539931705 109 89 56
0.500234621774234 -0.014170788185345284 -2.1592072102618944 112 91 59
0.5026760002386248 -0.009921910269622136 -2.161792037171983 115 93 62
0.5036059405275422 -0.008938909005742124 -2.1670977879671267 117 93 63
0.509822066008855 0.0034772058412212425 -2.1628133750212735 117 94 62
0.5091644437627733 0.0010284440353468538 -2.1709866032487866 117 94 62
0.5150473975131344 0.012734309742125527 -2.1672362832538274 116 93 61
0.5164455925588327 0.014736430798883149 -2.171649245308596 115 92 60
0.5056473220060073 -0.009682514509681606 -2.198475929730934 113 90 56
0.5091665464593111 -0.003093622067154078 -2.1990453682202347 113 90 56
0.5099856734351462 -0.002354719433700081 -2.2045822707060116 112 90 54
0.5230043838075531 0.024842652617038274 -2.1874912960454442 112 90 53
0.5209762424396731 0.019412721446868397 -2.1982663217148994 113 91 54
0.5148034705368675 0.004980968717590739 -2.216816852368818 115 93 56
0.5820513800247453 0.14996435721682766 -2.0979601235524212 116 94 57
0.575197857551799 0.13309838445068006 -2.124286778830542 119 95 57
0.5708487666746457 0.12264829515084341 -2.139274780008374 122 98 60
0.5722440130310418 0.12468185125581394 -2.1434359514500696 122 98 60
0.5694645795539555 0.11763270139339649 -2.1555352211615553 120 97 57
0.5716484136613516 0.12137975422180253 -2.1582119069356427 119 95 55
0.5516620638957757 0.07685328038530603 -2.2033075840920073 118 95 55
0.5525954313780912 0.07786044564400174 -2.2084932001547948 111 88 52
0.5494948015928689 0.07007608801522897 -2.2214507008916784 107 86 52
0.5473752496205814 0.06442300366931492 -2.2325646172779963 102 83 50
0.5503651742245945 0.06990772294357056 -2.233818132233423 95 78 46
0.5545994538032257 0.078110540987886 -2.232632086304611 87 72 45
0.5570627337723935 0.08245300844599623 -2.234862863370767 83 70 46
0.5604775054156661 0.0888753574086415 -2.2352180599424547 79 68 47
0.5634394099178988 0.09431228118022184 -2.2364353149799054 72 64 45
0.5634043358206163 0.09320268667709075 -2.2435287479253927 82 76 59
0.5648334072676742 0.09529189708195601 -2.247747585257413 104 98 87
0.5663155875308785 0.0974976273288995 -2.251858821226026 128 125 116
0.568934117382315 0.10219022909304076 -2.2537103227062607 150 149 144
0.5720516931929827 0.10797771690232805 -2.2545508136351318 168 169 166
0.5725736022506209 0.10808444601424622 -2.2605544487671194 180 182 181
0.5769783332865319 0.11669624978267568 -2.258784922053225 188 189 190
0.5737259767957541 0.10853204486370555 -2.2723691856574537 194 194 196
0.5441968199502494 0.04274624502321894 -2.3389927066418226 198 199 201
0.5440330703699263 0.04131688298659042 -2.346601556515874 202 202 204
0.5436801684271393 0.0394698762745751 -2.3546116441184286 203 203 205
0.5051377381652715 -0.04621676551964915 -2.4403525343102093 205 205 207
0.5410912749714898 0.03163145463204858 -2.374535069821934 206 206 208
0.5578062704166444 0.06727382751727218 -2.347674273537512 208 208 210
0.5593002365662358 0.06948837860406287 -2.3518774902103114 208 208 210
0.5412605288749465 0.028750185714996657 -2.39631115943932 209 209 211
0.5356788616997841 0.015382393980630904 -2.4152479769533812 209 209 211
0.5671273710378186 0.0834968136738306 -2.357536842628155 210 210 212
1.240828586674558 1.5142218432268 -1.314675087840853 215 215 215
1.2424053838479359 1.5172944041299448 -1.3141115175577518 215 215 215
1.2441128378038941 1.5206710500734437 -1.3131647240457411 215 215 215
0.3440347546033906 0.013772184334091997 0.10147276985001173 177 177 177
0.3496712473224338 0.023936708079746905 0.09772729859733843 177 177 177
0.35205038665011823 0.027925019856927497 0.09411432102469569 177 177 177
0.26055129376060987 -0.3320434853262176 -1.156526167305655 190 190 192
0.2696924640987917 -0.3143806817158123 -1.1546756136237013 190 190 192
0.27858190725436255 -0.2972185848544512 -1.1529722976887482 191 191 193
0.2873784412826084 -0.2802358574773409 -1.1512867685792096 191 191 193
0.3042519402953402 -0.24687649104295997 -1.1427858546783918 192 192 194
0.3829141184012137 -0.0882491224579231 -1.0822353023092253 193 193 195
0.38849563510323837 -0.07771364018483545 -1.0827820858838357 193 193 195
0.4014372852352888 -0.0530186656963931 -1.08225555771959 194 194 196
0.40465584348224315 -0.04726197555621145 -1.0847136189694708 194 194 196
0.4154062440902982 -0.026213320906754933 -1.0806776947945225 195 195 197
0.4168512609633064 -0.024048614948321168 -1.0846053659542603 196 196 198
0.41928708851684154 -0.019871032453995935 -1.08767051558361 196 196 198
0.4100470007230431 -0.0394143848944469 -1.1009050880197877 197 197 199
0.41415546008921267 -0.031841228605235 -1.102530677366882 197 197 199
0.4200350497811681 -0.02066397626237476 -1.1025743364950236 198 198 200
0.37128943641811435 -0.2451640393365268 -1.988999314704161 209 209 209
0.36782517355836436 -0.25356073448571714 -2.0011556951937166 208 208 208
0.351675016191367 -0.2889459507043199 -2.0325386588135195 208 208 208
0.3448577329354683 -0.304500901606776 -2.049944293346365 208 208 208
0.34419048902804084 -0.30697859556546025 -2.0580734204422972 207 207 207
0.33032252882213325 -0.3386386653033301 -2.0935992051308 207 207 207
0.36312084566936575 -0.26983022029222986 -2.05040257505011 206 206 206
0.3571913576299204 -0.2835204864504909 -2.066624447133411 204 205 204
0.35984151286588845 -0.2863806470399001 -2.119771773859646 145 136 126
0.37175342823729435 -0.26198038663763723 -2.1080523953317183 140 130 121
0.3794224346145564 -0.24664020311117307 -2.1029890494330474 133 123 113
0.39501048589006854 -0.2143429294411059 -2.085185313666334 126 118 106
0.40047322646160033 -0.2036997784016893 -2.083488136733182 123 114 102
0.40455568220139076 -0.1960061257128295 -2.0839704866279907 121 112 99
0.40817780069606613 -0.18929431993261747 -2.0851673715157513 119 108 94
0.4111723601474065 -0.18392383551146496 -2.0873572505484135 119 107 91
0.414026695744493 -0.17885130899405322 -2.0897572268902116 121 107 91
0.41353587806697867 -0.18095100874985637 -2.097601089368661 123 109 92
0.4161316542052934 -0.17643097593977153 -2.1004092345100487 122 108 90
0.41777016680725315 -0.17396355123033935 -2.1047763879790624 122 110 92
0.4200839871473027 -0.17004556923291003 -2.1080266995699155 122 109 92
0.42639725614910945 -0.1575351283305627 -2.1046514150134477 123 109 94
0.42888762174427525 -0.15323131851903193 -2.1075652915331005 122 110 93
0.4311102860507233 -0.14950104178328694 -2.11091189167705 121 108 90
0.4372003914804957 -0.137452629874938 -2.1077891422435933 121 107 89
0.4394004121135271 -0.13376493914189358 -2.1111324786289263 121 105 89
0.4434822684797044 -0.12602597914840752 -2.1113023967483064 122 106 89
0.44614215382667566 -0.12134378345484698 -2.113840006879149 122 107 87
0.4491342816091131 -0.11594381160116973 -2.1158004237838486 119 103 83
0.4521548630768949 -0.11047975280278655 -2.1176938148175175 118 101 82
0.45514549773267376 -0.10507739980452002 -2.1196191104988036 118 101 81
0.4566007166534659 -0.10298279759030893 -2.124148872943727 117 100 80
0.4574523579671486 -0.10218979445730059 -2.1297112727751952 118 101 78
0.46211319126712463 -0.09317814090256704 -2.128728227528439 118 100 76
0.46473971683790616 -0.08855215959101154 -2.131217135634107 117 99 75
0.46770923518696866 -0.08318328550165471 -2.133097450398903 115 98 74
0.47358181631265145 -0.07154027619571751 -2.1299184879135895 112 94 71
0.47395599349491224 -0.07177211280480728 -2.1362654818292115 111 93 68
0.4746408859520356 -0.07133370135413042 -2.142079547717027 109 92 66
0.4782796472372716 -0.06450781548481976 -2.142722005969787 112 92 67
0.4788720066307853 -0.06426909787342422 -2.148695383610526 114 94 67
0.48217170633127526 -0.05817171601606658 -2.149899947013365 114 95 65
0.48351969239442033 -0.05629687879231704 -2.154535950126647 113 94 63
0.4878474456322571 -0.04796746915336547 -2.153880370585175 112 93 62
0.4912866146239629 -0.04155841100467267 -2.154772904445833 114 93 62
0.496340502827149 -0.03164534365304261 -2.152755498270934 113 93 61
0.4995439045744154 -0.02573886811817727 -2.154012092484009 110 90 57
0.5002788927228285 -0.025184233904777087 -2.1596853425772795 110 90 57
0.502157344752762 -0.02214881204322461 -2.163301802332678 114 93 61
0.5029380097352858 -0.021495807509184173 -2.1688977839275645 115 94 64
0.5048147101746763 -0.01846301052093141 -2.172509488807574 117 94 64
0.5040793451014285 -0.0211048259699691 -2.1808709933750237 117 94 63
0.5092879164045345 -0.010829585080287196 -2.178396542106765 117 94 62
0.5129103365579629 -0.003996785094752764 -2.1787834102848165 116 94 62
0.511261803362001 -0.008626546933046486 -2.1888331641256773 116 93 61
0.5150271635191611 -0.0014790570192180774 -2.1889321384381244 116 93 59
0.514024428787476 -0.00470814341554171 -2.1978230185762415 116 93 59
0.5161691414987547 -0.0010859112127749038 -2.2008990119041836 116 93 58
0.519802969954329 0.005782480771139298 -2.20119243502078 113 91 55
0.5258082709786196 0.017824236916759384 -2.19702939934416 114 92 56
0.5241112320539105 0.01307833070140485 -2.2072397849899916 117 95 58
0.5891402213075398 0.15189919806411117 -2.1054849772602138 120 95 57
0.5522834729809857 0.07040104146877513 -2.1821129992516974 122 98 60
0.552833470659023 0.07056981881101199 -2.188014824899857 124 100 62
0.5571907238583074 0.07905961519615762 -2.1866578387340287 124 100 61
0.5528556752071219 0.0685469284018616 -2.2019060483896906 124 100 60
0.5534269959030891 0.06875782111422885 -2.207797405997658 120 96 57
0.5558149371417378 0.07294328352907326 -2.210196854202883 113 90 55
0.5541030645976295 0.06815458456937379 -2.2205052949527815 108 88 55
0.5512344826078687 0.06082710182435619 -2.2330911667532645 99 83 49
0.554644027781592 0.06724895418932181 -2.2335186080974467 88 72 43
0.5575538276666774 0.07257920133851092 -2.2348946630763082 76 61 38
0.5603727321362579 0.07771311731655944 -2.236428363980017 73 60 40
0.5632820039009458 0.08304813701036357 -2.2377655588851906 70 59 40
0.5646921912071085 0.08509600570873321 -2.242033506545859 79 71 52
0.5663390282475949 0.08766381134457651 -2.2458319500211408 96 90 75
0.5605733232764616 0.07395005543885774 -2.2643074017444165 117 113 104
0.5624811848584395 0.07708627023359532 -2.2676221602487696 141 141 134
0.5722011959309716 0.09739794759830855 -2.255359923761229 161 162 158
0.5759729162415799 0.1046429081082853 -2.2548846319643787 176 178 177
0.5728256248194035 0.0966691531692912 -2.268251665224352 184 186 187
0.5808138262216269 0.11319812584850109 -2.2592758835210662 191 192 194
0.5857440549417017 0.12300566173286653 -2.2563861422184357 197 198 200
0.5283730859299238 -0.00442728290884653 -2.379522210052315 200 201 203
0.5471962240160416 0.035954998136179084 -2.3487264191655925 203 203 205
0.5490807016591917 0.03902317296599844 -2.3521996602918605 204 204 206
0.5604026909832205 0.06290905015873366 -2.33639232316004 206 206 208
0.5467617748919261 0.031729167136003156 -2.371593084311474 207 207 209
0.5446054931883519 0.02587489374259655 -2.383383056296246 207 207 209
0.5430044172079949 0.021240444507566347 -2.39407154657022 208 208 210
0.538754174712248 0.010747502509716234 -2.4102720205161248 209 209 211
0.5375519259167778 0.006981446618519405 -2.4202221196351172 210 210 212
0.5719393360784291 0.08191014448611383 -2.356189316473812 210 210 212
1.23908890202461 1.5042030009057399 -1.3250878989548642 215 215 216
1.2406477285435318 1.5072416228628907 -1.324593283603428 215 215 216
1.2420683524885392 1.5099616354866074 -1.3244735408233934 215 215 216
0.3321414917917648 -0.01719586797496489 0.10210027435582665 177 177 177
0.351526916719635 0.019152992152162346 0.09782087334039957 177 177 177
0.35743054047258815 0.02985729543303353 0.09408656506493844 177 177 177
0.2809523172431929 -0.3028594743342986 -1.1487366558875405 190 190 192
0.2877859722607544 -0.2898131695985666 -1.1486962719910963 191 191 193
0.31598963757013476 -0.23329972783525502 -1.130769348166649 191 191 193
0.3247516350313173 -0.21630485805439323 -1.1289401675807864 192 192 194
0.4134829754917065 -0.03657199982587883 -1.05965597478609 192 192 194
0.43411913147371073 0.004657490973814599 -1.0473406886719603 193 193 195
0.4019650493291578 -0.0623592777982796 -1.084996703773861 194 194 196
0.4155948172764093 -0.03693730883445076 -1.088901694709766 195 195 197
0.4182661317790432 -0.03227215450542323 -1.0917785395006308 196 196 198
0.41652612151318413 -0.03660265682223743 -1.098500082998907 196 196 198
0.4208629268358479 -0.028538442208364267 -1.0999070009516108 197 197 199
0.422030770376587 -0.026937705401048867 -1.1040842922232983 197 197 199
0.3418825423862119 -0.32373544950286914 -2.061302461667668 208 208 208
0.35701816482928134 -0.29566061146640205 -2.0666757170742063 206 206 206
0.35814009607406433 -0.3040712846376937 -2.136886031274899 146 137 128
0.3696694743876017 -0.28039053744912157 -2.125707585427219 147 138 129
0.3821387489536659 -0.25467317617961605 -2.112911757031158 144 136 125
0.38793245060066883 -0.2432927780229257 -2.110751597731247 141 133 122
0.39091779430510665 -0.23794641299986652 -2.1130830239091423 139 131 120
0.3947394574207553 -0.23079766610193597 -2.114040491142822 138 128 117
0.3980079769590432 -0.22483568417153021 -2.115871201910275 134 124 111
0.4079566400184832 -0.20448444510891645 -2.106776313691192 133 123 111
0.40820629657892044 -0.20501453263820735 -2.1134735150417128 132 122 109
0.4114157865005631 -0.19916736154097048 -2.115318653791591 131 119 107
0.41641683417482966 -0.18945452296265808 -2.114189783549116 130 118 104
0.41879746871336315 -0.1853874162088459 -2.117355154167568 127 115 100
0.4217217238525191 -0.18014563424258495 -2.1196068092890754 124 112 96
0.42224188750837977 -0.18009030594847242 -2.12584339310177 123 111 94
0.42311447973083754 -0.17927528164329987 -2.131499889491322 121 108 92
0.43325500683892143 -0.15844147849277013 -2.1216301957535615 121 107 91
0.4379686239858136 -0.1493201842788972 -2.1207878384064185 123 107 91
0.44047021173342626 -0.14497507047330604 -2.1236391424112075 122 106 90
0.4428958479026694 -0.14079221678394083 -2.126605736925541 120 105 86
0.44684001492640285 -0.13332233533472626 -2.1269818567506134 118 102 84
0.44980549559080174 -0.1279661428547929 -2.12899568151494 119 102 84
0.45216973825581686 -0.12390887373632592 -2.132018377252908 118 101 83
0.4528356701457115 -0.12352813747674518 -2.137940575348077 118 101 81
0.45767414829520864 -0.11410776731778116 -2.136693577738922 117 100 78
0.4611521950230675 -0.10763025602391474 -2.137754408213003 116 100 77
0.46420932315705166 -0.1020617844584194 -2.1395194132929927 116 100 77
0.46674863425098523 -0.09761359415426896 -2.142163834903224 117 101 78
0.47125855965417757 -0.08888694745836712 -2.141361104350825 114 98 73
0.4755088773827121 -0.08071844291229996 -2.1409759066952656 112 95 70
0.47701380058831216 -0.07850720777620046 -2.145370981429087 112 95 69
0.47767546182557724 -0.07812764245101467 -2.1512467446411496 112 93 67
0.4786760918408075 -0.07701238820510858 -2.1565312591265293 112 93 64
0.48257192366926815 -0.06960260933110796 -2.156693569415628 112 93 62
0.4856410996339122 -0.0639864580953251 -2.1582942900598976 110 89 59
0.4906267034650843 -0.05419712081840167 -2.1564602999217497 109 88 59
0.49498425304054283 -0.04576861002745897 -2.155706587187696 109 88 58
0.49599889328553665 -0.04461465143598503 -2.1609114565238894 109 88 57
0.498690162415556 -0.03980849120669827 -2.1631034194562813 108 91 58
0.5004404939780754 -0.037050569631851604 -2.1669768929110105 112 93 61
0.5045176709083758 -0.02921864215539749 -2.1666328392059686 115 94 63
0.5058980148430535 -0.027264022020747014 -2.1711535960575796 115 94 65
0.5083231395369113 -0.02302947582151693 -2.1737697338358464 116 95 66
0.5059050585863198 -0.029364998466794023 -2.185222945172391 116 95 64
0.5080178009282875 -0.025812769600675745 -2.188412775899849 116 95 63
0.5114308285535006 -0.019418443340156633 -2.1892015450215982 115 94 63
0.5155659928026242 -0.011442146410971132 -2.1886331455785895 115 95 62
0.5210680533466054 -0.0004723003911620838 -2.1855017121817055 116 96 63
0.5191430985798593 -0.005739613149253919 -2.196108479991256 118 96 62
0.5231015589089743 0.001861050291728672 -2.195795863707469 119 96 62
0.5263947114961971 0.008010119505290847 -2.1966944706814364 118 95 61
0.5260695601836676 0.006239176641308908 -2.2043497524865314 119 96 62
0.5312489141471088 0.016524458255955332 -2.201675872959613 118 95 61
0.5332449736476167 0.019840067712900922 -2.2049585993119902 118 95 61
0.5349691339727715 0.022560860971591046 -2.2087468175315155 119 94 59
0.5404087677204619 0.03343206726852177 -2.205479074006494 120 94 57
0.5403740567407698 0.032298376446475874 -2.212581920493054 122 97 59
0.5501655571645019 0.05273285302643865 -2.2009376085860137 123 99 61
0.5506249072058316 0.05268838977262286 -2.2070660297757128 123 99 62
0.5506127742200413 0.05160669871716167 -2.2141095518270872 121 97 58
0.5526864341224961 0.05510709702351846 -2.217148017137025 114 90 52
0.554370270081682 0.0577518658362009 -2.220930086957257 114 92 57
0.5552749501541892 0.05868354831858702 -2.2262177720816014 109 91 57
0.5584741856424391 0.06466400501555192 -2.2270458226423617 96 81 47
0.5598606810687945 0.06665728572979485 -2.231387439831673 85 70 41
0.5618453337211082 0.06996822771147154 -2.2345563860047344 71 56 33
0.5643073357734081 0.07433228652106233 -2.236778993451669 70 57 37
0.5661340903427308 0.07729836241785576 -2.2402377819633044 73 63 43
0.5670159808901929 0.0781819764314382 -2.245555946739682 89 82 65
0.5674982118415655 0.07818328574050515 -2.251670325605224 109 105 94
0.5631552864754354 0.06753426866106627 -2.2673849922418454 133 131 124
0.5723279331228217 0.08671583411888922 -2.256219710556531 155 155 151
0.5758921759972687 0.09352414217423577 -2.2561738861545453 171 172 169
0.5789356746854127 0.0991860588591102 -2.2571440479104017 181 182 183
0.5771479700579791 0.09417122158439611 -2.267813565376515 189 190 192
0.5837100625691756 0.10761704927722177 -2.2616666085997665 195 196 198
0.5877399917363437 0.11547035319149374 -2.260580391033133 198 199 201
0.5335198977949986 -0.005604041075919608 -2.377754702697759 202 203 205
0.5517357200198703 0.03361825662104717 -2.3480632885432122 205 205 207
0.5398359334748398 0.006156887772046926 -2.379694786421279 205 205 207
0.5750108369615801 0.0829998773073291 -2.3150116812212858 206 206 208
0.5671028506275344 0.06438386537260299 -2.3384716945135477 208 208 210
0.5632014541192579 0.05463775837228785 -2.3537846705398917 208 208 210
0.5730425752984734 0.07537750756735184 -2.340739128341212 209 209 211
0.5693720796844287 0.06613754059876353 -2.355616091749795 210 210 212
0.5409043186094611 0.0018145686572340614 -2.4221543470752254 210 210 212
0.5392660297773816 -0.0029521960875984465 -2.4330703839778094 210 210 212
1.2372523402513882 1.4938661909325126 -1.3358589092465079 215 215 217
1.238766030883449 1.4968068813115643 -1.3355115075123167 215 215 217
1.2402740080783972 1.499736448620164 -1.335165572829965 215 215 217
0.33690616428947917 -0.016555023673381186 0.10208737785499554 177 177 177
0.3333958205153406 -0.023799419677098782 0.09863617876878542 177 177 177
0.3598835960082969 0.026227541959729483 0.0941564369488103 177 177 177
0.4577725721765818 0.04808476384905434 -0.995529307101716 189 189 191
0.4379344164117589 0.006867192967055874 -1.0168566532069405 189 189 191
0.44223286066698386 0.01487271198998949 -1.0183266217011087 190 190 192
0.30254410487499134 -0.27099241416272346 -1.1397678384370167 191 191 193
0.3395797007420621 -0.19705718921246962 -1.1197877748872396 192 192 194
0.42076831243101065 -0.032036904349980466 -1.0566275019663405 192 192 194
0.41848365558212564 -0.03748703984405585 -1.0637133963063086 193 193 195
0.40274175303654436 -0.07124257727127309 -1.0875403465618108 194 194 196
0.38504655440668833 -0.10984736430272879 -1.118673462809127 195 195 197
0.38722952407256417 -0.10619028774222869 -1.1221092351811361 196 196 198
0.42376555681759875 -0.033774236064615853 -1.1058340420692152 197 197 199
0.3565930490986335 -0.321585778827775 -2.1539135342624767 147 138 129
0.37252261304848033 -0.2883052103542421 -2.1355779891835254 148 140 129
0.37646527695367216 -0.2808916782457053 -2.1364613796015064 148 140 129
0.3859143707279123 -0.2615759918980985 -2.128387152755319 147 139 128
0.39237422378542985 -0.24870846597953994 -2.125089545732905 146 136 126
0.3962221828318099 -0.24148043428654825 -2.126000582874169 140 130 120
0.40201179779087065 -0.23004811298589284 -2.1237043199208268 137 127 117
0.40222062605360015 -0.23068533588523643 -2.130530525151744 134 124 114
0.41038664243007394 -0.2140984246668834 -2.124249978080486 132 122 110
0.41406961586007907 -0.20720896269345085 -2.1253106101467445 132 122 109
0.4151009180105148 -0.206060393867041 -2.1307461009311965 131 122 105
0.4215304544027377 -0.1932126499763197 -2.127196671695168 128 118 101
0.42468559433470726 -0.18745577344032716 -2.1290611445661365 126 114 99
0.42651261527143824 -0.18457648461871762 -2.1331312804013964 124 111 97
0.42997024173523146 -0.17815824083787635 -2.1344540333179274 124 110 96
0.43643340947627507 -0.1652124684066838 -2.130683126756585 124 108 92
0.43894888060368165 -0.160830396677843 -2.1335365764535426 121 105 89
0.4431472063997155 -0.1527906054117883 -2.133519282892778 118 103 84
0.44958635155943016 -0.13987630709463705 -2.1296528350859436 116 100 82
0.45172784171219643 -0.13629643320889961 -2.1330740952586456 117 100 82
0.4509716665721271 -0.13901707786973266 -2.141454102230688 118 101 82
0.4529815732763741 -0.1357230701511472 -2.145098950863573 117 100 80
0.4559379929981882 -0.130367738815653 -2.147102452602015 115 98 76
0.46022623283273284 -0.12210971313722352 -2.146781663265241 116 100 77
0.4634154056284722 -0.1162406106567962 -2.148336261905519 117 101 78
0.4674608635247146 -0.10850235940140163 -2.14837751277837 117 101 78
0.46718934884676705 -0.11017010323269827 -2.1559341632529034 116 100 76
0.46929596066764573 -0.10665432171849809 -2.1593377964697456 116 98 74
0.47574346617229835 -0.09366685180082546 -2.1550950392876103 115 98 73
0.47809096710604093 -0.08961878396213785 -2.1580304179613368 116 97 72
0.48066068449753857 -0.08508369938828197 -2.1605602297443744 115 95 69
0.4837447832185342 -0.07942286400081022 -2.162161670956908 113 93 66
0.48711839356233744 -0.073126297964554 -2.1632266436796828 112 91 64
0.49145439073270536 -0.06472236543350485 -2.162547221431608 112 91 62
0.4944886608473043 -0.0591597638045368 -2.1641673783879876 110 89 60
0.4963863955458486 -0.05608048309866115 -2.1678121472704213 111 90 59
0.49949031718261006 -0.05036029080976406 -2.169272664067062 112 94 61
0.4992602429915769 -0.05193645926159657 -2.1767487243373997 113 94 62
0.5028845214218383 -0.04507301915096873 -2.1772409945456372 114 93 62
0.5076613139827094 -0.03568007444579857 -2.1756059999404473 115 94 65
0.5052849206101351 -0.041961203666004254 -2.187006009075895 116 95 66
0.510581549073156 -0.031422225907222545 -2.1843778695518434 116 95 64
0.5133091811755995 -0.02651206844950238 -2.1864286933387387 115 95 63
0.5168887795673422 -0.019729499255711602 -2.186890266174463 115 94 63
0.5201759982623819 -0.013584767788026753 -2.187866035155723 116 96 63
0.5230701055398239 -0.00829989514809415 -2.1895481016998466 117 97 64
0.5235577604265624 -0.008299978593799995 -2.195693915952671 119 97 63
0.5251231135106539 -0.00593236148295212 -2.199834760587384 120 97 63
0.5258261065316181 -0.005460652608544392 -2.205588546727172 120 97 63
0.5283335019698367 -0.0010201509813381193 -2.2079556051969376 120 97 63
0.5331294076658128 0.008459490702175831 -2.20599077136292 119 96 62
0.5364068096719368 0.014601987971322394 -2.206857540656315 119 96 62
0.541755541479496 0.02531075412710715 -2.203768331125957 120 95 60
0.5415755373286286 0.023843526732977627 -2.211158235625377 123 97 60
0.5455265869480787 0.031480856768082766 -2.2106741146817654 123 99 61
0.5503245485014112 0.040990923108983834 -2.2085349129466065 123 99 61
0.550718020636081 0.040789524293039 -2.214819057786211 123 98 61
0.5525506842290855 0.04376328503579968 -2.2183384240970345 117 93 54
0.5539286196469169 0.045734003426360026 -2.222730142311445 109 88 51
0.5553551281711431 0.047812281019899205 -2.2270259371705077 106 88 53
0.5585322271635109 0.05375974369440234 -2.227912567343558 103 87 54
0.5603820648562372 0.05677627501323029 -2.2313668118556573 94 80 48
0.5625384300304082 0.06047193141844798 -2.2342133653101484 87 73 44
0.5642930607559882 0.06328033723174964 -2.2378378623863946 79 67 41
0.5669882612209594 0.06817184628512529 -2.2396027495261186 76 65 43
0.5688711466655125 0.07126708632151962 -2.2429553382159577 85 77 59
0.569055440308828 0.07060021081257817 -2.2496675593255517 103 99 85
0.5699098240639884 0.07141663397375347 -2.255059984761034 125 124 115
0.572128139971191 0.07525675836791268 -2.2577362373313465 148 149 142
0.5754707088766946 0.08159270900998405 -2.2581507807413184 167 168 164
0.5798800650384572 0.09030011385933345 -2.256398149475205 178 180 178
0.5820640918102715 0.09407275545844551 -2.25908651794881 187 188 188
0.5811310200072759 0.09092361802890775 -2.268057953525932 193 194 194
0.5836776798153784 0.095502739610753 -2.270007320709428 197 197 198
0.5154857957592288 -0.058317235938949774 -2.4232202271993004 204 204 205
0.5353031782027595 -0.015373747644416125 -2.390269977481125 205 205 207
0.5337542121988321 -0.019954214049793362 -2.400902068850594 206 206 208
0.5932861290759868 0.11147731543416167 -2.285934628747936 207 207 209
0.5728362253281192 0.06483690853880258 -2.3352496080739433 208 208 210
0.5637577946285082 0.04349924689135337 -2.361304781025653 208 208 210
0.5670447025756686 0.04971289925790229 -2.3618229513170044 209 209 211
0.5832410627106216 0.08472714366298079 -2.335437286376118 210 210 212
0.5835185761801571 0.0842451692376468 -2.3421070920723497 210 210 212
0.5423490563450566 -0.008773025942257151 -2.435609496721287 210 210 212
1.2353597770001072 1.4833024832747719 -1.3468767886378201 215 215 217
1.2369475147001598 1.4864235571018511 -1.346339968429769 215 215 217
1.238506488951296 1.4894795467282897 -1.345869107863022 215 215 217
0.3402453773192065 -0.018624720185689864 0.10212939737836513 177 177 177
0.33662390791345076 -0.026109086278523097 0.09868302680426994 177 177 177
0.3614735269193254 0.02093572188082568 0.09425549867917948 177 177 177
0.46073835531396556 0.04416407580328799 -0.9960252799819166 189 189 191
0.4475238523990816 0.016344429576754846 -1.0119202020352054 189 189 191
0.45178014137801903 0.02429239676485903 -1.013394639564529 190 190 192
0.45579101968845026 0.03174136395297249 -1.015049338301296 191 191 193
0.4537003362109647 0.026688889797421317 -1.0218043309543 191 191 193
0.4670542232754317 0.05329509744357373 -1.0155552732228763 192 192 194
0.4181341109649591 -0.0477878854358087 -1.0619894215709516 192 192 194
0.42493242924697733 -0.034637051283018194 -1.0613746439755425 193 193 195
0.40655856353954134 -0.07312996962178714 -1.0822484706289257 194 194 196
0.40718843965157375 -0.0726413810792835 -1.0869447176651963 194 194 196
0.3745837001700151 -0.14204226059593342 -1.1311138471498523 196 196 198
0.1634860386641011 -0.5785885429672672 -1.3338154683181005 197 197 199
0.3682768314025911 -0.3105620246082419 -2.1497152742871584 143 135 124
0.37532073760373 -0.2964024158101512 -2.1456025460989454 144 136 125
0.38340427540312005 -0.2799769991522854 -2.139736946727096 146 137 127
0.39080826693719556 -0.26501586201663524 -2.1349080361393824 146 136 126
0.39648768518425187 -0.2537905074840624 -2.1328382923467735 142 132 122
0.4016157942635192 -0.24375585402016237 -2.1316274844139924 142 132 122
0.41041889664497233 -0.22572650760144747 -2.1243162536775104 137 127 117
0.41526961295173315 -0.21627931302642545 -2.123461778945912 134 124 112
0.410078831763818 -0.2286702991464757 -2.139234326801346 132 122 108
0.41367196833829634 -0.2219564658973 -2.1404516767730355 131 122 107
0.41661359428451733 -0.21665719893781565 -2.142732614086982 130 121 105
0.4195846641919137 -0.2112910797775075 -2.1449464470842483 127 116 102
0.4284306236029144 -0.1931222787493404 -2.137263053017854 126 114 100
0.4320224294085003 -0.18639266371288843 -2.13836097953253 127 114 100
0.4340081296364243 -0.1831612024575356 -2.142152251144785 126 110 95
0.436925291787014 -0.17789680618121395 -2.1443543026541203 124 108 92
0.44035809119634933 -0.17150448154556536 -2.1456600588481063 121 106 87
0.44369908680081693 -0.16530894062319373 -2.1470991319836044 119 103 85
0.4479431553658269 -0.15713774950451775 -2.146966977221386 119 102 84
0.45041130044434424 -0.15284138869860064 -2.149857274280721 121 104 85
0.45262663226380534 -0.14909556347025055 -2.1531708699504346 123 106 86
0.45534396193109616 -0.14425058572673077 -2.1556049779247837 119 102 82
0.4591311974101865 -0.13706297946618162 -2.15616457523256 117 100 80
0.46430466487539673 -0.12683780015518142 -2.154280288366652 119 102 82
0.4687468466161183 -0.11820670279854956 -2.15363089679225 120 104 83
0.4697231367697227 -0.11716001291475153 -2.1590252854988696 119 103 80
0.47480913075985315 -0.10711055673004322 -2.1571913201678745 118 101 78
0.4762145274650865 -0.10512093701190417 -2.161811932784806 117 99 75
0.4795139860789924 -0.09897840223338628 -2.1630766841874083 118 99 75
0.48258601009679464 -0.09333119073030294 -2.164722587960574 117 97 72
0.48343077382388805 -0.09256797505939163 -2.170318034403885 115 95 68
0.48703789212008364 -0.0857418459462514 -2.170978934249435 114 93 66
0.49203874382323626 -0.07585100022771196 -2.1691130016368474 113 92 65
0.49419319700626607 -0.07220676687133676 -2.1723267742879546 113 92 64
0.49422461150251634 -0.07322689585843656 -2.1793632792414117 113 92 63
0.5039937131727746 -0.05283956614438856 -2.168777928468251 111 93 62
0.5052506794431982 -0.05115983185472445 -2.173560174833374 112 93 61
0.5068284344198734 -0.04877424488859522 -2.177757823574487 114 93 62
0.5111118530268641 -0.04043211619399173 -2.1770046090604764 115 94 65
0.5093357438530557 -0.0454288652421726 -2.1873312318963163 115 94 65
0.5154990897048439 -0.03293972114424426 -2.1830837882865346 114 93 62
0.5185220003819646 -0.027363273285090084 -2.1845762547694325 112 91 59
0.5217820014231163 -0.021260905080185577 -2.1856090750935238 112 91 59
0.5238596258275622 -0.017763000305110632 -2.1888148759645514 115 95 62
0.5241184973480462 -0.018277024416379184 -2.1954002939165895 116 96 62
0.5242200668501676 -0.019140105733775337 -2.2022914903596558 118 96 61
0.527255126240689 -0.013526693363258735 -2.2036951756365593 120 97 63
0.5311753728656357 -0.005954326989188075 -2.2034126611196174 120 97 63
0.532087635297386 -0.005025682555060917 -2.2087749934959233 120 97 63
0.5357364510273254 0.001953453192528043 -2.2089609688252434 119 96 62
0.5401100671293023 0.01054031316849241 -2.2077420879997045 120 96 62
0.5434466306611716 0.01683784243786468 -2.208461528058884 122 97 62
0.5456629888616265 0.02065911105677315 -2.211296636265818 125 99 62
0.5541632130966414 0.03840016147110625 -2.2020746825947013 124 99 62
0.5558712458979571 0.04110443930447555 -2.205826308313987 124 100 62
0.5572830981765717 0.04315303724380681 -2.21014356850402 121 98 61
0.5549606505390314 0.03692060893912341 -2.2216842186654335 108 89 54
0.5572426387414329 0.04089685768855433 -2.224330886695263 96 80 50
0.5574015523503341 0.040162879056013734 -2.2310985338945515 92 80 50
0.5598721889801799 0.044559909435298695 -2.233364383652504 93 81 53
0.5621439309037257 0.04851741741384119 -2.23600494552581 94 81 54
0.564532914109997 0.052737400486619346 -2.2384025348658407 90 79 52
0.5665862507732362 0.05621331968397514 -2.2414477377107547 87 77 52
0.5696759795051516 0.06199588338113948 -2.2424336024023024 86 78 57
0.5703759096189845 0.06246437078367528 -2.248136958884553 103 99 82
0.5721529626249756 0.06532958415749446 -2.2517037628108696 121 120 109
0.5722608120283139 0.06447851491772288 -2.2585952765216364 143 144 138
0.5755067016820865 0.07061668554993777 -2.2592184353549567 161 163 158
0.5780911351587384 0.07528435761763907 -2.2611450463503266 175 177 175
0.5825591526149859 0.08415468862093944 -2.2592607864889085 185 186 188
0.5932997015190875 0.10702389329412354 -2.2446626116711856 192 192 193
0.5849845076238357 0.08738368269538577 -2.2685671102005176 198 198 198
0.5916902579433462 0.10126253114060324 -2.2620533466956623 200 200 200
0.5280862570598746 -0.04189620298505625 -2.398846923062266 202 202 202
0.5384448833122278 -0.019901051289004656 -2.3851641168277853 204 204 205
0.4999161877446866 -0.10718010151119961 -2.4716708836359262 205 205 207
0.5536468919418234 0.011806564030742095 -2.3688075425540203 207 207 209
0.5967600528398775 0.10713763792354664 -2.2872022131638876 207 207 209
0.5575767577951399 0.018330604095502745 -2.3754725635617024 209 209 210
0.5637980836838024 0.031126647339996705 -2.3699516255093585 209 209 211
0.5670651679340308 0.037313571591161776 -2.370522368029344 210 210 212
0.5791304159359465 0.06322462138532003 -2.352682864248626 210 210 212
0.5792517440031861 0.06237400375562119 -2.359740021312526 210 210 212
1.2334538302524525 1.4726090335855824 -1.3580234257820936 215 215 215
1.2349361088412278 1.4754889444983745 -1.3578076193721735 215 215 216
1.2366708475103387 1.4789667365666683 -1.3568557589863777 215 215 216
0.34071883803557734 -0.026197323861272326 0.10228290730440018 177 177 177
0.3424634662514735 -0.0234020281099159 0.09863500265725982 177 177 177
0.3654859114780771 0.020279148897526744 0.09427317608285835 177 177 177
0.4602246592118024 0.03308262982793611 -0.9993994930259777 189 189 191
0.4651101480940927 0.04235329514657618 -1.0003168457037006 189 189 191
0.4710979822241537 0.05389523293980343 -1.0002847674845219 190 190 192
0.4626605279536557 0.035773194131136526 -1.0123039145704285 191 191 193
0.48392818783921143 0.07875525458275491 -0.9993850154480128 191 191 193
0.47194184171702475 0.053324394785284404 -1.014439389714256 192 192 194
0.4153509202240577 -0.06394733005979186 -1.0675087409861796 192 192 194
0.4069537386861775 -0.08204670815428239 -1.0798818557077312 193 193 195
0.40542737460113 -0.08600481044990824 -1.0864362167006885 194 194 196
0.3564324044985244 -0.19032324023369737 -1.1503440263805684 195 195 197
0.3662239182609486 -0.17097606493306414 -1.1472412275174102 196 196 198
0.37418076916238496 -0.313150222695177 -2.162123273023185 143 134 123
0.38345570056078515 -0.2940612952621754 -2.154271176056786 147 137 127
0.38939920023697666 -0.2822274832915222 -2.1518080001650626 145 135 125
0.3954083247848739 -0.2702426760841468 -2.149186613188195 143 133 123
0.4019968091263476 -0.2569849561605139 -2.14555591119977 141 131 121
0.40814196127634095 -0.24468671534125647 -2.1426036848664842 137 127 117
0.4134645349022716 -0.23417777585798966 -2.1409685857259686 132 122 111
0.41927769093486367 -0.2225896122446689 -2.1384700409646586 129 120 105
0.4228341787259743 -0.21592884987228522 -2.1397048794243467 129 119 103
0.42739967703907583 -0.20705682093452482 -2.1392181937446693 128 117 101
0.42648886143181586 -0.21016463476947295 -2.147935696054002 127 115 99
0.4288368302891103 -0.2061413330783382 -2.1511613620729015 125 113 98
0.4324115262290888 -0.19942934997775097 -2.1522922122985513 125 112 95
0.43616156035922377 -0.1923292800609302 -2.153099232496709 124 110 94
0.44031380767745715 -0.18434333936651098 -2.153191583755919 124 109 92
0.44448984328465185 -0.17630031853781636 -2.1532114685912296 123 107 90
0.44895239549717025 -0.16762377596118133 -2.1527063331292595 122 106 88
0.45195978995154107 -0.16213529063477877 -2.154677796063012 122 107 88
0.45599723022540406 -0.1543823659620172 -2.154846267340391 122 107 87
0.4577639268400792 -0.15161208229984385 -2.158929314182354 122 105 87
0.4634948990817815 -0.14013046203517654 -2.1560969776775845 122 105 86
0.465835449116499 -0.13609366376569398 -2.159143574631724 122 105 85
0.4689961870140434 -0.1302514289488068 -2.160739397415474 121 104 84
0.4720142385008909 -0.12471980240754132 -2.1625651860877206 120 104 83
0.4740724396342347 -0.12129754061606768 -2.166066213453571 120 103 81
0.47618511578990835 -0.11775398584872143 -2.16946199188371 117 100 76
0.4806709515112985 -0.10898199889448201 -2.1686309233724357 117 99 74
0.48409064147599645 -0.10255351078162772 -2.1696640890044145 117 99 73
0.48421851873766963 -0.10337741505388931 -2.176560495636966 115 95 69
0.48883523248083466 -0.09430457421800797 -2.175415713693648 115 94 67
0.4918831071530169 -0.08868679471479868 -2.177056627925273 114 93 66
0.4926389237417525 -0.08812440562017043 -2.1828162617535836 113 92 65
0.4936009130285927 -0.08710774713735653 -2.188208425700017 112 91 63
0.5021040748654229 -0.0694348240800543 -2.179898906673747 111 91 61
0.503949353574961 -0.06646072726767338 -2.1836442730357746 111 92 62
0.5055788715030431 -0.06396255414898744 -2.187777603629554 112 92 62
0.5098949655427425 -0.055522393954101856 -2.1869773337968423 113 93 63
0.5144597978468479 -0.04652641042819289 -2.1856836788428464 114 93 63
0.520061645076932 -0.03522921302194648 -2.182436596427979 113 92 61
0.5222991393596594 -0.03137352277727734 -2.185370735542369 112 91 60
0.525639767514849 -0.025072471064620627 -2.186243492795002 110 90 58
0.5252265753257768 -0.02708622597714677 -2.194089375000844 112 92 59
0.5254996371445733 -0.02758164371657512 -2.200671631505385 114 94 60
0.5264787340158555 -0.026512974176135573 -2.2059410513391047 117 96 60
0.534926632200522 -0.00887312383496397 -2.1971585436362524 119 96 62
0.5415360716722235 0.004699120264209211 -2.191761362306583 120 97 63
0.5431414577737893 0.007169086610391395 -2.1957768489617617 119 96 62
0.5420726081906441 0.0036987481659412347 -2.2048683013788923 119 96 63
0.5434563606857182 0.005674989057084356 -2.209313547315542 119 96 62
0.5476753911181836 0.013955475075895118 -2.208337102596388 121 96 61
0.5503196343653682 0.018738622458761678 -2.2103449224396625 125 99 62
0.5528990667388813 0.023380157233239718 -2.2124606021460327 126 100 63
0.55532468440151 0.02768176467284389 -2.2148570082634933 123 99 63
0.5571562421912082 0.03066252972004968 -2.2183890640705513 116 95 60
0.5575248615998173 0.030384850901080618 -2.224754658485808 98 82 51
0.5579932742785478 0.030327974026207127 -2.230936439769371 77 64 39
0.5601412979030169 0.034015120289016765 -2.2338458222349065 69 59 38
0.5621325805585039 0.03735430223763814 -2.2370513881578975 69 60 40
0.564121311707579 0.04068920954084981 -2.240252821049129 73 64 42
0.5666472418699899 0.04522499902259558 -2.2423856456152893 79 70 47
0.5688557468075102 0.04905418253435068 -2.2451306809968776 92 85 63
0.5706844883873448 0.05203655301438215 -2.2486174292478376 107 101 85
0.572619808145504 0.0552583261685089 -2.251884744585416 123 121 108
0.5742375026534039 0.057771028360033894 -2.255777670612968 141 141 134
0.5752446339355533 0.05891827765647817 -2.260888806473408 160 162 158
0.5774814252944225 0.06281773470359375 -2.2635322076620255 173 175 172
0.585396827763774 0.0794364000163118 -2.2547188214547127 182 184 183
0.5875447435403138 0.08314607548668962 -2.2574816981498684 189 190 193
0.5903884160885787 0.08841702646892269 -2.258822251986899 195 195 197
0.5819185727449163 0.06832161090927646 -2.283154736422865 199 199 201
0.586058442898369 0.07649571434425073 -2.281881000662888 201 202 203
0.5897093858904776 0.08357814793954804 -2.2815714540996015 203 203 205
0.5421048807791233 -0.024419905984143786 -2.386451385998828 205 205 207
