ply
format ascii 1.0
element vertex 688
property float x
property float y
property float z
property uchar diffuse_red
property uchar diffuse_green
property uchar diffuse_blue
end_header
0.010524080135112579 -0.09425917635194889 -1.3550315272062181 88 74 57
0.019846900772928777 -0.0958335636146203 -1.356054462403776 87 72 54
0.029420082706269446 -0.09744500282786529 -1.3569365708211925 91 79 58
0.03503208815573028 -0.09845667348868221 -1.3596109682261974 94 80 58
0.04281772755788005 -0.09979646523511802 -1.361269920642364 83 66 43
0.04938559924993452 -0.10095161737058195 -1.3634716497435362 99 78 55
0.056186334568013585 -0.10214142313844533 -1.3655485507585752 99 77 52
0.06294037724145857 -0.1033236363004898 -1.3676297480694748 104 83 54
0.06753139036712436 -0.10417886460997594 -1.3707064807546414 107 86 56
0.07339539897496133 -0.10522584439068501 -1.3731751977317346 108 85 58
0.08090149008816228 -0.10652002356618427 -1.3748548584392142 112 90 65
0.08770605093860495 -0.10770781877866181 -1.376846654622815 108 88 61
0.0946052291974731 -0.10890932383931463 -1.3787757979067274 116 97 71
0.10162700896547516 -0.11012873731746244 -1.3806283853939814 108 87 58
0.1042506845187034 -0.11068528657381702 -1.3845694775489465 160 134 94
0.10964665790888994 -0.11165906459954948 -1.3871747683002849 149 123 83
0.1178963910551874 -0.11306186110794367 -1.3883898673394557 144 119 82
0.12314560312637024 -0.11401261369286814 -1.391035676983573 171 145 103
0.1273257003079969 -0.11480223475216826 -1.3941892065004502 158 132 89
0.13213013609578933 -0.11568543654583024 -1.3970296150491657 115 90 53
0.13384290348564543 -0.11610379424193557 -1.401374187715156 174 146 103
0.1392174411070976 -0.1170721329350829 -1.4039185546036488 168 136 88
0.14449375727738312 -0.11802532892619504 -1.4064986444411112 180 147 100
0.1479824008211058 -0.11870985084348415 -1.4099519948056616 158 128 84
0.15435588053958105 -0.11982697204707728 -1.4119648900869473 145 116 73
0.16061303850995357 -0.12092613696373518 -1.4140193483245393 146 118 75
0.1562602411283956 -0.12043430652564563 -1.4213726600448215 136 109 69
0.15985115142178086 -0.12113354178745679 -1.424754916030995 106 80 42
0.16587515491963611 -0.12219703771528712 -1.426903063931126 104 82 45
0.16865053413408038 -0.12277362728111031 -1.4306812083312639 89 66 32
0.17131576823908962 -0.12333362668170758 -1.4345119933025996 95 72 40
0.17167769718063908 -0.12354891461642108 -1.4395148708206937 90 67 35
0.17515745891788004 -0.12423068575603671 -1.442926977040416 90 67 35
0.17883966606189072 -0.12494253798875662 -1.4462290850656432 85 62 30
0.18264200114687107 -0.12567213384114223 -1.4494625083886257 86 63 31
0.18795783861285448 -0.12662760750987054 -1.4519053976910397 82 59 27
0.1902479663577245 -0.12713084818141615 -1.455907088491244 84 61 29
0.183088980781068 -0.12622353428502386 -1.4648329201537549 82 59 26
0.19222103858769984 -0.12774814783332744 -1.4652696497280953 84 61 30
0.18882567926315114 -0.1274033558326641 -1.4722564308161787 75 51 25
0.18993876873778098 -0.1277313834662132 -1.4768874090701698 76 55 27
0.1907079008073314 -0.12800823480298365 -1.481703082544551 95 74 44
0.19505424538548305 -0.12881815929681617 -1.4846246619251984 78 57 28
0.20077549412183004 -0.12983255244186565 -1.4868047753975238 69 48 23
0.20397770634102264 -0.1304714947828408 -1.4903165616164256 69 47 23
0.20704790396878103 -0.1310906357481844 -1.4938941056451804 81 59 35
0.21073412812705222 -0.13180126906817713 -1.4971355744707673 78 56 32
0.21267202931816603 -0.13225172856115647 -1.5013143430123816 80 58 34
0.21460982688976338 -0.13270216360885748 -1.5054928765507667 64 41 18
0.21628069778232384 -0.13311293136926677 -1.5098162827969142 55 35 16
0.2180168188084745 -0.1335334120891789 -1.5141047998716737 46 29 11
0.23204415888793534 -0.13577860914402354 -1.5116627767377875 49 32 13
0.22510270516189668 -0.13491067051168407 -1.5206974566041331 60 40 22
0.21916124185675967 -0.13419210762876277 -1.5292141788874676 54 32 11
0.21499040213997145 -0.13373701328839288 -1.5367808758847612 127 104 70
0.21058626542917497 -0.13324805520011684 -1.5445001385218105 67 44 16
0.21090501389885125 -0.1334595831834709 -1.549611989323166 69 47 23
0.21686488812401394 -0.13450674849440125 -1.5515760110124235 64 42 19
0.22240960923822772 -0.13549196783110062 -1.5537572693549295 66 44 21
0.22949850971806302 -0.13670525888919824 -1.5550552091271095 66 44 21
0.2329749044688293 -0.1373835593440948 -1.5583735179876437 72 49 22
0.23646751428387608 -0.1380640647722673 -1.5616764360623734 84 60 29
0.23984116549839785 -0.1387267929326583 -1.5650407266145234 74 51 18
0.24147019515241663 -0.1391315859719622 -1.5693946712724738 97 75 43
0.2428283975718441 -0.13949641055235124 -1.5739045708440276 76 56 28
0.23999051888210537 -0.13924186165335964 -1.580826928166077 53 32 13
0.23968338071550993 -0.1393613189774771 -1.586308760559946 64 46 26
0.2475230455045262 -0.14068270461685078 -1.5870873697616221 82 65 38
0.25184588300924043 -0.1414848440583596 -1.5898835423382685 86 70 40
0.2555568524778173 -0.14219650860475236 -1.5930263936107436 120 102 70
0.26014959207191896 -0.14303785205347258 -1.5956469291734012 136 111 78
0.2667973969007851 -0.14418149296130517 -1.5970522760015151 110 88 60
0.2742488847582691 -0.14544285427718218 -1.597966286404306 112 93 58
0.2828735979300096 -0.14687616224766994 -1.5981661647834997 131 110 72
0.28728622092802353 -0.14768914199740096 -1.6008330435256886 139 112 72
0.29500989056430615 -0.1489885883327799 -1.6015232492215103 156 125 79
0.3022402389929413 -0.15021482114695817 -1.6024843462522005 158 129 79
0.30800759329783856 -0.15122548956359544 -1.6042989476793865 165 136 87
0.31270941191333934 -0.1520792208466163 -1.606737234465761 182 151 101
0.318629277800155 -0.15311137642582856 -1.6084311634800277 178 145 100
0.32492968571100606 -0.15419886030331037 -1.6098791809601405 163 131 92
0.3307052648902706 -0.15520882912881304 -1.6116274469774408 159 130 90
0.3371647325683727 -0.15631856209386658 -1.6129444393371222 145 118 82
0.34006458508054294 -0.15690614620316898 -1.6164134762200117 100 75 44
0.33978220866943953 -0.15702751254876202 -1.6218248626345637 73 52 23
0.34030758901894265 -0.15726739649302643 -1.6267488764416447 64 42 20
0.3408333347538486 -0.15750749408276538 -1.6316778218376482 63 41 20
0.3472206822257788 -0.15860518328680434 -1.6329912633307986 65 43 22
0.34241713201518814 -0.15806600330788378 -1.6412213567125566 67 45 23
0.33914850120250817 -0.15775198223293332 -1.6485236852076977 73 51 28
0.3353611195654477 -0.15736280850359446 -1.656169939260732 86 65 36
0.32362664019485865 -0.15581381287831592 -1.668811150743914 112 94 59
0.3058082651417336 -0.1533784519625749 -1.6853256859799275 85 69 37
0.2972750066477516 -0.15230030021827884 -1.6960723096585204 87 69 39
0.27898586459964164 -0.1498006151203275 -1.713023769545142 93 73 44
0.2783507589097305 -0.14987707437241155 -1.7188684049577319 59 42 18
0.2840172662234655 -0.15087210813178262 -1.7207168776723982 58 41 23
0.2889854058454896 -0.15176494506442187 -1.7229954371121021 51 34 17
0.2913735055565252 -0.15228175843560887 -1.7269121902913558 55 38 20
0.29151528708754487 -0.15247160111004832 -1.7322686061495163 51 34 16
0.29090341745861376 -0.1525520309251518 -1.7381172907861593 53 36 18
0.2902917962603326 -0.15263281065362744 -1.7439759169418751 52 36 14
0.2925826704399102 -0.15313575404859658 -1.7479640612139093 88 70 42
0.29452143734844627 -0.1535874919640144 -1.752179374869423 75 54 25
0.29656349480003286 -0.15405422116413 -1.7563270883138662 59 39 16
0.29976454630207294 -0.15468915732871832 -1.7597160852834333 80 60 38
0.2991870199972499 -0.15477570469311663 -1.7655787703914954 72 55 34
0.29632857221088243 -0.1545317788451998 -1.77295268931632 56 38 18
0.2948653532760065 -0.1544907078118662 -1.7794249195613152 60 39 18
0.2929123479815868 -0.15437909604064742 -1.7862352571855975 58 35 10
0.28996087614334815 -0.15412336559142353 -1.7937246776378848 104 80 47
0.28750099349235214 -0.15393942048781015 -1.8009064553073277 99 77 46
0.28503325169656685 -0.15375489576314477 -1.808111438032877 80 58 29
0.30338908227603506 -0.15658282940736745 -1.8013721586755953 72 52 27
0.30887836527270707 -0.15754847037869563 -1.8032184378032512 61 41 19
0.31397136172159595 -0.15845637957378955 -1.8053171221871849 60 37 15
0.29453249825201966 -0.15582035176433223 -1.8240037215069083 63 41 20
0.30858917036192024 -0.15802320166892786 -1.8200421518986478 66 44 23
0.31422378688679387 -0.15900903694516305 -1.8217643740686598 65 43 22
0.318718945405618 -0.15983001782681433 -1.8242491763391226 63 41 20
0.32397875214290944 -0.1607609121704266 -1.8261992455019405 60 38 17
0.3197542136265792 -0.16032446484273255 -1.8346523015723337 65 43 22
0.3209675708158569 -0.16067217798562725 -1.8393829048497958 66 44 23
0.32381235107665174 -0.1612548899193074 -1.842988455291311 64 42 21
0.3405675187124582 -0.1643571823395289 -1.8536083054278232 61 39 16
0.3420637224809802 -0.1647451687577005 -1.8581287408114022 61 39 16
0.33894939140410263 -0.1644711358210068 -1.865896480182176 60 38 15
0.337365811606823 -0.16441747329804485 -1.8726045002773992 55 35 14
0.33786608847190797 -0.16466323284110562 -1.8778513935351706 54 33 12
0.3388605368881242 -0.16498003965888092 -1.8827531269889093 54 33 12
0.34396805022050775 -0.16588651243318125 -1.8847282379312769 52 33 12
0.34403923605999837 -0.16607100688757107 -1.890288533944808 51 33 11
0.3448531669835109 -0.1663621046215811 -1.8953242071136371 53 34 12
0.3433955757738557 -0.16632820555596106 -1.9019973487002777 54 33 12
0.34486171091417656 -0.16671304919449198 -1.906576780505421 53 32 11
0.3477036900233653 -0.1672946997531599 -1.9101630832158252 58 37 16
0.3508043469502514 -0.16791319766310997 -1.9135576709883277 62 40 17
0.3528569677765581 -0.16838179988612495 -1.9177094131256762 63 41 19
0.3525069653414181 -0.16850727595819592 -1.9236133436354264 63 41 20
0.3513182027451133 -0.16851332901335814 -1.9301406508173027 63 41 20
0.3501506511351198 -0.16852282026867754 -1.936665656075582 61 39 17
0.35044423744843506 -0.16874108392473297 -1.9421283875400026 61 39 15
0.3515917795113887 -0.16908128125966015 -1.9469676233559081 60 38 15
0.3538870038820715 -0.16958508706578895 -1.9509603584395054 62 40 18
0.35350925349820106 -0.1697082045240607 -1.9569361682412345 54 33 13
0.35667840742955637 -0.17033647131901547 -1.9602803714626091 50 32 12
0.3593116622649756 -0.17088832555036237 -1.964019286935505 47 29 9
0.36139521595067614 -0.17136191302854853 -1.9681667444484234 50 30 11
0.36398227079390455 -0.17190703734703613 -1.971935104886821 55 34 14
0.3657378329659976 -0.1723339433661189 -1.9763269125939624 56 35 14
0.36748564372069514 -0.17275976718796157 -1.9807251718844971 62 41 20
0.368723616488293 -0.1731132510733987 -1.9855104296461725 64 43 22
0.3703343894779171 -0.17351970886826817 -1.9900152201102286 59 40 18
0.3717254447692118 -0.17389505129477814 -1.9946887200228252 50 32 11
0.3772099857509319 -0.17485059771942094 -1.9962352820571407 49 31 12
0.3732017176485978 -0.17446096585827459 -2.005043431042068 51 33 13
0.3779896166772587 -0.17531754460039453 -2.0071148439491244 53 35 16
0.3775638744904307 -0.17543591270027098 -2.0131934042522697 69 49 21
0.38197556246715536 -0.17623884031696577 -2.0155416518021427 115 91 55
0.3825527811062502 -0.17649931044764003 -2.0208522659556603 109 85 44
0.3816860456432275 -0.17655591778773433 -2.0272916739883033 164 138 93
0.3844445125260747 -0.1771249308058411 -2.0309159944105457 118 96 59
0.3853586310875402 -0.17743345574971048 -2.035979016908501 80 58 26
0.3864846447913447 -0.17777201528869152 -2.0408802063337528 72 48 17
0.3918615183779906 -0.17871019058236873 -2.0424410684480687 76 51 20
0.39097485999129855 -0.1787649562606854 -2.048927314942648 77 52 21
0.394982844835794 -0.1795097315059196 -2.0515539348991614 77 52 22
0.3960031548095374 -0.17983347692540924 -2.0565412829248433 73 48 19
0.4018679719712992 -0.1808392275051866 -2.0576783861512844 66 42 14
0.4001208337043968 -0.18077354266277115 -2.0648706296416437 68 44 16
0.40163024660758645 -0.18116628389009662 -2.0694737743684115 73 50 19
0.40650205803283607 -0.1820316437524791 -2.071380886749779 105 82 46
0.4052198183761523 -0.18203210301564116 -2.0782260554390786 104 83 43
0.4078450866372095 -0.18258163614582162 -2.081932790672452 136 113 74
0.40937952178193193 -0.18297798643831406 -2.0865188319570236 127 101 64
0.4045391329935197 -0.18248023842005714 -2.0962789955325833 82 60 29
0.40353841207292124 -0.18252173188962756 -2.1029455665699994 77 55 23
0.4069939928707177 -0.18318805789517223 -2.10598925181765 73 50 20
0.41170551006389516 -0.1840300581469283 -2.1079982137380124 71 48 18
0.4215601252565076 -0.18559158778371349 -2.1057743935734834 82 59 27
0.4247437190873136 -0.18621865488827294 -2.1090030545886167 79 56 24
0.4274008625819521 -0.18677192086045535 -2.11266016585666 77 54 23
0.4168289165381591 -0.18547609973049622 -2.1272591980400946 79 56 25
0.42113299947619925 -0.1862601597815325 -2.1295732382367047 77 55 23
0.4331572232458427 -0.1881217876903833 -2.12545326730058 73 53 20
0.4308110040975493 -0.18797654627167137 -2.1332755707886903 67 46 15
0.4340442305888957 -0.18861013353507305 -2.136449748613667 69 48 17
0.43909413064185443 -0.1894967878917741 -2.1380937391580708 69 48 17
0.43660502553229175 -0.18933253039993386 -2.146064992863291 68 47 16
0.4374068053025464 -0.18962720663496405 -2.151280598193803 71 50 19
0.44185787065746424 -0.19042999291628643 -2.1534145356807475 72 51 20
0.4438530938752768 -0.19089075290574475 -2.157619562205071 74 53 22
0.4450307419896207 -0.191237815989532 -2.1625194571505078 74 53 22
0.4486467443867034 -0.1919238539259637 -2.165343183304966 73 52 21
0.4506643662695222 -0.19238762224913897 -2.1695257423940117 73 52 21
0.45326709659916264 -0.1929326030452999 -2.1732059803602404 76 53 24
0.4588054234610219 -0.1938848165207835 -2.1743587306635073 80 57 24
0.4601728144933258 -0.19425805367614973 -2.1790905123464053 90 68 31
0.4622939327803197 -0.19473584228151203 -2.183173114782611 89 67 30
0.4660344530395035 -0.19543794670163256 -2.1858507788438244 86 64 27
0.46795449346093115 -0.19588770646007714 -2.1901021634042865 87 65 28
0.4690250330902251 -0.1962198971217961 -2.1950938230065016 88 66 29
0.4718753896912168 -0.19679838979360975 -2.19853383651906 88 66 29
0.4757739821323777 -0.19752165460740756 -2.201050687525777 91 68 29
0.47736089671340354 -0.19792521485912482 -2.205589288078119 96 73 32
0.47894844756656657 -0.19832890700967587 -2.2101287455290737 99 76 35
0.48053607629891165 -0.19873265394614698 -2.214669551867172 100 77 36
0.4819607931506819 -0.1991139712910444 -2.219356092180425 103 80 39
0.4903789228504122 -0.2004595812978452 -2.2178331310246215 99 76 35
0.49667892260205354 -0.2015123399860657 -2.2181654020950083 98 75 34
0.4955432105343988 -0.2015403393993273 -2.2251166406287815 103 80 39
0.5017808031306161 -0.20258374631423623 -2.225480284361858 102 80 39
0.5023357057802151 -0.20284468686406204 -2.230924918300664 102 80 41
0.5076293671142935 -0.20375742333914532 -2.2321100839949146 99 77 38
0.5107554511942709 -0.20437176059964804 -2.235235278148499 108 86 47
0.515869329591877 -0.20525894307637835 -2.236555463359247 102 83 42
0.5134798257180562 -0.20511557935514052 -2.244668790359173 92 74 38
0.516703782675989 -0.20574304718786135 -2.247695341157579 84 67 36
0.5192039454623836 -0.2062710588895587 -2.251375655626678 85 70 42
0.5233700350536568 -0.2070272981083871 -2.253529128682557 87 74 50
0.5241820883537882 -0.2073237607813342 -2.258747519223416 96 87 71
0.5237021320113644 -0.2074435037239754 -2.265159134614281 126 124 114
0.5258830759042661 -0.2079276864316673 -2.2691288987092992 162 162 160
0.5205304765801912 -0.20738159942480955 -2.2800613703603476 184 184 186
0.5227894473664653 -0.20787692533479454 -2.283974228878693 195 194 199
-0.07254326547616985 -0.08114720182440108 -1.2173310214507678 163 161 156
-0.06900814631731034 -0.08184712279548369 -1.2211148534918748 102 93 84
-0.059162863487669026 -0.08350243749558636 -1.2223696978609786 94 80 66
-0.048188722436908527 -0.08532778400373417 -1.2231442154688132 94 79 62
-0.03805708266452201 -0.0870246623573712 -1.2242276915605073 96 81 64
-0.030691274213396624 -0.0883022645397669 -1.2264034261264771 100 85 69
-0.019941193324254758 -0.09009103423122908 -1.2271839665512023 96 82 64
-0.009764082811014374 -0.09179223461201584 -1.2281682967609722 99 84 65
-0.0016764052489003367 -0.09317680827034755 -1.229981345620588 104 88 69
0.005983739133077259 -0.09449612985435325 -1.2319492825890692 105 89 65
0.014516302975487227 -0.09594655908090924 -1.233536576176935 106 90 65
0.022664980288236325 -0.09733831995171653 -1.2352604874908288 106 89 64
0.030200783359450534 -0.09863692216194225 -1.2372184651537694 110 91 63
0.03133865280185166 -0.098969876957332 -1.2418364559239248 123 105 77
0.0261061897123821 -0.09834239622307499 -1.2491360170501267 128 116 97
-0.04063324257221124 -0.09044933314428165 -1.3457266956010776 108 102 91
-0.025938541371658852 -0.09298988757523871 -1.3498068283538922 117 100 80
-0.020027898143474943 -0.09404390746404782 -1.3524627450889088 89 71 52
-0.008137462214793834 -0.09599348350767581 -1.3524120467192295 98 83 66
-0.009586695664624278 -0.09594390547191188 -1.3583564445261502 88 73 55
0.005215877697874127 -0.09832802074253902 -1.35693731623661 92 76 56
0.01421787451488199 -0.09984252165612907 -1.3581153176746938 92 75 52
0.022899152473840556 -0.10130824361599955 -1.3594148985477834 95 80 53
0.029718649224912796 -0.10249476297392414 -1.361545320758737 98 82 57
0.03839211589058267 -0.10395789951547778 -1.3628037343526722 99 80 57
0.04538355780057768 -0.10516890526168746 -1.364816389073813 97 76 52
0.05020061038605228 -0.10605451125189726 -1.3678209658078933 102 81 56
0.057939704693544924 -0.10737613900778956 -1.3694526055285143 99 79 52
0.06266196902486315 -0.10824677226632437 -1.3724755523110843 99 79 51
0.06917101491930583 -0.10938370461068793 -1.3746488262861285 108 84 57
0.07609219548686924 -0.11058158794492039 -1.3766111826701606 117 94 63
0.08436012802743664 -0.11197970526457625 -1.3779178368552936 113 90 57
0.09133180798888196 -0.11318389527787427 -1.3798176626430405 142 120 87
0.09842006224749761 -0.11440487440020292 -1.3816435815180252 122 100 68
0.10187083267004737 -0.1150835224784512 -1.3851927297184212 135 111 77
0.10897150151958684 -0.11630536958721989 -1.3869817257031976 125 102 74
0.1144631900337083 -0.11728717540483856 -1.3895282203855102 132 112 85
0.12027754670234359 -0.11831656769913322 -1.3919053764821443 130 108 82
0.12678561430766233 -0.1194486649697527 -1.393931031176844 133 111 80
0.13342416213240305 -0.12059962518155876 -1.3958762077856817 149 129 92
0.13832458946348547 -0.12149177451218296 -1.3986553648495044 152 126 89
0.14370755763470716 -0.1224552465629171 -1.4011862872168466 170 139 97
0.14788458780040376 -0.12323926560536629 -1.404299453861993 180 150 102
0.14904838892646122 -0.12357581311518201 -1.4088965204311388 168 139 97
0.15032190345703828 -0.12392871935622911 -1.4134416426984728 165 137 95
0.15038733267012372 -0.12410253859403567 -1.41859169501523 157 129 86
0.15342442444258625 -0.12471708658901393 -1.4222603152572186 120 93 52
0.15661826403993084 -0.12535472645778056 -1.4258458838433903 107 84 44
0.1620270527591079 -0.12632029831795016 -1.4283093128413415 103 80 44
0.16829720307282298 -0.1274129952587506 -1.430323634185745 96 72 41
0.1720567212887344 -0.12813358796992022 -1.4335974140393184 92 68 38
0.1744140022746284 -0.1286465009137725 -1.437579291616489 88 65 33
0.17189700998567742 -0.12843850184647748 -1.4440540559538864 87 64 32
0.17788492900133196 -0.12948830628953859 -1.4461764020177232 88 65 33
0.18113585207588662 -0.1301331748815912 -1.4496944383880173 82 59 27
0.1831598532564413 -0.13059664771127227 -1.453842108166774 83 60 28
0.18581722769664927 -0.13115362231579958 -1.457660319395642 84 61 29
0.19060889071864184 -0.13202551524510842 -1.460363416289328 85 62 30
0.1876682728283775 -0.13175626785372502 -1.467099255483252 80 56 25
0.19062415040706632 -0.13235718886054093 -1.4707584017140582 73 50 24
0.18618738592096573 -0.13186816976603735 -1.4783071280900595 72 51 25
0.18717624536034638 -0.1321794125712747 -1.4830116484369151 102 81 52
0.19445560187250188 -0.1334173483972927 -1.4843827431082242 69 48 20
0.19928539703423248 -0.1342939671261848 -1.4870374742398729 70 48 23
0.20338916309475302 -0.13506337560595622 -1.4900689081600198 69 47 24
0.2002459994833326 -0.13476634008270355 -1.4969768222393074 67 45 22
0.20924159148376054 -0.13625504613805017 -1.497373427135751 72 50 28
0.21059437236227763 -0.136619393237789 -1.5018690805936978 63 40 20
0.21194762834847458 -0.1369838709876589 -1.5063663978617574 63 41 20
0.2151862480719372 -0.13762533577625552 -1.5098407010230757 60 42 23
0.21500815981502364 -0.13776498719993466 -1.5151736804035294 46 29 11
0.22225143138926823 -0.13899405734217096 -1.5164517969070281 50 32 11
0.2220705070843998 -0.139133336753316 -1.5217877249726939 63 42 23
0.22091676286554063 -0.13913020595520328 -1.527667651036403 67 46 18
0.22021433051985934 -0.13919359259161618 -1.533309425249634 123 101 64
0.2183863824848486 -0.13909237738260646 -1.539585680059024 70 47 18
0.21633471095241358 -0.13895884205244668 -1.5460006370656219 72 50 25
0.21229662889615702 -0.138534970941406 -1.5535406950998616 71 49 25
0.22894679934347234 -0.14113931988838027 -1.5495020239187602 67 45 21
0.23150429989905358 -0.14168041904104156 -1.5533364519548383 67 45 22
0.22507278846724466 -0.1409070807188658 -1.562243478659868 65 41 15
0.22849517881106468 -0.14157496766579197 -1.565599864350506 71 48 17
0.23370550819002334 -0.14250387563214842 -1.5679339008144504 80 57 24
0.2344794926016575 -0.1427845144796761 -1.5727854653366908 103 80 49
0.2370689992607829 -0.1433303052047613 -1.5766021923464808 75 54 29
0.23666684603286503 -0.1434394867767962 -1.582134073916255 55 34 14
0.23677261974141356 -0.14362302806175797 -1.587382074496384 62 41 22
0.2453816333215209 -0.14504647113266195 -1.5877209921236988 83 63 38
0.25034883990238016 -0.14593837102037532 -1.5901462165072506 87 67 40
0.2516458769595735 -0.14629526703627727 -1.5946954379585285 133 112 84
0.25888000853799864 -0.14751670405951234 -1.5957798691361431 128 103 71
0.26536557577067593 -0.14862852926490708 -1.5972819423814872 111 91 62
0.2731692017109299 -0.14993153574195686 -1.5979911247221918 109 92 58
0.28131038291220595 -0.15128289305363748 -1.5984779602853258 130 107 71
0.2875608862947877 -0.15235864598386015 -1.6000590114731423 150 123 84
0.29379101583110623 -0.1534308920373776 -1.6016348964097689 157 127 82
0.3003347277745492 -0.15454813553832777 -1.6030067657737173 166 133 87
0.3073038929744953 -0.15572655725991127 -1.6041058753988258 185 154 106
0.31257515795989926 -0.15665795876183436 -1.6062028830953723 162 131 81
0.31932401558695767 -0.15780325101439413 -1.6073974345821997 175 143 98
0.3262239422651522 -0.15896983129809283 -1.6084813979579762 172 141 100
0.3320089807270242 -0.15997420551045557 -1.610220426684494 167 138 100
0.3340124325413996 -0.1604302869658052 -1.6142411695654837 131 105 70
0.33653663438704434 -0.16096174818919895 -1.6179437939083494 86 62 30
0.3370442907932253 -0.1612012598210591 -1.6228767176093926 75 55 25
0.33632335242965933 -0.16126319543909742 -1.6285685691610554 62 41 19
0.3415068614972727 -0.16217927814438468 -1.6306365762435018 60 38 21
0.34061859130773453 -0.16221729588497713 -1.636440241870347 66 44 24
0.3416433690764107 -0.16253205529212889 -1.6410696828298954 69 47 25
0.33842290809631076 -0.16223382751846777 -1.648340507476019 74 52 29
0.3255234263696456 -0.1605390288457733 -1.66166588501837 91 70 42
0.30732952135909103 -0.15808216092537158 -1.678361678389439 100 81 52
0.2960100002228867 -0.15661931348555277 -1.6908244604793796 83 66 39
0.2809583792439686 -0.154620107830161 -1.7056893981079142 83 64 40
0.2768230858083996 -0.15419610183017513 -1.7137289535736577 76 55 32
0.27984455381228607 -0.15480369640703884 -1.717258952482816 61 43 22
0.2809242934999967 -0.15513158918261413 -1.7220183206141382 58 41 24
0.28680590004629186 -0.15615061338715414 -1.7237195641412493 50 33 18
0.28852434342951316 -0.15657027639114743 -1.7280671697354308 89 72 53
0.288186209221564 -0.15669426388578578 -1.7337348621558792 60 43 26
0.28699010862919916 -0.15669523196299037 -1.7399637224658957 48 31 14
0.28809952605229233 -0.15702778685497548 -1.7447165251570573 68 52 29
0.28712152633164245 -0.1570607140120149 -1.750824418688797 90 72 42
0.2897080851720084 -0.15760560508367083 -1.7546280109925214 70 49 22
0.29213903543646597 -0.1581280814904951 -1.7585301371427597 53 32 13
0.2969159990706458 -0.15898688962278462 -1.760896197062927 53 36 16
0.2977305381771347 -0.1592773929346759 -1.7658491180321447 56 42 24
0.29823115897223634 -0.15952306090815013 -1.771012914566455 40 25 8
0.2918773390858233 -0.1587873593755404 -1.7807058856720233 59 42 23
0.29211348426448713 -0.15899597600543064 -1.7860701558573382 56 35 8
0.2864252197849174 -0.15835720975555553 -1.7953753261587333 124 100 64
0.28275961122618176 -0.15800867848344902 -1.8033643855802104 90 69 37
0.27850635671373164 -0.15757687617140964 -1.8117690217276505 85 65 35
0.30216695790180886 -0.1611340066110753 -1.8014900299554748 63 44 19
0.3082080809572087 -0.16217209731593285 -1.8029667553004427 59 40 18
0.3125671603913847 -0.16296954491364235 -1.8055605941331925 61 40 17
0.2996147858129952 -0.16147302537114475 -1.825421607759388 65 43 22
0.2987469812460243 -0.1615258595564067 -1.8315871137084103 64 42 21
0.2978407492817365 -0.1615735826706442 -1.8377903488169585 61 39 18
0.29797157835072147 -0.1617693657494515 -1.8432950993354973 50 29 8
0.2951857589093655 -0.16155020894698902 -1.8508105926189884 61 40 19
0.3190829913525149 -0.1651281305893794 -1.8399619329917654 64 43 22
0.3213813115901223 -0.1656314782391657 -1.843947283390025 61 40 19
0.3290036052667816 -0.16689155739978628 -1.8442405240248714 59 38 17
0.33324468400935536 -0.1676704683926897 -1.8468604765471814 57 36 15
0.3337222259496823 -0.16791459053184177 -1.852095052993438 56 36 14
0.3393573238717021 -0.16889099939049945 -1.853727955782241 57 37 14
0.33747423518724223 -0.16880022415794926 -1.860619642312392 57 37 14
0.3363805469110826 -0.16882189950691825 -1.8669717175579144 55 35 12
0.3357865409007594 -0.16891480133512538 -1.8729836906357726 50 34 11
0.3365133027342341 -0.1691951606294096 -1.8780711382060957 49 33 10
0.33541491133230544 -0.16921721169809567 -1.884459450438676 49 33 10
0.3448897333585615 -0.1707362462035096 -1.8833304020314756 51 34 11
0.34468720030598043 -0.1708851318086405 -1.8890816664478918 52 34 12
0.34532826640563136 -0.17115359170528657 -1.8942374200231 53 34 12
0.3497560219488546 -0.17195743828334992 -1.8966774498886751 54 33 12
0.3484338461880372 -0.1719486215593642 -1.9032506434069574 54 33 12
0.35069639247970996 -0.17244642588185236 -1.9072463221623843 57 36 15
0.35178637375900623 -0.17277868418416242 -1.9120904783744246 61 39 16
0.3445271250884924 -0.1719332171612198 -1.9230091227312673 62 40 18
0.34673741701602534 -0.17242422652025446 -1.9270610067386644 63 41 20
0.3460783258733982 -0.17251079677183123 -1.9332103086257324 63 41 20
0.34640228182852195 -0.17273619326116457 -1.9386494346677456 63 41 19
0.35001646394589697 -0.1734250612347977 -1.9416745088172154 64 42 19
0.350980762993616 -0.17374077670942759 -1.9466475474106302 63 41 17
0.351236147943303 -0.17395690277202835 -1.9521492591364396 65 43 20
0.3519932773472994 -0.17424379496440273 -1.9572856446970992 58 37 16
0.35519676952934237 -0.17487461484184327 -1.960605821406405 49 31 11
0.3581400923109216 -0.1754687123425211 -1.9641145451942772 46 28 8
0.3606850410186851 -0.1760067389466094 -1.9679169885903185 50 30 11
0.36322885227295043 -0.17654451577532387 -1.9717174385985092 56 35 14
0.36314367069652764 -0.17671349286637175 -1.9774950558645286 55 34 13
0.3648074603371687 -0.17712791134469674 -1.9819602624168704 60 39 18
0.36559431308273427 -0.17741949497826398 -1.987090772262277 64 44 23
0.3681201547706962 -0.17795475914320405 -1.9909049935216732 53 36 16
0.36901344566578964 -0.178261427557395 -1.995960301069961 50 33 15
0.37319615863560823 -0.1790284258217742 -1.9985065125700845 48 32 14
0.3727609681878675 -0.17914938165394767 -2.0045814200319976 49 32 13
0.37315652401440025 -0.17938676821188587 -2.0100281492932552 56 39 19
0.37232270153136815 -0.17945263196732147 -2.016429023709293 82 63 34
0.3736256367455563 -0.17981721319627414 -2.02119037505485 111 86 50
0.37618251429509547 -0.1803568657775172 -2.024982349663227 121 96 52
0.3771969059050032 -0.18068127975140683 -2.029970498203265 172 145 98
0.3802012346722083 -0.1812832342989677 -2.033411205121204 106 83 45
0.38295653334883506 -0.1818503331954232 -2.0370416844469785 81 57 28
0.38362109625997326 -0.18212613718345497 -2.0423075978542133 73 48 21
0.38823205597254307 -0.18295144521658702 -2.0444759894826907 72 47 20
0.3890285392026433 -0.18324567212782128 -2.0496400665776977 67 42 16
0.39221400128225936 -0.18387225702015658 -2.0529199383224497 68 44 18
0.3934111200599329 -0.18422230858354494 -2.057770800413403 64 41 15
0.3981443992680706 -0.18506368174447224 -2.0598126501395075 57 34 10
0.3984334492531093 -0.1852876013297268 -2.06538602192898 61 39 14
0.4026632248538802 -0.18605861024102782 -2.067815005036473 81 59 27
0.40219648397994606 -0.18617787824314808 -2.0740001086277013 114 91 54
0.40415073898339554 -0.1866331030025003 -2.078248739352147 104 82 44
0.4040839007997226 -0.1868082826847233 -2.084127173957213 124 102 66
0.4033838733296138 -0.18689605639661355 -2.0905266157549813 117 94 62
0.40105390168649757 -0.1867585970120202 -2.09825982682003 83 60 29
0.39953255727811493 -0.18673361262992844 -2.105354562847848 78 54 23
0.4031717804146827 -0.18742266990569678 -2.108255850484697 73 49 19
0.4085218133801356 -0.18834790584985936 -2.109749971430975 75 52 22
0.41564207915720625 -0.1895171568043985 -2.109776458215545 82 59 27
0.4211837911192421 -0.1904677286635872 -2.1110773769127937 80 57 26
0.41535630593725753 -0.18984904899775862 -2.1217383228271127 78 55 24
0.417910552670982 -0.19038739400399282 -2.1255026380655138 82 59 28
0.4335945013672247 -0.1927353738504035 -2.1183750163140713 90 69 36
0.4312680936057599 -0.19260020335571532 -2.1261620408882815 81 61 27
0.4289802636595309 -0.19247095917512186 -2.133936301733382 75 55 23
0.43375582909163996 -0.19331436214243247 -2.135823120983118 71 50 19
0.4332069676392129 -0.19342500627601433 -2.14216144316659 72 51 20
0.43468776884209165 -0.19381502512330012 -2.146804384107447 70 49 18
0.43652366043743945 -0.19425389271759655 -2.15114983360341 70 49 18
0.43955616055632213 -0.19485709067215065 -2.154483820401511 72 51 20
0.4433962806922729 -0.19557096649781366 -2.157127799267335 73 52 21
0.4448624482987685 -0.1959589069354143 -2.1617809376911254 71 50 19
0.4460139746376045 -0.19630377230705548 -2.1667042864908526 73 52 21
0.44974007463673615 -0.19700153584808217 -2.16943031013189 76 55 23
0.45687376971583993 -0.19816571181120723 -2.169226939883497 78 56 26
0.4569191574891402 -0.1983588640814497 -2.1750913746096736 84 61 27
0.4576362499333187 -0.198644182837382 -2.180385546680591 86 63 26
0.4596354562388193 -0.1991049809393578 -2.1845772391208005 87 65 28
0.46094841270294235 -0.19947198201685407 -2.189363076974939 85 63 26
0.46746064896801715 -0.20054919868392423 -2.1896340313897458 90 68 31
0.4682561463743381 -0.2008453466413613 -2.194863882638617 83 61 24
0.4716415879035812 -0.2014950112374045 -2.1978362886643557 87 65 28
0.4747698510781563 -0.20210938314623797 -2.2010268907052404 91 67 29
0.4763568542642626 -0.20251352134227996 -2.205565365397554 94 71 30
0.4779441211068397 -0.20291774030418558 -2.210105024340544 101 78 37
0.47953183809056926 -0.20332206546062054 -2.214645704178324 99 76 35
0.4845701794096579 -0.20419591785390218 -2.2161323731432745 102 79 38
0.4888927696360092 -0.20497196540784796 -2.2182395008753906 100 77 36
0.49433759387327214 -0.20590016281848422 -2.219335927276439 100 77 36
0.49456776607839 -0.20611951227790398 -2.2250700864831496 100 77 36
0.5005351467747704 -0.20711796448785097 -2.225677189722202 99 77 36
0.503967698645197 -0.2077718737741489 -2.2285395110711557 100 78 39
0.511264967363354 -0.2089496125236725 -2.227916794142843 99 77 38
0.515444796171471 -0.20970402979118705 -2.2300806509418623 103 81 41
0.515099069621886 -0.20984510741582907 -2.23632738397779 101 82 39
0.5122054562166285 -0.20964160631384077 -2.244895872240993 93 77 38
0.5138058540007716 -0.2100468622592196 -2.2494002329367 84 69 39
0.5163130759242263 -0.21057478182522155 -2.253079005088117 83 70 42
0.5208997539693778 -0.211383630529781 -2.2548534501137842 86 74 52
0.5252543865350492 -0.21216072077114756 -2.256827459349462 102 94 80
0.5200225266648577 -0.21164334670387727 -2.2676009998728976 134 131 123
0.5259290541919223 -0.2126297820809802 -2.268143964423147 166 166 165
0.5192474233360993 -0.2121084674989931 -2.286305895019805 196 195 200
0.5286431230775932 -0.213564389790259 -2.2835938171358823 201 200 204
-0.08467683801100784 -0.08438905411730482 -1.2269024620212898 193 193 192
-0.06965458516102652 -0.08680814429357878 -1.226113815734003 155 149 144
-0.05526548300927081 -0.08913096825716414 -1.2255348106823947 109 101 92
-0.04277868293681858 -0.09116761413546685 -1.225680308818964 96 87 76
-0.036598783089307974 -0.09225919307047276 -1.2283433872161245 98 89 75
-0.025894595544361076 -0.09402716696182346 -1.2291523179950636 95 85 69
-0.014287865672894973 -0.09592914694389189 -1.2295626486242734 104 93 78
-0.0033721978408594033 -0.0977267435730829 -1.2302231120010019 100 88 73
0.00384757717895573 -0.09897102581128729 -1.2323744603410165 105 91 74
0.008964857884407373 -0.09990063733070118 -1.235376877122083 100 86 63
0.013917151488490542 -0.10080525471271798 -1.2384367429700505 120 104 80
0.018760467579382045 -0.10169326558752953 -1.2415315385758965 122 109 88
0.015878677197269098 -0.10142822257417376 -1.2478502967765255 132 123 110
-0.03574321176075518 -0.09661489962103129 -1.3590070223987603 98 82 65
-0.022885324781796224 -0.09869244056982664 -1.3585485143644194 88 72 56
-0.009586443328627514 -0.10083406810770307 -1.3578521514856114 90 73 55
-0.011587063284616061 -0.10070871958173627 -1.3640563589803523 100 82 59
0.010119372162485207 -0.10409320497825338 -1.3594775441720426 101 82 56
0.017913809236695666 -0.10541681364265133 -1.3611892508754304 98 78 52
0.026549873251502376 -0.10686423998103955 -1.362493811211472 102 82 55
0.03435791020575946 -0.10818846435693293 -1.3641560174084044 105 86 57
0.04074630578977284 -0.10930218687842712 -1.3664539088938574 102 83 54
0.05157038351403309 -0.11107073871306768 -1.366676174437868 97 77 51
0.057242575174923316 -0.11207740161741876 -1.3692680484709159 102 82 58
0.0603778523311333 -0.11270911022175126 -1.3730335439826438 107 87 61
0.06657226764726065 -0.11379211527577712 -1.375357730482126 112 91 61
0.0743955477339528 -0.11511490173854523 -1.376898510343914 120 97 64
0.07634792043866712 -0.11557131112069345 -1.3811967752702659 115 90 56
0.08502070402027534 -0.11701827839171525 -1.3823019424396692 108 83 51
0.08941746296285757 -0.11783443703153479 -1.3854219960682825 120 96 64
0.09558696302519676 -0.11891139390968344 -1.3876843980842726 130 106 78
0.10263656654557562 -0.12011742280878285 -1.389508452495952 110 91 68
0.10972438041886301 -0.121328472940344 -1.3912954239338418 119 102 79
0.11201819005417768 -0.12183369524312616 -1.3953845643720064 138 118 92
0.12151228874205511 -0.12339764447403273 -1.3959731819896293 127 106 76
0.12621124842559012 -0.12425587666373261 -1.3988731241116121 121 103 72
0.1311223569631556 -0.1251449491005392 -1.401658956556474 120 99 75
0.13707810226918127 -0.12618709117765786 -1.4039203997955425 124 98 72
0.1408378491373548 -0.12690635652369409 -1.407250134093792 140 116 80
0.1441786693480681 -0.1275639215988359 -1.4107803900795501 139 115 83
0.14807582924484664 -0.1283029250091931 -1.4140288448643792 115 91 60
0.1453549087159391 -0.12807125363569039 -1.4205705248420795 141 116 82
0.15078517449070833 -0.12903488502663868 -1.4230488738370104 109 85 51
0.15386245039056984 -0.12965334560054065 -1.4266963142187215 108 88 52
0.15284527686859073 -0.129672005692198 -1.4324039093567902 91 67 34
0.15276911879791727 -0.12982877101242224 -1.4376459216883224 84 60 28
0.16636529131333244 -0.13198654136300134 -1.435950643466291 83 60 28
0.16831143511201724 -0.13243877502311438 -1.440150918588643 87 64 32
0.16991335496656024 -0.13284066772978181 -1.4445270205016358 84 61 29
0.17453686842774419 -0.13368422369221714 -1.4473526198341713 87 64 32
0.17680690530665027 -0.1341836105758696 -1.451380807545028 79 56 24
0.18002290435101564 -0.13482109635296635 -1.4549182711385416 83 60 28
0.18347299297128827 -0.1354925924754523 -1.4583292211981564 83 60 28
0.18792319201797336 -0.1363098332129812 -1.4612133231737967 86 63 30
0.18613344392645176 -0.13621661335221003 -1.467349787030343 75 52 21
0.1886490671686879 -0.13675154949908766 -1.4712411750938958 66 42 17
0.18347521000780342 -0.13616575730386676 -1.4791786021814326 78 57 32
0.19433351661207882 -0.137916343772 -1.4786715354839186 107 86 57
0.19381781411886517 -0.13800959168720606 -1.4841617287496598 68 47 21
0.19777378228981707 -0.13875400942771393 -1.4872814122206282 70 48 25
0.2008761302687475 -0.13937397538926788 -1.4908490707638185 70 48 26
0.2021303273726746 -0.13972500452134184 -1.4954024476436134 70 48 25
0.205847627840958 -0.14043418047511425 -1.4986335700786075 71 49 27
0.20710744735116837 -0.14078602504286136 -1.5031838639873703 57 34 15
0.2080871112489765 -0.14109724971451865 -1.5078881485189537 65 44 25
0.21259645455712667 -0.1419210627560546 -1.5106776690884183 60 42 24
0.2055395370318912 -0.14106593293917843 -1.5197644339258538 49 31 12
0.21365890624240125 -0.1424135111348943 -1.520580379047378 55 35 13
0.21316118670947526 -0.1425107743825743 -1.5261043192004051 59 39 18
0.21447597364072468 -0.1428710445898591 -1.5306385270414946 86 65 37
0.2116981754355674 -0.14263842638445984 -1.5374376851778866 92 69 37
0.21207170290915722 -0.14286276691724092 -1.5425061240657518 69 46 19
0.2111525430487166 -0.1429001592503369 -1.5482999512221982 71 50 23
0.21853523974751593 -0.14413917975858642 -1.5494666732796467 69 48 21
0.22279087579154588 -0.144925224908247 -1.5523651924783766 61 40 13
0.22896855491684426 -0.14598885800546174 -1.5541734618086145 64 42 17
0.2242113110324917 -0.14547169559223777 -1.5621367701248416 78 55 28
0.22753961479917123 -0.14612333668182187 -1.5655465661611718 71 48 18
0.22600959553311362 -0.14607329840134997 -1.571711429853481 89 67 32
0.2288677574051679 -0.14665702350395737 -1.5753873952029025 94 71 40
0.23344406110018734 -0.14748849579234835 -1.578076602717907 73 52 28
0.23512730300396434 -0.1479024388717044 -1.582416045107471 63 42 21
0.23604182138668084 -0.14820559976161363 -1.587198954721815 83 61 36
0.2442635776386451 -0.14956170064799956 -1.5877626964585194 76 55 25
0.25023014598627025 -0.15059222140515005 -1.5896094313139573 89 68 38
0.25059416237242155 -0.15081571857101073 -1.594699697225191 127 107 78
0.2591077719496428 -0.15221205750014088 -1.5950386266435512 119 97 65
0.26590140802598305 -0.153360179275844 -1.5963589868449077 92 74 44
0.2724531478413221 -0.1544729031946755 -1.5978022303662796 114 93 63
0.2793139046922095 -0.1556294411947758 -1.5990449265350155 147 122 85
0.2847514466833041 -0.1565809173163084 -1.6011099064185426 159 134 92
0.291026420015978 -0.1576521744298669 -1.602663805375259 156 126 79
0.29819607886028504 -0.15885126926353513 -1.6036675737387343 163 129 80
0.305145575670271 -0.16001810654827225 -1.6047819397004837 159 126 79
0.3128619988939673 -0.16129426119961812 -1.6054165077007705 159 128 78
0.3197053715428585 -0.1624445406062074 -1.6065529216632735 186 156 111
0.32646465071326586 -0.16358213474631597 -1.6077202961582173 162 133 89
0.3275713089379836 -0.16390967440493276 -1.6122897629671882 153 125 86
0.32995110111515435 -0.1644195304251048 -1.6160889090845119 130 105 71
0.3343094967974687 -0.16521238831651378 -1.6186803567480164 90 68 35
0.33539461160705547 -0.16553683268227598 -1.623262542028579 63 46 18
0.3384923938951625 -0.16614906002800814 -1.626613413852331 53 35 13
0.3385460690591907 -0.16632619760011622 -1.63183202230269 52 34 16
0.3402789248587083 -0.16674336700373715 -1.6360212545912416 62 41 21
0.3394894928544142 -0.16680050113698863 -1.6417726723293666 67 45 24
0.3335044129934223 -0.16611664813718935 -1.6507620992248087 74 52 29
0.3279149333734749 -0.16549022249140874 -1.6595362209771567 100 79 52
0.30598438483920953 -0.16253529501870284 -1.678556658448451 91 72 43
0.29029250511113364 -0.16047237774875867 -1.6937594249727594 89 72 43
0.2754929372991789 -0.15853881995555735 -1.708471187719623 70 51 27
0.27523615864061857 -0.15867770900526107 -1.7140700587795579 75 54 34
0.2768911724589165 -0.1590889101082954 -1.718466877545368 53 36 16
0.2791351287676165 -0.15958390422460156 -1.7224904562613577 72 55 38
0.28455648522436544 -0.16053055894365204 -1.7244876461748864 47 29 16
0.2858888591974733 -0.16089571624217525 -1.7290846121628811 60 43 23
0.2868202365128246 -0.16120398987167872 -1.7339409441582432 64 46 32
0.2851458836741614 -0.16114245958558182 -1.7404775212172674 46 28 14
0.28578317778981194 -0.16140942029682281 -1.7455366011203088 70 53 31
0.2883328178092911 -0.1619477827621416 -1.7493626288720454 89 71 40
0.2875198741320543 -0.1620093435007634 -1.7553697849896963 66 45 18
0.2884715946725816 -0.16232131874416578 -1.7602382399124816 67 46 27
0.30007780808346923 -0.16414250074760117 -1.7581473436356176 60 43 21
0.299805838178671 -0.16428077715516307 -1.7638038351634053 56 42 23
0.29043949824489634 -0.16313242695259247 -1.7754498727931387 43 28 11
0.300131072554473 -0.16468111738765046 -1.7745698206438285 51 34 15
0.30208246904955877 -0.16513451453262531 -1.7787796627678227 65 45 17
0.3079124704862236 -0.16613597769542604 -1.7804146094622144 123 98 60
0.31027212415799954 -0.1666467601834095 -1.7843440189379736 75 56 23
0.3123528371484289 -0.16711809885682694 -1.7884577377940472 82 64 33
0.30920034497447585 -0.16685096387316173 -1.7960767471123458 58 41 15
0.28785283942533546 -0.16401825527781272 -1.8159444650900805 57 40 17
0.3082593382429427 -0.16707489085142235 -1.8077612245897332 61 41 18
0.30263257890433476 -0.16646077148166483 -1.817104694824594 65 43 22
0.29429394664072767 -0.16546571732631082 -1.8283187283638371 65 43 22
0.2917342462861566 -0.1652855544339176 -1.8356436022356657 63 41 20
0.2919243721576131 -0.1658548499706024 -1.85232662456084 62 44 22
0.2933400075768571 -0.16623510786086512 -1.8569716737371098 59 41 19
0.3187107543094982 -0.1699795973224305 -1.8450707790374672 56 38 16
0.32712844507354716 -0.17134123369580365 -1.8448180120065096 55 37 15
0.3297705660248129 -0.17189166745547274 -1.8485517572289583 52 34 12
0.3318289161284867 -0.1723601338554698 -1.8526892380404731 52 34 13
0.3353725467067805 -0.1730367601843955 -1.855787459202408 52 35 14
0.33215465194582755 -0.17276589131030645 -1.8636205680266105 54 36 16
0.3318658503741937 -0.17290587431467322 -1.8694148226365088 53 35 14
0.3313452378511396 -0.173013709264048 -1.8753818103884878 52 34 12
0.33184167147226984 -0.17326414957424607 -1.8806392659582993 51 34 11
0.33344594418267337 -0.17366968208372446 -1.8851162961020576 51 34 11
0.34361763559084235 -0.1752725936205512 -1.8834953844109052 52 34 12
0.34660919708009313 -0.17587140072042562 -1.8869660229706142 52 34 12
0.34640581452305463 -0.17602398428419047 -1.8927200077445046 52 34 12
0.34885818977279726 -0.17654746258029103 -1.8965752740984498 54 33 12
0.3499169930488251 -0.17687648678908074 -1.9014320653764916 55 34 13
0.3438014841200238 -0.17620544742761554 -1.9114762912401915 57 36 15
0.3425957609532242 -0.17621965185903538 -1.9179966177010377 59 37 14
0.34385480644249783 -0.1765775589865466 -1.92273868616424 61 39 17
0.3459878970736186 -0.17705722330226825 -1.9268462797485555 62 40 19
0.34598119621265055 -0.17723913669133423 -1.932517345562214 62 40 19
0.3475933974323212 -0.1776464450222381 -1.9370094248460286 62 40 18
0.3503482857747794 -0.17821261937359206 -1.940662295270525 63 41 16
0.3493009486656079 -0.17825044991214462 -1.9471160664140728 60 39 12
0.3484500913472612 -0.1783159729661512 -1.953437198508297 67 45 22
0.3497670945976755 -0.17868274624955868 -1.9581617524635917 63 43 20
0.3540531482518992 -0.17946145206403397 -1.9606794464757848 52 34 14
0.35592592414658175 -0.17990523399516817 -1.9649877880361022 48 30 10
0.3588764009361872 -0.18049836068912867 -1.968489577167545 51 31 12
0.36159338020432724 -0.1810589982170761 -1.97216203375871 59 38 18
0.3624376628159167 -0.18136027510939412 -1.977240741303028 57 36 15
0.36322332069286983 -0.18165358828260486 -1.9823682921498242 56 35 14
0.36400961130720805 -0.1819471453509907 -1.9875002102819663 65 44 23
0.36523085311494735 -0.18230097879844948 -1.992306674479968 58 39 18
0.36698366709340124 -0.18272834478545014 -1.9967112426043863 55 37 17
0.3712548553919303 -0.1835034679577987 -1.9991928770087282 57 40 20
0.3762432050305022 -0.18437722801203701 -2.001114690519243 59 42 22
0.37741704299668244 -0.18472438232359512 -2.005953221648311 60 42 22
0.3693169138826934 -0.18379306963258313 -2.017939816436903 92 72 44
0.36831256392129247 -0.18384094681070967 -2.024488147738809 112 87 51
0.3706679639072009 -0.18435195590298237 -2.028446029638059 134 108 65
0.37353731506591004 -0.18493364630406092 -2.0320025173941483 164 134 89
0.37833595785042407 -0.18578063038198606 -2.0340512182306694 94 68 34
0.378055198580126 -0.18592873691385428 -2.0400566558630397 76 51 25
0.3813860672364168 -0.18657352675144923 -2.043241205845221 71 45 20
0.3860379536543671 -0.1873995715531564 -2.0453810781200668 65 41 15
0.38708071936982846 -0.18772971378534398 -2.050353388833365 63 40 14
0.3907239398369642 -0.18841681453112435 -2.0532739935490723 63 42 14
0.39216355331115543 -0.18880144229461293 -2.0579335446968803 61 40 12
0.39740454921634155 -0.18970721283931158 -2.059573295031307 57 37 10
0.39768324310008774 -0.1899326474848445 -2.0651538602766872 59 39 12
0.3986480053445652 -0.19025226030749479 -2.070193228588179 83 63 32
0.3999184764276852 -0.19061384697689787 -2.074991705289799 103 79 44
0.4012265202326489 -0.19098066402270195 -2.0797627955420808 112 86 45
0.4025875082347957 -0.1913548048853265 -2.084493858169859 142 117 74
0.40159081748512115 -0.19140687349393454 -2.091133453401782 108 85 49
0.40186342532043157 -0.19163270805552943 -2.09675710192003 83 58 24
0.40016127975928806 -0.19158924215959555 -2.1039936239747923 78 54 22
0.4007638736638397 -0.19186071510677796 -2.109367516733076 72 49 19
0.40089093626009076 -0.19206754256570377 -2.115136105001551 75 52 22
0.40726049478528537 -0.19312530803997432 -2.115794945905047 81 58 26
0.41017521350156183 -0.19371187245803403 -2.119273696736487 81 58 26
0.41343927869964625 -0.1943458417904753 -2.122459804865262 78 55 24
0.416699998318994 -0.19497915432771265 -2.1256424305914345 77 54 23
0.4199568072110769 -0.19561173351758487 -2.1288220515535086 77 56 23
0.4232106557144592 -0.19624370893444823 -2.131997890793263 76 56 22
0.42646078959574113 -0.1968749783431361 -2.1351705835698747 70 50 18
0.42616166974065756 -0.19702422260683233 -2.141303865784846 72 51 20
0.4315871409493847 -0.1979505009535743 -2.142648867029925 71 50 19
0.4315281944997296 -0.19813254135958952 -2.148587329861561 70 49 18
0.4332463478659532 -0.1985557235470944 -2.1530370315717744 69 48 17
0.4342415643047043 -0.19888100695708777 -2.1580985519199913 70 49 18
0.434895898834906 -0.1991602767712401 -2.163453145601944 71 50 19
0.443637088216358 -0.20053392470267864 -2.1619412827760267 68 47 16
0.4457608340612632 -0.20101166832497072 -2.1660364797290663 69 48 17
0.4485188824076111 -0.20157510601404366 -2.169588609233494 74 53 21
0.45633119456330834 -0.2028211389599107 -2.1688061991963012 80 57 26
0.4564691216150727 -0.20303020777382386 -2.174589457711429 87 64 29
0.4571411344831754 -0.20331160428140677 -2.179920807780689 89 67 28
0.45943457862532344 -0.2038118388533438 -2.1838572275812336 89 67 30
