ply
format ascii 1.0
element vertex 677
property float x
property float y
property float z
property uchar diffuse_red
property uchar diffuse_green
property uchar diffuse_blue
end_header
-0.19097923759414728 -0.0469644163745635 -1.4327335401427517 91 76 52
-0.1901770144507825 -0.059898380823098896 -1.4316681177961743 81 65 44
-0.18993470713693217 -0.0657018130850931 -1.434094294917537 78 62 39
-0.1896071880122444 -0.07257909709889998 -1.4359726949059093 92 76 51
-0.18911005218286073 -0.08159697588946202 -1.4367651612329224 95 79 52
-0.18884911245342328 -0.08761077477748141 -1.4390361513329575 93 74 47
-0.1892121725107156 -0.0857229866142033 -1.4452636375063819 103 83 55
-0.18935539875015472 -0.0866208766397506 -1.450100106093307 107 87 57
-0.18966969197419226 -0.08536075905741736 -1.4560330827901926 110 90 60
-0.19002675243556508 -0.08356722731566807 -1.4622490182551793 99 78 49
-0.18959992754535077 -0.09166013509110038 -1.4634371130810937 106 86 57
-0.18948835951530996 -0.09577206606199651 -1.4666401286754527 106 86 57
-0.18901036144603742 -0.1044893913007861 -1.467469598561502 113 93 63
-0.18935237945227187 -0.10288850846294761 -1.473593299414726 94 74 44
-0.1894720681698163 -0.10408582960607715 -1.478282526788673 83 64 34
-0.18945098407509084 -0.1070504219442609 -1.4820570018945607 84 65 35
-0.189201519312417 -0.11287516763171335 -1.4843373696666249 111 92 62
-0.18863197773415516 -0.12269998868731358 -1.4845115013759156 100 81 51
-0.18883246556136696 -0.12287829929007188 -1.489719026126002 97 76 47
-0.18904626162399055 -0.12289368078979584 -1.4950190314837157 103 82 53
-0.1886074639227054 -0.1310600576727441 -1.4960180065429436 95 74 45
-0.18855107014998274 -0.13444508870307265 -1.499529945333252 95 75 48
-0.18862028266148417 -0.13626225774431977 -1.5038711329297423 79 59 32
-0.1891724641856309 -0.13206718661908795 -1.511424553465559 92 72 45
-0.18902429661347098 -0.1365942069980592 -1.5143254416755563 98 78 51
-0.18914558580738394 -0.13776824075534305 -1.5190204404547114 96 76 49
-0.18901596488556377 -0.14205848555809286 -1.5220361385453012 90 70 43
-0.18914818281953383 -0.14309701540529957 -1.5268046104866588 96 76 49
-0.18936597300212932 -0.14307704799641147 -1.5321520020683528 86 65 35
-0.18915108779062773 -0.1484166475783183 -1.5345831375627945 95 74 43
-0.18924866447645883 -0.14988574609084443 -1.539120249693183 101 81 48
-0.19042104097743545 -0.1380768325845363 -1.5509531116328215 105 84 52
-0.18885521637579483 -0.16009188770485178 -1.5441938233523926 99 78 47
-0.18924809260994224 -0.1579154444808466 -1.5507391560093355 99 78 47
-0.18871063661919202 -0.16720816049106219 -1.5509344582653095 100 79 48
-0.18921917124250937 -0.16361303163644353 -1.5582795874406616 102 82 50
-0.1890748381755139 -0.16805620605181087 -1.561153661564699 101 81 48
-0.18926854073889315 -0.16834208583909605 -1.5663495276469768 98 78 45
-0.1888858827669065 -0.17570462687314858 -1.5675697984503016 103 83 50
-0.1893348790626292 -0.1728599866710982 -1.5745324481143552 98 79 46
-0.18979174541208543 -0.1699281075614102 -1.5815629888081357 102 82 48
-0.18921705521639542 -0.17962927801296863 -1.5814308841302172 103 81 47
-0.1889285987692534 -0.18581620613479632 -1.5832734236677901 104 82 44
-0.1896123927349161 -0.18011982914900032 -1.5919007828274352 120 98 60
-0.18898441332992544 -0.19044495711139708 -1.5913571510079376 129 107 70
-0.18872356294380566 -0.19627847757997985 -1.5933691683075224 141 117 79
-0.18847868259002107 -0.2019100646022597 -1.5954828672023027 146 119 81
-0.18804192868139846 -0.20986921018944016 -1.5962320685850888 126 104 71
-0.18757621708337935 -0.21816883639871776 -1.596759698179722 123 101 69
-0.18729197069266118 -0.2242525340102599 -1.5985566110485265 130 106 75
-0.18681335441299687 -0.23268647046984986 -1.5989602605180226 121 99 71
-0.18644589537589276 -0.23976061396871945 -1.6001379129541815 113 93 65
-0.18568985225897264 -0.2515303305132207 -1.598525776508362 129 106 74
-0.18516302538648505 -0.2605081765059306 -1.5985272989327624 136 110 73
-0.18469979306280948 -0.2687038572794463 -1.598965540414211 136 109 73
-0.184238683282483 -0.2768618338934947 -1.59940155463195 127 99 65
-0.18394740085469116 -0.28295921103278376 -1.6010445956873856 149 122 79
-0.1838068472541017 -0.2872320697821005 -1.6037652240939777 141 112 72
-0.18347290003768435 -0.29382873313483515 -1.605078392554944 133 107 70
-0.18320318657024146 -0.29964375314862207 -1.6068448152979586 108 84 49
-0.18316799917068088 -0.3026330788997651 -1.6103069719245053 129 107 70
-0.1834201200050457 -0.3021712283554449 -1.6158616641698007 100 80 47
-0.18354653840696997 -0.30322149425331396 -1.6205039727703312 75 55 26
-0.1835541584750543 -0.30569678732051875 -1.6242781601884828 73 49 26
-0.18353293042636162 -0.3085162761872995 -1.627838863065798 70 48 25
-0.18383257941355513 -0.30749677764297784 -1.633758932196268 76 56 31
-0.18368646826661142 -0.31180837801783046 -1.6363984951852752 107 88 62
-0.18555240343232232 -0.29210076371948857 -1.6539091494501046 115 96 68
-0.187723965438661 -0.2687906860675663 -1.6737453712469992 99 83 54
-0.18914123809646458 -0.25451473761057225 -1.6880495683258605 82 66 36
-0.19055221820654245 -0.24034504698391418 -1.7023523699916585 84 64 34
-0.19150989142507147 -0.23159603886481167 -1.7133181521619703 86 67 36
-0.19189493134628757 -0.22966935201252597 -1.7200318738374043 85 66 33
-0.19206899529358165 -0.23025368724985557 -1.7251753327186696 98 79 47
-0.19269761976458122 -0.22545201206340765 -1.733736989147906 104 84 53
-0.192842206378648 -0.2263960270534066 -1.7386738631655507 94 74 42
-0.19306447467506146 -0.2264229238320048 -1.7441996949340706 90 71 39
-0.19313152721848953 -0.22828827860083517 -1.7485573711048215 102 84 54
-0.19314003074660016 -0.23084522850213285 -1.7524716677334842 84 65 36
-0.1929413181069772 -0.23584562257015884 -1.7548106117993472 79 60 30
-0.193062565154866 -0.23706914612692453 -1.759576268504329 80 61 31
-0.19321356288514707 -0.23794382486085403 -1.764570955010356 90 72 42
-0.19341539774443295 -0.23822264367139245 -1.769957343528366 73 56 26
-0.1935306081064234 -0.23952271538298792 -1.7746848790836531 76 59 29
-0.1934110227406057 -0.24358058577932895 -1.7776116602918735 76 59 29
-0.19354774056678248 -0.2446283332878379 -1.782504569642232 91 74 45
-0.19363815499277626 -0.24622041971471836 -1.7870430545469111 86 69 41
-0.19390172347116372 -0.24578636537826537 -1.7929206105006879 83 66 38
-0.19426611524243786 -0.24417795691585598 -1.7995857223283664 81 64 35
-0.19425890020487893 -0.24691794869265676 -1.80337717585338 80 61 31
-0.19420584746565828 -0.2501914349446858 -1.806809990177494 81 62 32
-0.19483656345915862 -0.24548965962843233 -1.8155680073686207 83 64 34
-0.19457673466588432 -0.2511745106001885 -1.817389858587218 87 67 39
-0.1946813454730057 -0.25261106383845855 -1.8220534634934293 85 65 38
-0.19478064598137002 -0.25411040922273775 -1.8266769496652844 82 62 35
-0.19533538866069164 -0.2503210068781075 -1.834881306832287 80 60 32
-0.19530848049827582 -0.25329180316208916 -1.8385209982805883 81 60 31
-0.19539447783662386 -0.25495189929835704 -1.8430489730025634 85 64 35
-0.19501010415281886 -0.26205964235164 -1.843857751627671 83 62 33
-0.19499790766991126 -0.2648516421480677 -1.8476015809193838 82 62 32
-0.1943535362220481 -0.27494842736110897 -1.8463224873302413 81 62 32
-0.19479516546172776 -0.2724900925914348 -1.8536629353957847 80 61 31
-0.19505999109808295 -0.27207986275778234 -1.8596060410095328 81 61 34
-0.19484786037985538 -0.277170525347961 -1.8617445259073482 81 61 34
-0.19494241642539628 -0.27872443033549965 -1.8663299345491793 79 59 33
-0.19459036726929302 -0.28541549104264374 -1.8673330007477156 79 59 32
-0.19461142204585696 -0.287810479836394 -1.8713224935577586 80 60 33
-0.19456042925918354 -0.2910316058606431 -1.8747303025408895 79 59 32
-0.1949003836556269 -0.28976732119373577 -1.881290708093394 79 59 32
-0.1947275442683332 -0.2943837560513525 -1.883712092636582 79 59 32
-0.19540189717959536 -0.2892994757931895 -1.8929931670172189 80 60 33
-0.1957578479267801 -0.2878694015147428 -1.8997082672256127 80 60 33
-0.1960219707868905 -0.2874948791312828 -1.9056857554218034 79 59 32
-0.19552178412590288 -0.2958460758678246 -1.9054370541692183 78 57 30
-0.1955290485149538 -0.2984001797390716 -1.9093166385051095 78 57 30
-0.19546503142384924 -0.30176487730057394 -1.9126109316688218 77 56 29
-0.19568281392590955 -0.30192090687939055 -1.9182131092369936 78 57 30
-0.19591754703701683 -0.301887882997351 -1.9239598345713473 78 57 30
-0.19599081428127946 -0.30369212579407545 -1.9283823894937644 73 53 26
-0.19597636711530503 -0.30649163394906803 -1.9320815366629318 70 50 23
-0.19635950973399346 -0.30478419559426245 -1.9390660581548613 86 65 38
-0.19659094334610158 -0.3048014554631221 -1.9448041813705714 92 71 42
-0.19665250178259633 -0.3067437376864124 -1.9491376798838984 88 68 37
-0.19678629160566366 -0.3078700322382434 -1.9540721042163616 86 65 37
-0.19692102026014613 -0.3089874238340576 -1.9590168061745104 85 64 37
-0.19705412236196368 -0.31012486857212496 -1.9639504074043819 84 63 36
-0.19740655767160697 -0.30879337541931756 -1.9707215456920157 71 50 24
-0.1977334309244269 -0.30775612201614116 -1.9772879445608744 66 44 20
-0.19856736778192613 -0.30102457720002973 -1.9881219982045892 65 43 19
-0.19734083641338032 -0.31745068279676836 -1.9816414371525155 65 43 19
-0.1970027288838324 -0.3238804351735744 -1.982610092831806 67 45 21
-0.1972619385470419 -0.32360645345503897 -1.9886119532167208 68 46 20
-0.19687153297999085 -0.33061073326652307 -1.9891219377890885 72 51 24
-0.196384938529431 -0.33868094068079907 -1.9888016875779662 73 52 25
-0.19685554384933512 -0.3360425555632423 -1.9965965847381417 73 52 25
-0.19656378591444387 -0.3419240517312782 -1.9979151300361115 71 51 24
-0.19626338789575712 -0.34789409592822934 -1.999148672104886 71 50 22
-0.1964223045618106 -0.34873881215580593 -2.0042954355018834 76 56 27
-0.19665811855374082 -0.34872990284037736 -2.0101037791882095 87 71 39
-0.19674409792699454 -0.3503909565832891 -2.0146326977602707 76 59 26
-0.19704839140646058 -0.3496276386898319 -2.0210385614260407 99 79 46
-0.19711016946105228 -0.3515609166097494 -2.025364436400231 88 68 35
-0.1972450944782813 -0.3526833993631326 -2.030321361537978 84 63 32
-0.1975903343422875 -0.3514784691219106 -2.037098232658963 73 52 21
-0.19795318830852132 -0.3500850476147407 -2.0440368448689585 76 55 24
-0.19792479101059848 -0.3530225872155432 -2.0475915952433708 77 56 25
-0.19708306310399973 -0.3649382803497125 -2.04407574693531 79 59 26
-0.1964867293595528 -0.37412729565568814 -2.0426673698679156 81 62 29
-0.19675950861512917 -0.37372509750869315 -2.0488184526368722 82 62 29
-0.19691040805096735 -0.37466929652437725 -2.0539114301570747 81 61 28
-0.19716840079239648 -0.37443787395234335 -2.059944907436727 80 60 28
-0.19560375848658346 -0.3942337878412685 -2.049999824809798 81 60 30
-0.19644709455751688 -0.38756712280035865 -2.06115989987393 81 61 33
-0.19712586811153562 -0.3827220329396313 -2.070896628266296 72 56 27
-0.19760803476291675 -0.38004401239727614 -2.078919504038969 88 68 34
-0.19809194759614285 -0.37735626179858217 -2.086971389246709 99 75 39
-0.19809691085242379 -0.37991303001199606 -2.0907980283026593 84 61 27
-0.1979339565908052 -0.3843021737223568 -2.093134146844588 82 59 25
-0.19766908850366735 -0.38979814459375867 -2.0945579591984163 82 59 25
-0.19835060435036694 -0.38497396542065115 -2.104392677562623 84 61 27
-0.19815034234743115 -0.3897628033124734 -2.1063868824441827 85 62 28
-0.19803441002864233 -0.3936288376005218 -2.109125919440061 86 63 29
-0.19791393019030612 -0.397540441740516 -2.1118187167035516 86 63 29
-0.1977447601170219 -0.40197655916670216 -2.11406944627728 86 63 29
-0.1977678873542724 -0.4043227452995551 -2.118039396543469 85 62 28
-0.19787749861274107 -0.40573143592428396 -2.122786075511054 85 62 28
-0.19812476546579666 -0.4056517955616746 -2.128774670361043 86 63 29
-0.19811536730894405 -0.4083506677136699 -2.132452659850357 86 63 29
-0.1981976878503986 -0.4100576553049545 -2.136957803975199 88 65 31
-0.198435577542322 -0.41008700681369054 -2.142872818281959 89 66 32
-0.19745409057433705 -0.423260687284507 -2.137729418085037 90 68 31
-0.19783228727760035 -0.4217741020054297 -2.144911806654888 90 68 31
-0.19747458974689996 -0.4282086291005164 -2.1454037853528947 90 68 31
-0.1976279960972355 -0.42914304043240176 -2.150544468095194 90 68 31
-0.19773538295874848 -0.4305734479006756 -2.1552676983718673 91 69 32
-0.1976987158164805 -0.4335494195976647 -2.15867397972126 92 68 31
-0.19753625405211858 -0.4378706584028926 -2.1609238787272513 91 67 29
-0.19745403045831317 -0.4413285580960818 -2.1639037568309325 94 71 33
-0.1975147279970665 -0.44325575124815764 -2.1681941431289764 97 75 36
-0.1972772536663733 -0.44836683169782265 -2.1697365816898633 95 73 34
-0.19730512140071266 -0.45064108970759464 -2.173719348950643 93 71 32
-0.19733297452823859 -0.4529148524576507 -2.1777010381235424 89 67 28
-0.19736081304895106 -0.45518811994799085 -2.181681649208564 97 75 36
-0.197488307184793 -0.45640098172599053 -2.186586073869734 96 74 35
-0.19757906793660987 -0.4580055940685229 -2.1911512550124024 98 76 37
-0.19754659943580488 -0.46091868326329977 -2.194570082071222 99 77 38
-0.19751538928521997 -0.4638164690733635 -2.197997801705656 98 76 37
-0.19732348964987695 -0.4684141220869867 -2.1999214590702962 103 80 39
-0.1973102733105626 -0.4711159235521762 -2.2035094376096063 106 83 43
-0.19719368307376986 -0.4749087316171505 -2.2061261469198454 101 77 39
-0.19725269396529066 -0.47684375657939854 -2.2103862433572443 103 80 39
-0.19685523623477638 -0.48359325788120366 -2.210353029517612 100 77 38
-0.1967407093539393 -0.48735183853819264 -2.212971087420219 89 65 31
-0.19677317518577495 -0.4895595239747347 -2.216970915282681 86 62 28
-0.1967530584165248 -0.492319554551843 -2.2204729107734034 90 68 30
-0.1966083867883235 -0.4963862010166103 -2.2227931324892922 95 74 39
-0.19681328094050138 -0.4967804989356925 -2.2284223423481206 94 74 39
-0.19634970252171569 -0.5041849955713333 -2.22770581240647 93 73 40
-0.19630375492054078 -0.507205085069515 -2.2309469140910827 95 75 42
-0.19613989862793163 -0.5114563232740734 -2.2330609747365457 87 68 36
-0.19588271986680852 -0.5166779698682504 -2.234277176839799 84 66 34
-0.1964262970644972 -0.5135338495421476 -2.2431407575866538 86 70 37
-0.19683767767701676 -0.5117787918413816 -2.250753367315653 86 70 40
-0.19706277116333235 -0.511971982683112 -2.2565898595625185 80 66 43
-0.1975602614735503 -0.5093341071296373 -2.265049171764778 86 74 56
-0.1970360584979488 -0.5173269240494086 -2.2636884065239378 108 101 89
-0.196567445050814 -0.5247299097434415 -2.2628453940310767 140 136 128
-0.19637821917021883 -0.5292231610923381 -2.2646838032203727 170 168 166
-0.1964423780241567 -0.5310851895229698 -2.26896522739305 187 186 189
-0.19647193735919308 -0.5333055650668139 -2.2729116909200062 197 196 201
-0.19635560211515732 -0.5370341658748576 -2.275441674678553 202 201 206
-0.19685038564640148 -0.5344455199935039 -2.2839054894187862 207 206 211
-0.1989149340451573 -0.5156657903265505 -2.3076633377877673 208 208 210
-0.19076364809372842 -0.6022502403181693 -2.2318817275862215 209 209 211
-0.19721521513916696 -0.5382657970491016 -2.2984462133578862 210 210 212
-0.1973577682921858 -0.5393265231552704 -2.3035019750111507 211 211 213
-0.1966264762845481 -0.5493699282294646 -2.299999845613346 212 212 214
-0.2021480062197599 -0.4952007804763047 -2.3578255515215503 212 212 213
-0.18798098479144354 0.13451639443330116 -0.9787604455334071 180 181 183
-0.18789759311853724 0.13060209509125603 -0.9824459686670072 179 180 182
-0.18772672557126777 0.12549561036988516 -0.9857444519412674 180 181 183
-0.18755617474463668 0.12039906233416597 -0.989036133234311 180 181 183
-0.18735095512135258 0.11483509489913885 -0.9921670175528998 180 181 183
-0.18719835988844313 0.10999493077178946 -0.9955211074317534 181 182 184
-0.18704607456829564 0.10516413894925558 -0.9988690535607617 180 182 184
-0.1910530820090712 0.15693503702611655 -1.0207428299239574 179 183 184
-0.1904483912797874 0.14591324769393854 -1.0221259996454464 179 183 184
-0.18984309140352248 0.13489938879777558 -1.023482781164887 179 183 184
-0.18917675011699994 0.12307336637484079 -1.0245406502853245 179 183 184
-0.18863687903059012 0.11297976475739563 -1.026145257747815 178 181 181
-0.18937542499712326 0.12021849709585175 -1.03353890062518 180 181 181
-0.18892742705273788 0.11138189804695009 -1.0355428691885793 181 182 182
-0.1884928338845269 0.10273889115435014 -1.0375902348168353 178 179 177
-0.18815158650562708 0.0953689575049877 -1.040049315272161 162 161 158
-0.18771129414339638 0.08667187784942243 -1.0420370175986386 152 149 146
-0.18739154230406987 0.07961245325494559 -1.0445655864471797 131 127 123
-0.186644782351592 0.06680902767207098 -1.0450945278176922 119 115 108
-0.18594977067154111 0.05472173628506932 -1.045836563919295 99 94 85
-0.18559138173934384 0.04717994230999145 -1.0481296588983235 85 77 67
-0.18551155617136794 0.04339124520081572 -1.0517185687203117 76 67 55
-0.18516973105553478 0.036088612895930294 -1.0540653659381087 78 68 55
-0.18508398394229864 0.03223032101460355 -1.0576118616846193 74 64 49
-0.18496003916698686 0.027863627450151973 -1.0609715665371249 74 64 48
-0.18506737932779826 0.026597843373412366 -1.0654293480198485 80 71 54
-0.1851923707820507 0.025566952464876114 -1.0699735066039617 83 73 56
-0.18510639077010357 0.021714966846343386 -1.0735051341539343 85 76 59
-0.18531253711858905 0.021766930796707773 -1.0784422043642905 75 65 51
-0.18569045508354803 0.024106722542315384 -1.0842169379785638 82 71 58
-0.18590299324902387 0.024234602054034993 -1.0891986320547864 83 72 61
-0.18635658890316947 0.027568612007634885 -1.0953624622311802 73 64 54
-0.18687102603137679 0.03170247951868055 -1.1018383049162788 90 84 75
-0.18743177720724197 0.03644091663352472 -1.1085579384655664 101 96 89
-0.1879165267735158 0.04015794836794001 -1.1149202814749914 123 119 114
-0.18842076209102482 0.04412321888148646 -1.1213941311099842 140 138 137
-0.18904310313889683 0.04964329519963928 -1.1284705680039115 163 163 162
-0.1896699824845534 0.055209888372479365 -1.135589467104231 189 188 188
-0.19033713396842725 0.061295657223694344 -1.1429298767915579 192 192 193
-0.1908665815245061 0.06554640968596287 -1.1496001248291596 191 193 193
-0.19138703682074182 0.06966707494938496 -1.156241583206601 191 192 194
-0.19195726208817737 0.07443337964568952 -1.163150924837269 192 193 195
-0.19243483495498262 0.0779659225375186 -1.1696080332843086 192 194 196
-0.19303594605407567 0.08311559126994256 -1.176708869199141 194 195 197
-0.19365029257260907 0.08842642433878489 -1.1838963161115408 194 195 197
-0.19424496303526098 0.09346525316219673 -1.191002317208336 195 196 198
-0.19306736211916414 0.07521159660428439 -1.1890096346390948 196 197 199
-0.19355247396819555 0.07880819629981134 -1.195556572141315 196 197 199
-0.2005825597542913 0.16820934425777984 -1.2360175927449348 196 197 199
-0.19820885142222355 0.1342578962511865 -1.2278516134041406 197 198 200
-0.20231154752826033 0.18512546315825673 -1.253370795852495 198 199 201
-0.20418389038881635 0.20673302673173682 -1.2673622874711548 198 199 201
-0.2093447259956428 0.1948960582498095 -1.4101372044878213 201 202 206
-0.21971851374800055 0.32417811464263424 -1.4736970609542819 201 202 206
-0.21858748670438807 0.3067404909993815 -1.4716458318420427 201 202 206
-0.21467532389112687 0.2539549229392306 -1.4535594489929464 202 202 206
-0.2113595440273747 0.20884190316767703 -1.4387764861125185 202 202 206
-0.20846248979951562 0.16912470019690462 -1.4262999593037045 201 200 199
-0.2052969145752438 0.12607094224916737 -1.412163828676945 141 136 130
-0.20391627026822945 0.10571344048390441 -1.4083044940393843 99 89 77
-0.2033738182776667 0.09600236981343657 -1.4092879919147885 95 83 66
-0.2026928951159612 0.08455386579351654 -1.4094402369182046 91 77 58
-0.20204551215872008 0.0735466353585923 -1.4097639975072105 93 79 60
-0.2016288902556613 0.06546961260927364 -1.4114222547549156 93 79 60
-0.20137689732715885 0.0594804602889446 -1.414036347165481 86 72 52
-0.20100102550955004 0.05193742106233845 -1.415906123580086 94 80 61
-0.2005273137932143 0.043172694634805664 -1.41717989667851 94 81 62
-0.20012246140569806 0.035286659039495905 -1.4188455882144348 94 81 62
-0.2000192810944048 0.031202778624869865 -1.4222974291333705 92 79 60
-0.19977452671392726 0.025345124715931644 -1.4248956058780526 91 79 59
-0.19907430672762608 0.013781137767654661 -1.424747165617589 93 83 62
-0.1985097881003734 0.003935577918321553 -1.4253903658069447 83 74 55
-0.19795538679034402 -0.0057687380413476985 -1.4260734294817636 84 75 59
-0.19744042435449696 -0.014965386070061482 -1.4269745379462095 85 75 60
-0.197154069562679 -0.021291612664484094 -1.429245043083736 83 71 55
-0.1966847142338255 -0.029894710711263706 -1.430388835978487 92 78 59
-0.19650666825772242 -0.034851637771348254 -1.4332944623716402 100 85 64
-0.1963416742588491 -0.0396403854804136 -1.4362719997063664 98 83 62
-0.19581748296606682 -0.04889627710164257 -1.4370351605160168 95 80 60
-0.19579053875071223 -0.051953184091009574 -1.4408418668260718 85 70 48
-0.19590421637692662 -0.05326049113877551 -1.4455143658791962 95 80 56
-0.19572534572312225 -0.05820138475282821 -1.448376535651542 97 81 57
-0.19508542873372411 -0.06885580743755199 -1.4483668837270411 97 81 56
-0.1952583541790512 -0.06942055163259853 -1.4533962703191783 106 88 63
-0.19444442428742284 -0.08220649277897613 -1.4522663011202854 101 83 56
-0.19430673422136102 -0.08660732407398875 -1.4553415859826568 102 83 56
-0.1941640816588769 -0.0910649407982626 -1.4583790814786664 107 88 61
-0.1942597230835164 -0.0925758004782789 -1.462910098304844 108 89 62
-0.1939129032127735 -0.09954526715038886 -1.4646491421571892 105 87 59
-0.19393302626859413 -0.10198338292872827 -1.4686971975630012 95 77 49
-0.19403514967815685 -0.10341104656838301 -1.4732644041759164 81 63 35
-0.19411669479316265 -0.10509284642842337 -1.4777021444963643 90 71 41
-0.19421377889650313 -0.10658423368899406 -1.4822398210467005 98 79 49
-0.1941251458104704 -0.11035660169774081 -1.4855907217704734 107 88 58
-0.19403957392566337 -0.11408803494941733 -1.4889563134651724 101 82 52
-0.19399687759081968 -0.11729075326446586 -1.4925927999574014 101 80 51
-0.1940979620634654 -0.1187309031834225 -1.4971529676513027 97 76 47
-0.1937417855312517 -0.12576482260836142 -1.4987585593744168 96 75 46
-0.19343577767375905 -0.13217616358250894 -1.5006753899573206 85 65 38
-0.19341665545332506 -0.1350768228391011 -1.5044442438877343 89 69 42
-0.19390903929118525 -0.1317371254635078 -1.5115429955833748 96 76 49
-0.1939128626020933 -0.13436053501100553 -1.5154651436948776 94 74 47
-0.1940201854623474 -0.13572274801727713 -1.5200632538693268 95 75 48
-0.19418019811839407 -0.1364452819054473 -1.525008949260807 94 74 47
-0.19407331348512613 -0.1404131058110798 -1.5282013129976186 96 76 49
-0.19421914802641396 -0.14130937265301108 -1.533055818988144 78 58 28
-0.1941253079463811 -0.14511433195356754 -1.5363276706336515 95 74 43
-0.1938169275461243 -0.15151520772470944 -1.5381715322406069 102 82 49
-0.19530563656560682 -0.1361545268635589 -1.5519521557207303 106 86 53
-0.19538571809928007 -0.1378614520905202 -1.556390979165422 95 74 43
-0.19397322302664097 -0.1576018311605481 -1.550856357309634 105 84 53
-0.1938676970871087 -0.16153302128041436 -1.5540282894470703 104 83 52
-0.1941391334141245 -0.16091473285749475 -1.5597264167557185 101 81 48
-0.1938271635635563 -0.16732988523117148 -1.5615038310925085 97 77 44
-0.1941517019960776 -0.16607555977456412 -1.5675648859191118 101 81 48
-0.19447678863013318 -0.16482073665939162 -1.573638545122556 103 83 50
-0.19545139903512085 -0.1557691652391009 -1.5841265797639017 99 80 47
-0.19514568709201005 -0.16210465691393616 -1.5859398951816288 104 84 50
-0.19495799343494222 -0.16701676824683864 -1.5885455024118884 104 81 47
-0.19460553832498323 -0.17389695285300255 -1.5900171948909878 106 85 49
-0.19461224644198252 -0.1764694707306852 -1.5939352112358525 126 106 67
-0.19379487250930022 -0.1888937135255801 -1.5921935509411622 129 106 68
-0.19354419245454796 -0.19452898042818967 -1.5943230313659522 146 120 85
-0.19330274449645957 -0.2000470633124931 -1.5965059673427737 142 117 80
-0.1929025337332768 -0.20745112996733617 -1.5975810400348764 121 99 64
-0.19237640173016526 -0.2163446066831049 -1.5977680207623672 132 112 79
-0.19184671658023086 -0.2252671094667798 -1.5979109656057155 111 87 57
-0.191323373845094 -0.23410088872570523 -1.5980786382551868 124 101 75
-0.19083932782267332 -0.24245478349388966 -1.598501451922017 104 84 57
-0.19049063127346247 -0.2491904445939228 -1.59985359326117 139 116 84
-0.19002208766354806 -0.2573375776448731 -1.6003515902679946 134 110 74
-0.18947810629538356 -0.26636619222038765 -1.6003017726955013 136 112 76
-0.18922762313776917 -0.27190873398100646 -1.6023006978429355 128 102 70
-0.18873123986340418 -0.2803508692230845 -1.6025523005224083 154 129 90
-0.18836401937148484 -0.2872552557559949 -1.6037002646941563 128 103 67
-0.18826036310476735 -0.29104069912091585 -1.6067049276058865 115 90 55
-0.18818360344255605 -0.2945055265069729 -1.6098956658519492 128 104 70
-0.18810127719975256 -0.29803289910289166 -1.6130423321289689 115 93 60
-0.18825386065628846 -0.29879378935502077 -1.6178633552593382 77 58 27
-0.18823077642931121 -0.30162134362885545 -1.621429158638419 65 45 20
-0.1884014425615308 -0.30217230491126873 -1.6263834871030125 67 44 21
-0.18833427728738522 -0.3055155327651464 -1.6296300458780393 67 47 22
-0.18881459730310238 -0.3024403407288047 -1.6368215150116183 87 66 37
-0.18857453760024376 -0.3078082820154525 -1.6388190602070773 118 96 66
-0.19148353997943474 -0.2763385471842614 -1.6636242858568984 117 96 67
-0.19332513512625366 -0.25740525716014484 -1.68077149443613 86 69 39
-0.19419703574603528 -0.24983171508442803 -1.690919264974147 83 67 35
-0.19606584091088364 -0.23065046202226303 -1.7083662157857786 95 77 45
-0.19663002493340612 -0.2267099135567348 -1.7163339393916288 77 58 30
-0.19701569008186678 -0.22485863781309762 -1.7230101101217838 86 67 39
-0.19753731592681792 -0.2214337088601136 -1.7306955422465187 100 81 51
-0.19774145898714413 -0.22170744982932494 -1.7360593026844071 96 78 46
-0.19794588367543747 -0.22198119718706222 -1.741429920872206 93 75 42
-0.19815396316699796 -0.22221584669138283 -1.7468323459933142 98 79 47
-0.19816075177218523 -0.22478552714315614 -1.7507481780339662 110 90 61
-0.19812079407380176 -0.22789502291705216 -1.754315191413607 92 73 42
-0.19816750198892186 -0.2300003622416803 -1.7585239917123299 89 70 38
-0.1979738366381021 -0.23488176206625228 -1.7609395565472674 92 73 41
-0.19809767666229808 -0.23609388545165344 -1.7657202456605674 76 58 28
-0.19824757539969967 -0.23700708143291088 -1.770698291906353 74 57 29
-0.1983976068004488 -0.23792079946156258 -1.7756803261531562 71 54 26
-0.1986188664790264 -0.23801706340025397 -1.781201267471916 78 61 33
-0.19885942084725766 -0.23789519003508797 -1.7868730059718851 80 63 35
-0.19898324261492092 -0.23911782734204706 -1.7916685974444155 85 68 40
-0.1992002548684989 -0.23927285611758198 -1.7971720271649945 84 67 39
-0.19933688957587245 -0.2403526080361948 -1.802070636359025 78 60 31
-0.19924177994786504 -0.2440874848345167 -1.8052093223790178 75 56 26
-0.19932459595874746 -0.24578374825421007 -1.8096990786966516 86 67 37
-0.1997426566510946 -0.24364959986182272 -1.8167501348308914 83 64 34
-0.19966252726122705 -0.24721090344895735 -1.8199997488708815 82 62 35
-0.19986305895812273 -0.24756815644325414 -1.825397586435122 77 57 30
-0.2004468171373442 -0.24356208396219553 -1.8337456601909876 71 51 24
-0.2003625541234062 -0.24717169716327098 -1.8369652693306682 74 54 27
-0.2003466811568788 -0.25000042295829944 -1.8407081408962453 73 52 25
-0.19995353439144462 -0.2571135975095643 -1.8415303994447012 73 52 25
-0.19975559624907005 -0.2620012134920484 -1.843851134842153 81 60 33
-0.19965637871693978 -0.26576380131813715 -1.8469303753352717 83 62 34
-0.199076532594941 -0.2749672037594765 -1.8462635481349727 82 61 33
-0.20000361938398525 -0.26710342945899074 -1.8573296678433557 81 60 32
-0.20011411947764302 -0.26849066822226975 -1.8620415677240458 82 61 35
-0.19992869583505457 -0.27322130384384524 -1.8644374903222667 81 61 37
-0.1991966513888849 -0.284114190586398 -1.8625356159859916 82 62 37
-0.1992479314913127 -0.28615984835129005 -1.8667684871525194 83 63 38
-0.1991872875589058 -0.2894657463156694 -1.8701191398208523 81 61 35
-0.2000865178431724 -0.281970357673379 -1.8810455675150242 79 59 32
-0.20024224574597452 -0.28284979189526943 -1.886116083917525 79 59 32
-0.2002488780378547 -0.2854054250749936 -1.8900076111941941 79 59 32
-0.20094655796510577 -0.2802084374267164 -1.8993876704519168 80 60 33
-0.20060340428835688 -0.28668910404780595 -1.900502404839899 80 60 33
-0.20096319001727045 -0.2852915389747169 -1.9072115028013474 80 60 33
-0.20012438452696252 -0.29730561503000014 -1.9043499986714336 78 57 30
-0.20050493473695738 -0.29567613077501126 -1.9112255188621587 76 55 28
-0.2004631061877676 -0.29876831547488447 -1.9147217706917736 77 56 29
-0.2006457409590202 -0.29935531405030047 -1.9200197445381 78 57 30
-0.20071051274861165 -0.30125803902198667 -1.9243720695225381 77 56 29
-0.20085370487413765 -0.3022881657041445 -1.929357703381171 73 52 25
-0.2011401583371244 -0.301727370592151 -1.935504924802419 82 62 35
-0.20125610329401833 -0.30306543179034445 -1.9402774484715184 85 65 38
-0.20150856292730265 -0.3028899739422298 -1.9461604777198693 86 65 38
-0.20165307130280988 -0.3039154265242816 -1.9511712967927313 81 59 34
-0.20173599239616216 -0.3056247953886145 -1.9556827373717525 84 63 35
-0.20193262947468768 -0.3060766317841467 -1.961123924052798 82 61 34
-0.2020241098707633 -0.30769371738077256 -1.9657088052496265 75 54 27
-0.20229666601195345 -0.3073121997637936 -1.971779758301786 67 45 20
-0.20245647714051412 -0.3081789903956265 -1.9769311128227398 68 46 22
-0.2021198007917004 -0.31451904801310054 -1.9779981227618268 67 45 21
-0.20239444132857948 -0.31412073106011545 -1.9840952420279838 66 44 20
-0.20216892005833675 -0.319227755206206 -1.98606548297136 69 47 23
-0.20187488665577122 -0.32508130938817503 -1.9874593440828925 72 51 25
-0.20207848122333086 -0.32546527701228817 -1.992970655472055 76 55 28
-0.20135668050279681 -0.33599934250892755 -1.9907941387199959 72 51 24
-0.20181440582774693 -0.3335957914382633 -1.9984165057077918 73 52 25
-0.202398674186033 -0.32981615714898227 -2.007107498872879 71 51 24
-0.2021648334694983 -0.3349917887846094 -2.008975574263334 72 51 23
-0.20206297333785705 -0.3387196458683488 -2.011939860319747 75 54 25
-0.20201030950489407 -0.34190726038139035 -2.0153119186255672 80 61 30
-0.20169833017316569 -0.34791892021703763 -2.016500157464722 87 70 35
-0.2018227873039064 -0.3491702570751762 -2.0213530896161664 97 80 43
-0.20187671211188798 -0.3511902810901596 -2.025612857337613 87 67 34
-0.2020295626950053 -0.3521351745822906 -2.0307089506864897 79 57 26
-0.20273015836588257 -0.3471356542986708 -2.0404481397930416 77 55 24
-0.2028127064545934 -0.34885305147901385 -2.0449622281890845 78 56 25
-0.20284427337244376 -0.35112333246683897 -2.0490435924814427 79 58 26
-0.2021561362973606 -0.3611829349450223 -2.0469931491715134 80 59 26
-0.20186053888431654 -0.3669818692516467 -2.0482692536588463 83 61 29
-0.20164957699857022 -0.3718589046031694 -2.0502578434110457 82 62 29
-0.20247838434692406 -0.36550966032472176 -2.0611447099711433 81 61 28
-0.20200174808786012 -0.37325039867615467 -2.0608527348036523 78 58 25
-0.20062463995387178 -0.3906773756632699 -2.0528019437630776 83 62 33
-0.20139428740335266 -0.3849766597442731 -2.0631968063328623 85 63 38
-0.2021978652402626 -0.37892662552494794 -2.0739068922571344 77 57 25
-0.2031144495983457 -0.37167929587325593 -2.085617395109492 110 87 48
-0.20395138016859113 -0.36530488908617553 -2.0966650686524755 91 67 33
-0.20474588064182583 -0.35940193675899634 -2.107369101182177 83 60 26
-0.20284202594933437 -0.38240063987287565 -2.0946418598493475 81 58 24
-0.20278530705964232 -0.3856034434956267 -2.0979374805169044 83 60 26
-0.2030899208203565 -0.384943499725233 -2.1043815917573445 83 60 26
-0.2029052953896948 -0.3895103493702119 -2.106557859748051 85 62 28
-0.20278894347516555 -0.3933440490894627 -2.10932423492339 86 63 29
-0.201952723672925 -0.4048414366798084 -2.105771439939014 86 63 29
-0.20235635693976564 -0.40312703503918573 -2.1130843302636393 85 62 28
-0.20265234528949078 -0.4025642899475493 -2.1194605679353886 84 61 27
-0.2027788872258953 -0.4038059982532032 -2.124350142874476 84 61 27
-0.2028839180297278 -0.4052773707862194 -2.1290518476815867 86 63 29
-0.20290014750002314 -0.40769082360412007 -2.1329692231930304 87 64 30
-0.20294843835591422 -0.40976395164299284 -2.1371695001298012 88 65 31
-0.20347863572978064 -0.4067401836742353 -2.145648910255792 90 67 33
-0.20343490850969168 -0.40979025775364375 -2.1490375261639416 91 69 32
-0.20222452330821933 -0.425151854446087 -2.142026316643804 91 69 32
-0.20226224586327635 -0.42732628380490933 -2.1461174625112442 91 69 32
-0.20218863859740702 -0.4306729523722324 -2.1492123917203307 90 68 31
-0.20228529072944604 -0.4322252380562433 -2.1538284523356928 91 69 32
-0.2023777722623785 -0.43382219404821265 -2.158408296922324 91 68 30
-0.20236601495875706 -0.43651452822368564 -2.162052170547229 92 68 30
-0.20227036271976404 -0.4400854839278203 -2.16493839957836 95 72 34
-0.20226364226176077 -0.4427211679358364 -2.1686220679701265 98 76 37
-0.20216910037443295 -0.4462749018716079 -2.171510160527714 95 73 34
-0.20229185423128657 -0.4475527795733946 -2.1763604131885206 95 73 34
-0.2021439879587878 -0.4516594690369156 -2.1787589057366885 99 77 38
-0.2021255708397275 -0.45441067990609746 -2.1823267682667336 100 78 39
-0.20178532225123794 -0.460515901979499 -2.182964140896584 97 75 36
-0.20224452146870067 -0.45828558224666915 -2.1908752005020173 98 76 37
-0.20247402644575763 -0.4584538622921796 -2.1967017610229504 98 76 37
-0.2021683389180814 -0.4641890036363694 -2.197639388052868 93 71 32
-0.20210622744323503 -0.4673870927241339 -2.200796994317228 98 75 34
-0.20212875228448782 -0.46970466048083986 -2.2047275005497595 102 78 39
-0.20210037081784343 -0.47254902282275985 -2.208189022845467 99 75 38
-0.20194865575850862 -0.47666835268798585 -2.210512373537469 99 76 35
-0.20203347402692787 -0.47833707969721706 -2.215010626666605 98 76 37
-0.20172707524986466 -0.4840481053661937 -2.215895758376783 87 64 30
-0.20170099526549884 -0.4868583774408566 -2.219363487687861 88 65 30
-0.20163117264496683 -0.49011786678194835 -2.2224232008020772 90 69 32
-0.20158697731272743 -0.4931107181366945 -2.2257169101829954 93 73 38
-0.20156700624030283 -0.4958521818435215 -2.229232757666748 92 72 38
-0.20142018750369853 -0.49989578319592326 -2.231564638896816 93 73 40
-0.20135903189516785 -0.5030555083392625 -2.234689492525518 94 75 42
-0.2011386272992146 -0.507846169955769 -2.2363223886321673 93 74 42
-0.20087223535297993 -0.5131021836613456 -2.237516233884861 96 78 46
-0.20139286143970433 -0.5102954283823264 -2.246079651988613 94 78 46
-0.20152402883602383 -0.5114808518116917 -2.250999551100268 87 70 43
-0.20191150571641725 -0.5100496441406215 -2.2583329171054887 80 67 46
-0.20183766812078877 -0.5133328384851562 -2.261329597208729 93 83 67
-0.20184485765291468 -0.5157872889039674 -2.265086986878782 116 111 100
-0.20132503944372393 -0.5236073978815214 -2.2638607950856096 150 147 140
-0.20077671231197264 -0.5317053835988523 -2.2623469378148915 175 174 173
-0.2011656180307502 -0.5302661623756508 -2.2697033525536074 190 190 194
-0.2002613858454918 -0.5419616307916088 -2.2647858039803617 199 198 203
-0.20226745899426954 -0.5241225499610012 -2.2875297969400394 204 203 208
-0.20322579136338398 -0.5169388758557923 -2.300348410490296 207 206 211
-0.19562935164406833 -0.5963512738616747 -2.2315354462914083 208 208 210
-0.19480423618294793 -0.60714606718031 -2.227227159444774 209 209 211
-0.2025715368619235 -0.5311444469335436 -2.3051734291763304 210 210 212
-0.2020208684079402 -0.5392234835030703 -2.3035749788100572 211 211 213
-0.20228002619947383 -0.5391280202086661 -2.30973765050817 212 212 214
-0.20687949203880954 -0.49533879615513854 -2.3576685959590926 213 213 214
-0.19320451497835675 0.1327393193256447 -0.9929230042220141 180 181 183
-0.19279237615469844 0.12447258540686723 -0.9952018065142963 180 181 183
-0.192772592517571 0.12145594950195077 -0.999162757679595 180 181 183
-0.19268024063142652 0.11747307456614992 -1.0028055360294839 180 181 183
-0.19256037273992124 0.1131270335827031 -1.006322956888256 181 182 181
-0.1978388690266503 0.18067367805754614 -1.0334887208322407 181 182 182
-0.19708489394891868 0.16783524299938857 -1.0342984305029672 181 182 183
-0.19638821815142102 0.15577781533063367 -1.035332796188529 180 183 184
-0.19578952246976267 0.14503962355016298 -1.036775228287164 180 182 184
-0.1976865696104374 0.16743353569133074 -1.0493049113826567 181 182 185
-0.19711966781988202 0.1571184548955339 -1.0508870682956197 181 182 185
-0.19660078698046285 0.147454287464293 -1.0526628361980905 180 183 185
-0.1962400650962941 0.13989683849142348 -1.0551307999964181 180 183 184
-0.19642719243147957 0.13959287052874164 -1.0600611785102065 180 183 183
-0.19561036513828323 0.1260237003986523 -1.0604392773873466 182 184 184
-0.1948600891460218 0.11335361086247359 -1.0610901195815412 181 183 183
-0.1944998196028575 0.10584538895558465 -1.0634965492701582 178 179 179
-0.1931886124527843 0.08581900127521258 -1.0615226972019576 168 167 168
-0.1923030422004498 0.07142748223563644 -1.061462733120395 149 146 142
-0.19170888368634634 0.06089055586833653 -1.0627179801050313 123 119 113
-0.19111837786440194 0.050417017150842236 -1.063967553665775 103 97 89
-0.19095197893179994 0.0455261139231693 -1.0671711482981985 91 85 76
-0.19057712022677795 0.03790645705120793 -1.0693918556328867 84 78 68
-0.19058680898257513 0.03533595842265602 -1.0734030569629434 84 78 69
-0.19124283105245257 0.04122827774626092 -1.0804583843730164 87 81 72
-0.19157053455311235 0.042812068936596115 -1.0859815890767697 100 93 86
-0.1918514701622557 0.04377832333322246 -1.0912921364509711 114 109 103
-0.19221285751833198 0.04578974367104233 -1.0969937062902269 123 119 114
-0.19276530135919503 0.05028630993458427 -1.103619331807417 145 144 139
-0.19325274321041924 0.05392407553914824 -1.1099501166378898 165 166 162
-0.1939132390809244 0.05980513292083256 -1.1171291914275305 182 182 181
-0.1945702004287079 0.06562605946046507 -1.1243119828808663 190 190 191
-0.1952301628496375 0.07147193857994777 -1.131529994361825 191 191 192
-0.19589746549665177 0.07739902378178704 -1.1388044881565391 190 191 193
-0.19628952744358236 0.07974076373014422 -1.1447553836632425 190 191 194
-0.19701457317806195 0.08639103479467325 -1.152350174223506 191 192 195
-0.19771969692447552 0.09276768892575166 -1.1598699046890433 192 193 195
-0.1980710731535669 0.0945519966603885 -1.1656655054921936 193 193 195
-0.19829333572729185 0.09466034333125689 -1.1708315385859906 194 194 195
-0.19891250174092454 0.09989120731669698 -1.1779762598078256 194 195 197
-0.19955003319371825 0.10534596907345217 -1.1852318423257933 195 196 198
-0.20015888135109447 0.11041742114598069 -1.1923637140710461 195 196 198
-0.2009267513800216 0.11752436685871842 -1.2003131692246094 196 197 199
-0.20073438380414718 0.11225737816467996 -1.2034474742370271 196 197 199
-0.20286150771932296 0.13681899836513495 -1.218302810000362 196 197 199
-0.20599022959636187 0.1741987209741287 -1.2383112720151153 196 197 199
-0.20616441131484373 0.17358797185425817 -1.2433824984056625 197 198 200
-0.20843069410022774 0.1998005167093994 -1.259144888844432 198 199 201
-0.2097357858883322 0.21364804844172236 -1.2700561704675337 198 199 201
-0.21787215037427038 0.23499300240038556 -1.4336195018082507 201 202 206
-0.2274583404003844 0.35164885851311223 -1.491797104135153 201 202 206
-0.2231353306179356 0.29471806954148405 -1.471917325776817 202 202 206
-0.2196434916479952 0.24823832110839028 -1.4565872851718042 201 202 206
-0.21625538275783415 0.20313061487184503 -1.4417254436752232 201 202 205
-0.21202463831436286 0.14762808696412144 -1.4219565227686295 196 196 194
-0.21039453901471183 0.12451987022689537 -1.4168729484675606 125 118 111
-0.2091428284607336 0.10614504567749616 -1.4138965367404612 98 88 75
-0.20832593064226318 0.09319001233227953 -1.4133700621241208 96 83 65
-0.2079188879336508 0.08533075966818204 -1.4151718996974976 94 80 60
-0.20765909510572494 0.07930408172850223 -1.4178075932963181 91 76 56
-0.20748128416812772 0.07429812834693994 -1.4209069038921216 91 76 56
-0.20725636936592234 0.06871589063111216 -1.4237248593684315 91 76 56
-0.20652720027363072 0.05691842763986232 -1.4235985074013688 89 76 56
-0.2055273858909174 0.04180270242985018 -1.4218660045833242 89 77 58
-0.2057586901972595 0.04187322780920144 -1.4273042775318667 90 77 58
-0.20581316112092427 0.039764040616925955 -1.4317102364519934 86 73 54
-0.20437659427602778 0.019325767756160794 -1.4273383571820977 95 82 63
-0.20415941860855372 0.013897565278973345 -1.430115281626688 89 77 58
-0.2036796097264721 0.005253107695433634 -1.4313280537887432 89 78 59
-0.20313946715739778 -0.004118702636457305 -1.4321645854933576 89 77 60
-0.20265783558545528 -0.012760274769344715 -1.4333294446533218 84 71 54
-0.20241228760044971 -0.018500818700550647 -1.4358857740669004 82 69 52
-0.20185845258683105 -0.028003169431722763 -1.4365861565815434 86 73 54
-0.2015265203616119 -0.03478142426302333 -1.4385983632487733 99 82 59
-0.20124699373845745 -0.04091135559004644 -1.4409130428848744 104 87 67
-0.2012378132637035 -0.043737900583897815 -1.4448485760894316 94 78 56
-0.20120772492727093 -0.046817548241157136 -1.4486552686624747 92 76 55
-0.2008727728049941 -0.053604783415994506 -1.4506083224314223 93 78 55
-0.20043900323681607 -0.06158440353754813 -1.4519467556105017 96 80 56
-0.20016036825148198 -0.06766870389900581 -1.454215713378576 102 85 60
-0.19986379291398546 -0.07396306823735449 -1.4563636567716585 105 87 60
-0.20012166589915428 -0.07352792466833541 -1.4619024547615755 103 86 58
-0.19953972923348903 -0.08326866768365682 -1.4622800096385684 102 85 57
-0.19879865113400935 -0.09492059967782729 -1.4616543678123541 96 79 51
-0.1992565898019498 -0.09205962581384641 -1.4684202820902126 99 82 55
-0.19906213279065754 -0.09708709604860155 -1.4711523929058472 78 61 33
-0.19889555224829406 -0.10177249971449676 -1.4740495175339208 90 72 44
-0.1989284418418568 -0.10404819777723068 -1.4781831953823414 88 69 40
-0.1992433573019706 -0.10292664223792714 -1.4840795675161322 112 93 63
-0.19945016199778515 -0.10311172345049241 -1.4893066241859583 94 74 45
-0.19945822617137426 -0.10568928189007204 -1.4932892802898399 99 79 50
-0.1993682936189008 -0.10944266479525483 -1.49665263324159 101 81 51
-0.19928032790302505 -0.11316911735761037 -1.500023518691976 99 78 49
-0.1990985437172915 -0.11801694897589038 -1.50279516645481 99 78 49
-0.19873050953650756 -0.1250900003820557 -1.504375785204228 82 62 34
-0.19867601791944373 -0.12840188807812203 -1.5079392167844987 92 71 44
-0.19874013561057438 -0.1302933990747156 -1.5122562879314125 93 73 45
-0.19871849715252987 -0.13320921382981638 -1.516024574398291 95 75 48
-0.1985925173318022 -0.13736819958572732 -1.5191205534665055 87 67 40
-0.1990971525842103 -0.13400590785579491 -1.526268277837717 86 66 39
-0.19912144137175727 -0.13637414317873248 -1.5303319291158772 85 65 37
-0.1991350185449428 -0.13886907037042767 -1.5343251926989208 102 82 51
-0.19903629168176992 -0.14269793787316315 -1.5375888125222161 95 75 44
-0.19893671263709434 -0.14653342154152332 -1.5408417412929867 106 86 54
-0.19960717729391508 -0.1412292540226711 -1.5491077886805276 103 83 50
-0.1998655729661724 -0.14082313145185676 -1.5547017757590533 98 77 46
-0.19873051835354638 -0.15692285832247077 -1.5511756190040589 108 87 56
-0.19861971412871463 -0.16087811253741663 -1.5543356797516763 99 79 47
-0.1994887266803234 -0.15324837829920857 -1.5639398820615809 100 80 47
-0.19908110789183844 -0.16071201204166613 -1.565146291046776 100 81 48
-0.19941558606678003 -0.15941038185856737 -1.5712466380376133 103 83 50
-0.2010729415595219 -0.14252299908740507 -1.5861289254753153 107 87 54
-0.2005755068161453 -0.1510443795717485 -1.5867384452638333 104 85 52
-0.19983909719017867 -0.16236472050899803 -1.5857371638785946 105 85 51
-0.19960472998365952 -0.16776689137184386 -1.5880639152194505 108 86 51
-0.1992307258248025 -0.17480216289637585 -1.5894459529823342 103 82 49
-0.19905505218964617 -0.17950126929240917 -1.5921453561116583 120 100 64
-0.19862246283874158 -0.1872061556008584 -1.59310816218485 138 115 75
-0.19840408971305254 -0.19239199392566814 -1.5955000801988772 147 119 83
-0.1981685399685103 -0.1977726317654091 -1.5977668412664034 132 108 71
-0.19779082900043607 -0.2048081200773036 -1.5990603841026718 146 126 89
-0.19711863693805382 -0.21527211742511831 -1.5983387611780941 135 115 81
-0.19655734472007702 -0.22442639146760424 -1.598348741192196 115 93 62
-0.19601615882943116 -0.23333266804985336 -1.5984758629031237 134 112 83
-0.1954636966821229 -0.24235698337482664 -1.5985063467774197 111 90 61
-0.19526862327192943 -0.24721102108075355 -1.6009687141168203 127 104 71
-0.19484377085815507 -0.25472951555148465 -1.6018428668950957 134 111 78
-0.19437628844748753 -0.262732255894503 -1.6024075446787713 142 119 79
-0.1940122000622534 -0.2695242689227651 -1.6036695296881278 139 115 78
-0.19325776566803027 -0.28082987226999484 -1.6022147154700808 127 103 67
-0.19314880138447674 -0.2846457486282462 -1.6052139517133264 117 93 57
-0.19307307146315342 -0.2880736348372158 -1.6084390593719167 112 88 52
-0.19302325036098042 -0.29119927008320184 -1.6118405723514886 115 91 55
-0.1930066730112364 -0.2939388476690491 -1.6154710228138358 91 69 38
-0.19300576178484533 -0.29649616788783983 -1.6192088784192222 78 59 30
-0.1930701662892935 -0.2982997502850203 -1.6234035517566805 75 55 31
-0.19322157823736824 -0.2991020861552523 -1.6282108882647688 73 51 28
-0.19337177438466047 -0.29992049969721674 -1.6330127315459912 75 55 29
-0.1937804503175145 -0.2977716378563391 -1.6396452544546742 98 78 46
-0.1949288117947792 -0.28714134497122673 -1.651531220533537 133 111 79
-0.1970058188731353 -0.26588741123354065 -1.6700486293161292 125 103 76
-0.19890542293823088 -0.2467099427037473 -1.6873682850692076 98 81 53
-0.1997169381417803 -0.2400247881615516 -1.696983564374249 85 69 39
-0.20126153704465774 -0.22497493593756562 -1.7118657268847115 90 72 42
-0.20185668779772611 -0.2208021697700277 -1.71999063290736 92 73 43
-0.2019135887136013 -0.2227831078429603 -1.7242662658075718 95 75 48
-0.20259101668387192 -0.21769002033624196 -1.7330094742547593 92 73 43
-0.20278397938372283 -0.2181280854902688 -1.7382768110188849 93 75 45
-0.2030072510304277 -0.2182242405329542 -1.7437676727952942 84 66 35
-0.2031329680277445 -0.2194329250651204 -1.7485567692011061 113 93 61
-0.20313208501402022 -0.22208078465628173 -1.752428408783006 101 81 48
-0.20311283920897466 -0.2249356837009096 -1.7561644659645594 89 70 37
-0.20321575423935886 -0.2264042698127801 -1.7607893352913204 88 69 38
-0.20341140545820188 -0.22682373299800607 -1.766093739872591 85 65 36
-0.20353082375016693 -0.22810858488402308 -1.770843900604329 76 57 28
-0.20354944302693792 -0.23053396847061097 -1.7748557302124448 83 66 37
-0.20365345020850545 -0.2319943902207821 -1.7794947640605818 81 63 35
-0.20375010296500742 -0.23353876483029934 -1.784081013614502 82 65 37
-0.20384513062333195 -0.2351022875389942 -1.7886564773841642 82 65 36
-0.20401426202813386 -0.23583233912681967 -1.7937820948854968 86 69 40
-0.20422578934077723 -0.2360879629492425 -1.799226012961394 84 66 38
-0.20424278955318118 -0.23853269921783743 -1.8032275021238522 79 61 33
-0.20416985815399552 -0.2419860658417448 -1.8065571217033605 76 57 27
-0.20494552433922725 -0.23591984138466848 -1.8162234038083032 82 63 33
