ply
format ascii 1.0
element vertex 688
property float x
property float y
property float z
property uchar diffuse_red
property uchar diffuse_green
property uchar diffuse_blue
end_header
-0.22891833381122778 0.479251027116559 -2.2502396321695923 91 71 32
-0.23182670602110617 0.4818785833416857 -2.2531364047898044 92 73 35
-0.23113456015388117 0.48159783564585285 -2.2599793371474473 91 75 45
-0.23440354318100587 0.4845163147299388 -2.2624730317794683 101 90 69
-0.22591792712832998 0.4779440139740525 -2.277936089236699 152 149 137
-0.2554388264414888 0.5020545527305187 -2.2513775046096347 181 181 179
-0.2660135276306217 0.5108660431853638 -2.245685924056226 194 194 194
-0.26785315061494136 0.5126261914472495 -2.2496637589031336 199 199 200
-0.26605515458237095 0.5114513238267161 -2.2576995964486093 204 204 206
-0.2276605685527905 0.48075534397999253 -2.3067116501252958 207 207 207
-0.24131044391518547 0.4920467745383508 -2.297561820834493 208 208 208
-0.2522549550976297 0.5011532350708825 -2.2913831188628326 209 209 209
-0.22502966379013362 0.47948170775530446 -2.3282082981774224 209 209 209
-0.2151723839290467 0.47181910507700947 -2.3455606145572294 210 210 210
-0.766892694954065 0.9441460489065994 -2.3240415764950972 215 215 215
-0.7661453875985217 0.9438095225937714 -2.3306996479152606 214 214 214
-0.765745890637075 0.9437476176313604 -2.33683833997941 214 214 214
-0.06991690129441122 0.2465571799013857 -0.033797399868636974 175 175 175
-0.09945309660682206 0.2719694054412938 -0.036833650537821824 175 175 175
-0.12656324454678328 0.2953037459184661 -0.03982314478055553 175 175 175
0.09603931750602307 0.1438132691469899 -0.8774040068250437 177 177 179
0.10165920581183766 0.1393217838119152 -0.8842146868931446 177 177 179
0.11195067703621886 0.13091536968959303 -0.8927889275109409 176 177 178
0.12031651412856365 0.12412522659274322 -0.9006906280419654 175 175 175
0.1342980644858812 0.11263023650164283 -0.9107400725406052 154 150 141
0.12895655814097223 0.1173314397224186 -0.9135568794787804 119 106 88
0.1252867473900611 0.12063114238781839 -0.9169925404832725 131 111 81
0.11893567780856723 0.1261769127953911 -0.9193964693623065 136 115 81
0.11432132757737837 0.13026682962835187 -0.9224467842632003 101 81 49
0.11064144439371348 0.13357339110059946 -0.9258446338904329 81 60 32
0.11078125769176062 0.13368028922845085 -0.9307136540419717 88 70 39
0.10860367297505005 0.13572823981713159 -0.93468639301979 88 69 41
0.10868038272144714 0.1358883559515724 -0.9395387984286825 73 52 25
0.10588349408229553 0.13845477736592296 -0.943266466288043 77 56 31
0.10913095516994231 0.1359606712947708 -0.9493795665980407 66 49 25
0.10784857903560713 0.13725935968492797 -0.9537106711478088 64 47 26
0.10289785077486796 0.1416285002269563 -0.9565765811388975 62 45 28
0.10324799032102061 0.1415606393569138 -0.9615572605723448 56 39 23
0.10436528903752926 0.1408511476595626 -0.9668548885534396 48 32 15
0.10378273811814709 0.14156443826792017 -0.9714733340655172 57 38 16
0.10427528876869568 0.1413784355833562 -0.976533633647006 90 70 44
0.10331924894317468 0.14240459092597085 -0.9810082823061517 75 58 34
0.099538908810369 0.14579318619247844 -0.9843219478662907 72 54 31
0.10262090665627804 0.14344208489963162 -0.9904659047744175 71 54 30
0.10004047682235082 0.14582702713974008 -0.9942735658238068 59 42 20
0.09937959167356614 0.14660672585400142 -0.9988788106865344 66 49 28
0.10389455694216687 0.14305927621082104 -1.0056609236701226 71 54 31
0.10404472038321572 0.14316176559125843 -1.010625525897461 73 56 33
0.10391162094943901 0.14350133111845564 -1.0154766001253288 70 53 31
0.10359709381733023 0.14399278142118888 -1.0202558057613982 67 50 27
0.10250549690303379 0.14513382722960116 -1.0247069979055294 67 51 28
0.10227967846095223 0.1455515181122255 -1.0295321837705784 66 50 27
0.10270666635629355 0.14542403770717882 -1.0346446559750975 66 49 26
0.10497904980956513 0.14375530245498308 -1.040566473576722 70 53 33
0.10547189772604437 0.14357371274953074 -1.045727095953724 65 50 29
0.10601658893989196 0.14334920048216632 -1.0509185464042916 71 54 27
0.10611505265089882 0.14349771874370065 -1.0559217304011181 102 81 52
0.10527218566143859 0.14443255042434233 -1.0605147346007864 97 76 48
0.1054194345707814 0.1445408510830219 -1.0655506483131014 88 67 38
0.10578443457718636 0.1444676839109097 -1.0706905652653549 90 69 39
0.10698301052761411 0.14369907750382327 -1.076212287650291 94 74 43
0.10594744126598696 0.14479563556758862 -1.0807376181302435 89 68 36
0.10675218061810043 0.14435651099734398 -1.0860985145389856 98 77 49
0.10745070666219789 0.14400645530728834 -1.091420580443432 105 82 55
0.10697402594151345 0.1446373225023897 -1.0962143890206295 68 44 21
0.10659071166178874 0.1451904954881953 -1.1010552601124832 75 51 28
0.10648722697005014 0.14551046812120094 -1.106029827652702 75 53 24
0.10389507971248835 0.14790632476824417 -1.1098565987768456 105 84 53
0.10091292253482004 0.15062720426704107 -1.1134970746978579 74 53 26
0.10257416214249909 0.14947597135411528 -1.1193030738069076 74 54 28
0.10031520847022318 0.15159375518247853 -1.1232804235923075 83 63 36
0.10084279352381925 0.1513884243975976 -1.128569579831832 81 60 34
0.10113867013581179 0.15137662534476048 -1.1337573571491464 72 52 25
0.10172996277199844 0.15111896376362516 -1.139093307075418 81 61 33
0.10232215223244062 0.15086096267761895 -1.1444384527089855 65 46 21
0.10257271400106585 0.15088802915074268 -1.1496282602215324 66 47 22
0.1034568656185556 0.15038756617512417 -1.155131155085228 61 41 16
0.1000237695762547 0.1534840325213278 -1.1585516664501423 52 32 7
0.09953082308517863 0.15413112706972376 -1.1633951379756937 60 39 16
0.10000338905673395 0.15397429385182482 -1.1687148943557477 65 44 20
0.1029176455979664 0.1517845373497112 -1.1752420264055619 67 46 22
0.10300385058956352 0.15195042674407083 -1.1803931512988513 63 45 20
0.10280402045892961 0.15235476728964786 -1.1854093198306928 62 45 20
0.10228807727797296 0.15302251238062936 -1.1902737429139585 54 38 14
0.10081904377332818 0.15448375525005775 -1.19466614377964 60 44 21
0.1010926650092906 0.15449467924183624 -1.1999330538752828 93 78 53
0.0979722139503379 0.15733032980472605 -1.2034971750859431 99 86 60
0.09459787678915471 0.1603768993264319 -1.2069257873668895 83 70 48
0.09256881418366497 0.16230389137686935 -1.2110299877839799 96 82 64
0.08962663484726019 0.16499034914241079 -1.21466580018034 90 75 55
0.08248312465156932 0.17117096126002007 -1.2161419052893419 82 67 44
0.07985331255859046 0.17359663112460516 -1.219916819008078 81 66 44
0.08567834375322822 0.1689914773418431 -1.2280569581063856 79 65 43
0.08032850198689206 0.17367909327683873 -1.230428415123197 95 86 72
0.0662218411045164 0.18564585913121984 -1.2282187919223437 157 153 149
0.05255069615868918 0.1972480512746348 -1.2261822184851627 197 196 197
0.039251167924590824 0.20853890656112806 -1.2242878521581613 195 197 199
0.025693424718011393 0.22004194891120954 -1.2222056232855196 196 198 200
0.02022040460153801 0.22482462480232773 -1.2243550264630711 197 198 200
0.008907459520334782 0.23445850925771822 -1.22337926701996 198 199 202
0.022104051046265893 0.22372945005652872 -1.2354562115744345 198 199 202
0.03558639058403301 0.21276602414405577 -1.2477506262977218 198 199 202
0.24015638871796624 0.04387735775470636 -1.3797293773145238 199 200 204
0.223785559519316 0.05772645046516839 -1.37634011564216 198 200 201
0.20840686971537675 0.0707490135744066 -1.3734310076427054 198 199 201
0.19318341541735554 0.08363990744023986 -1.3705466016439323 186 187 188
0.17681568882822607 0.09747752325440523 -1.366967706378433 119 116 113
0.1633193439434505 0.10892967338542847 -1.3649207239846866 89 80 70
0.15389295710104128 0.11700289426306337 -1.3650941371385263 101 90 74
0.14524617748703555 0.12442780053249514 -1.3656697619029703 102 89 72
0.13511198015292897 0.13308490146052243 -1.365376355563149 96 80 61
0.1245736728001251 0.1420753487708799 -1.3648162546780884 88 72 49
0.11425341645531922 0.15088312200293152 -1.3643397446423715 115 97 72
0.10314415333179944 0.16034322571732035 -1.363374478329578 105 88 62
0.09607184638810301 0.16645476119815145 -1.364675280629914 92 77 51
0.08926329188153032 0.17234652088910635 -1.366102665925432 89 74 49
0.08188757755137038 0.17870722536995703 -1.3671794001723998 81 66 42
0.07721598123127643 0.18282587938553813 -1.3697946144964597 84 69 46
0.07276431986541132 0.18676164133433554 -1.3725233812612792 82 66 45
0.06879995755243712 0.190293077900147 -1.375523076550658 98 81 57
0.06405519743994459 0.19447044754226034 -1.3780548306129057 100 84 56
0.05960982868174486 0.19839916526075219 -1.380747909280187 109 93 63
0.056079701505923785 0.20156930924832328 -1.3839676265658658 99 81 53
0.05243485721032659 0.20483401669868856 -1.3871102264488555 82 64 36
0.04617420878150985 0.21026399305750765 -1.38868810551988 116 97 67
0.041849097800621626 0.21409066554721662 -1.3913993798431994 117 99 67
0.04025204937000482 0.21565865205524337 -1.395731916325041 114 93 59
0.03849689121796562 0.21735747130242683 -1.399968911363358 141 115 80
0.03104646082799939 0.2237691537235626 -1.400767318401606 148 122 89
0.02299619289371374 0.23067588309678527 -1.4011751656215736 148 123 90
0.021993294402682495 0.23175091626843308 -1.405838664294891 136 114 87
0.017349197458326193 0.23583803551496196 -1.4082817812174333 121 100 75
0.011850603880878885 0.24063122713144175 -1.4101869018940434 126 105 76
0.013641774218478064 0.2393950543905422 -1.416556665768525 145 121 84
0.008629568948439026 0.24378512744970154 -1.4187419060776925 155 128 80
0.0049766849275933445 0.24705060133318124 -1.4217531236084942 160 134 86
-0.006458221416161258 0.2567487128933897 -1.4199149492868752 141 117 75
-0.01644399532056834 0.26524690350996144 -1.418935425963174 152 126 83
-0.007926579154431512 0.2584513495270399 -1.4295084748277285 147 117 73
-0.010238401128755736 0.2606065756593628 -1.4333183491935035 120 92 51
-0.024141771073096896 0.27233893717505686 -1.4298089393496642 117 92 50
-0.024418307205211598 0.2728111533365579 -1.4348733953265722 115 88 47
-0.02363025390606338 0.2724042565907284 -1.4406201513766475 124 98 59
-0.022169413026094598 0.27144218502267564 -1.4468066405612996 119 93 57
-0.014513427316477978 0.2653647892627424 -1.4569739572168188 96 73 39
-0.010432852637071222 0.26224156027252976 -1.4648858120900472 94 73 39
-0.012615189527191317 0.2642900978254761 -1.468783771646493 103 81 44
-0.014356316234439948 0.26597427417775305 -1.472964070322075 97 72 33
-0.01605066251764814 0.2676197822685903 -1.477173532090782 94 71 35
-0.019244426185233643 0.27050264997909573 -1.4804042993521518 73 51 18
-0.02145478792611405 0.27257369013800525 -1.4842705484061345 78 55 19
-0.026293181126994192 0.27681280209340553 -1.4864074542074208 129 103 61
-0.029321638694241647 0.2795581072108908 -1.4897214532930596 144 115 68
-0.0333255137921421 0.2831076177422293 -1.4923829737863439 151 122 72
-0.03578648595912903 0.28538412296548116 -1.4960567260170266 158 127 82
-0.038471397416902475 0.28784507195296855 -1.4995766363630019 157 127 82
-0.04325895451569084 0.2920393701506686 -1.5016851963874966 121 95 55
-0.04624921922701947 0.2947512818665972 -1.5049838084416172 92 69 36
-0.04624159226870184 0.2949917782087239 -1.5102934809428776 92 71 39
-0.04364628320966463 0.29309992934182644 -1.5173583752292217 81 61 33
-0.040032176029094146 0.29036943484183564 -1.5251332663736683 78 57 31
-0.04054139344021501 0.2910374423559491 -1.5301270221743646 78 55 27
-0.03611013259407675 0.28763554531383995 -1.5384983631415647 76 53 24
-0.037664189835797335 0.28916518305948374 -1.5427972433631467 79 56 22
-0.04126998140796129 0.2923846306943026 -1.545685204315331 138 110 65
-0.045433516758431214 0.2960629062212249 -1.5481782223074947 151 120 70
-0.047460566082192734 0.2979814298639222 -1.5521374222555981 136 106 66
-0.04875989169949918 0.2993007135694119 -1.5565995039812586 111 85 47
-0.04808387179015727 0.2989940037629881 -1.5624393736369186 79 56 25
-0.05087520835622156 0.3015415887486929 -1.5658642641394962 73 53 24
-0.05227358456808828 0.3029425565865209 -1.5702605098306406 81 59 29
-0.05365032566471872 0.3043257396063182 -1.5746723615870186 112 88 57
-0.05571273240675145 0.3062730527046754 -1.5786001337800062 103 79 48
-0.05895628893553312 0.3091918519710928 -1.581687512167248 64 41 17
-0.061871137574227464 0.3118398941066949 -1.5850002227120263 81 60 36
-0.06395106246619237 0.31380098828427944 -1.5889020436140335 71 54 31
-0.06489053543187012 0.3148241908773332 -1.5936179007777853 76 59 37
-0.07076273864967525 0.31990297236653936 -1.5947907380805393 109 91 68
-0.07525217014520863 0.32384406564689994 -1.596939479162216 95 76 48
-0.07925450195120182 0.3273841150486432 -1.599426017417124 129 107 74
-0.08613817142318686 0.3332915116153288 -1.599808092243053 135 115 77
-0.08858894555967167 0.33555516897587484 -1.6033932324747848 138 116 76
-0.09330187775085513 0.3396771595317958 -1.605319966907296 139 111 71
-0.09960268019319107 0.3451028017293788 -1.606066221586646 149 121 84
-0.10426601965523902 0.3491823965415525 -1.6079937182597162 126 104 72
-0.10896269360659894 0.3532886352688289 -1.6098808725309686 132 110 75
-0.1178153318516501 0.36080672048652096 -1.6086734587082367 140 117 78
-0.11997869933705235 0.3628311160180928 -1.6124013534457722 123 97 58
-0.130503513923872 0.3717192689578247 -1.609890603580422 146 118 79
-0.13700801446905136 0.37730551992134465 -1.6103429399945839 181 153 110
-0.14416230674254427 0.38342387314802645 -1.610282515695883 160 135 96
-0.14683519930330582 0.3858636693163955 -1.6135687882565664 77 55 26
-0.14832447846753302 0.38733209454511314 -1.617743239077281 66 46 21
-0.14520508346536465 0.3850198911676381 -1.625411058682078 79 59 33
-0.14353350627009362 0.38389625457081245 -1.6320003495646065 89 70 40
-0.14229057844960424 0.38312486973721194 -1.6382780148587877 96 76 45
-0.13511375103502954 0.37748843171958846 -1.6491115208238365 96 75 45
-0.12378078348795779 0.3684465253824652 -1.6631799258335485 104 84 55
-0.11423708766011242 0.360874336497654 -1.675933467448534 107 89 57
-0.09968982908200275 0.34920363036374363 -1.6926097433538734 109 93 60
-0.07925894628287544 0.3327149365468508 -1.71392891858162 100 83 54
-0.08136601812612837 0.33469890091849674 -1.7178230754287127 88 71 45
-0.08402423891829436 0.3371342663816061 -1.7212839360537926 76 59 33
-0.08431501043150735 0.3376300280826157 -1.7265926979042363 78 63 33
-0.08456423382406958 0.33809203957466044 -1.7319401090986661 90 74 45
-0.08483716833571153 0.338573758781717 -1.737275067120913 68 52 23
-0.08506879994638078 0.3390219436427403 -1.7426488046297477 79 61 33
-0.08488549856049565 0.3391307201655135 -1.748357979259374 101 82 51
-0.08056849912120045 0.3358561382890053 -1.7573645731503236 113 92 59
-0.07262276101397835 0.32961294899064547 -1.7692969663586684 108 87 48
-0.07832983135492044 0.3345446484310815 -1.7703452315240773 91 70 35
-0.08048685926235977 0.33657062580468206 -1.7742237171876183 90 70 38
-0.08380785584849387 0.3395486958118569 -1.7771609236000985 85 66 34
-0.08682104592051837 0.3422745519732688 -1.7803376531787853 90 71 42
-0.08537510607660237 0.34135306840112306 -1.7871225295513913 99 80 48
-0.07400685998829026 0.3323183255627179 -1.801993711206871 94 75 44
-0.08354501332748887 0.3403803478702116 -1.7998709434772484 102 83 56
-0.08433984539410683 0.3412926941072805 -1.804864027456968 98 82 55
-0.08381472613394952 0.34112629114689524 -1.8109445794544856 74 57 30
-0.08302220806051686 0.3407418344265188 -1.8172557886545768 79 60 31
-0.08213047961684228 0.3402768565400693 -1.8236607699454315 79 58 27
-0.08986152778931633 0.34685754527654833 -1.8229311507316295 86 65 34
-0.09148390691308256 0.34844648910366866 -1.827248308765924 91 70 40
-0.09410110343691275 0.3508479635361452 -1.8307351577687767 88 67 37
-0.09125702741708092 0.34878909739307135 -1.8387850714645348 87 66 35
-0.09240605840626298 0.34999185801143984 -1.843506551437457 92 71 40
-0.09397357276428125 0.3515363670348095 -1.8478775993875294 91 70 39
-0.09522419978047891 0.3528221819213572 -1.8525158816129683 99 78 47
-0.09930302334042646 0.35641640342939784 -1.854760094075445 97 76 45
-0.10117967179927556 0.3582128746637837 -1.8588617947102075 96 75 44
-0.0941885553876387 0.3527736236070735 -1.8705184176811385 98 77 45
-0.09697770847049475 0.3553154346151923 -1.873859353931346 101 80 49
-0.10652833118421345 0.36337229541460114 -1.8713963196754264 104 83 52
-0.10983653148256994 0.36633598486197855 -1.8742597530781218 104 83 52
-0.113132448638195 0.3692892170894588 -1.8771243075262771 96 75 44
-0.11022983896820487 0.3671881114141847 -1.8853427714969062 93 72 41
-0.10882772035051125 0.36631130693829284 -1.8922821080118077 92 71 40
-0.10754379193330443 0.36553154953428363 -1.899133839078072 89 68 38
-0.1065187434666569 0.36496345533318303 -1.9057742178978876 86 65 34
-0.0951474300047998 0.35596534207165786 -1.9214891542008279 79 58 27
-0.10079193774162681 0.3608336228083652 -1.9223248243150879 84 63 32
-0.1081138559939469 0.36706730991496833 -1.9216607034044642 89 68 38
-0.11208561444588366 0.3705709287710689 -1.9239264435891459 83 62 33
-0.10893156429995421 0.3682709954264019 -1.9324953387237436 82 61 32
-0.1199423156307402 0.37750565270657077 -1.9284958658017433 79 58 30
-0.12041659464409266 0.37816012660976217 -1.933841263708569 78 57 30
-0.11867908502817875 0.3770144941796939 -1.9411703069549835 77 56 28
-0.1102472531495764 0.3704214233956979 -1.9545217202063359 81 60 33
-0.11623081185937795 0.37556114613453945 -1.9549565621700864 88 67 39
-0.12115162103214938 0.3798350906980172 -1.9563264937898346 94 73 45
-0.12130115335034103 0.38022681398397573 -1.9619964724285732 92 71 42
-0.12196482101037215 0.3810370546586806 -1.9672070363799758 87 66 37
-0.11929826821420175 0.37913924820331746 -1.9754541001047354 85 64 36
-0.11232745006463335 0.373742638331099 -1.9876539839507017 79 58 30
-0.11196770353054142 0.37372286717527226 -1.9938450191937018 79 58 29
-0.11129940468785865 0.37345275750190154 -2.000329603025408 75 54 26
-0.12224881843409191 0.3826253221134333 -1.996123508797907 74 52 27
-0.12415563366726523 0.3844474131067858 -2.0002211097354428 74 52 28
-0.12721761225240902 0.3872079561569536 -2.003246167361487 72 51 27
-0.1334854514155483 0.3925724118562166 -2.0032834536736264 71 49 27
-0.13787876207446254 0.3964131160632938 -2.005042092432585 73 52 29
-0.12297009977800011 0.38457788071474835 -2.024828343245258 73 52 28
-0.12438743846307676 0.38600314888816767 -2.0293981841543314 79 58 33
-0.11876040588143394 0.3817094682472517 -2.040592013844301 87 67 40
-0.12484045052818721 0.38692051035133473 -2.040785397768273 86 67 36
-0.13177597276076436 0.3928246946385534 -2.0401448139458496 88 69 37
-0.1380058778525834 0.39815491250117907 -2.040143803067081 109 89 57
-0.1463441363796547 0.4051945200847588 -2.038111468155383 89 67 36
-0.1519129690298679 0.40998578901001814 -2.0386835113487543 80 59 29
-0.1555277628223808 0.41319112730567403 -2.041102638039455 75 54 24
-0.11275287063303474 0.3787759032603038 -2.0880189115245718 77 55 24
-0.13553208859601829 0.39752517096986795 -2.072102528449743 79 57 26
-0.13141421540386977 0.39446351433928756 -2.082023813232955 80 58 27
-0.13763742935057677 0.39978549396078233 -2.081968778706735 80 58 27
-0.15025503902185233 0.4102885486182128 -2.0756818393538605 80 57 25
-0.1426802888734151 0.40442661000617475 -2.0889863684597483 78 55 22
-0.14533780100204213 0.4068570320947311 -2.092354005380439 99 76 40
-0.14767720178860366 0.40902947241769627 -2.096026699103986 100 76 39
-0.1453577150873427 0.40742835377709535 -2.1042681827605194 120 94 56
-0.14731938163132152 0.4092950864782328 -2.1083165885778077 127 101 64
-0.14946964661507572 0.41131440630770655 -2.112176347331385 135 110 78
-0.1555531793135141 0.41651767731044986 -2.1121385455210735 90 65 33
-0.157750114045748 0.41857393114000824 -2.1159338990875103 78 57 24
-0.16410056362943548 0.423991336015254 -2.1155900461234545 77 55 21
-0.16005984240202198 0.42099953945809326 -2.1255940721528264 79 56 22
-0.16328691188688632 0.4238889240026889 -2.1283523978877286 82 59 25
-0.16483183795289152 0.4254172075673984 -2.132790099573907 82 59 25
-0.1674806472228596 0.4278382481711739 -2.1361161360545116 82 59 25
-0.1679543495996363 0.42850016164441207 -2.141632050387556 82 59 25
-0.16836343302805312 0.4291101062245394 -2.1472192981287943 80 57 23
-0.16855035423875842 0.42954075737262176 -2.1530384110999545 78 55 21
-0.16973644349305983 0.4307793093848739 -2.1578476883160205 83 60 26
-0.17381264887031106 0.4343534216084701 -2.159707807248276 84 61 27
-0.17788115676934746 0.43792063699529704 -2.161561242902222 84 61 27
-0.18190099088318357 0.4414478554929499 -2.163450103483485 84 61 26
-0.18461647730055325 0.4439208980140475 -2.1666676645640432 84 62 25
-0.18896697984027921 0.4477139915672041 -2.168190198297895 84 62 25
-0.1941650879298309 0.45219070682764134 -2.168818896810105 84 62 25
-0.19509447298060573 0.45322033337642753 -2.173858359641838 85 63 26
-0.19739386875951032 0.45535592968659694 -2.1774748231761243 87 65 28
-0.1968934189452447 0.4552317710079665 -2.184009715346326 88 66 29
-0.18086670809819616 0.4425801624614846 -2.2068099938159773 89 67 30
-0.18939762032965485 0.4497452707016143 -2.2039322157156973 89 67 29
-0.19066907478516837 0.4510528593697438 -2.2086554873922704 91 69 30
-0.195856043615122 0.4555183255179975 -2.2092472485521712 92 70 30
-0.20228872646287743 0.46098728652142273 -2.2084992493012363 92 71 30
-0.20525986501266008 0.4636641630052597 -2.2113965326530773 94 73 33
-0.20661336657014406 0.46503669647761897 -2.2160068678497558 91 67 29
-0.20796325859851106 0.4664063631163996 -2.2206219631701205 87 65 24
-0.20930424198394076 0.4677688943970943 -2.225247522494178 86 67 24
-0.20885903721266819 0.46769238380327954 -2.231790599811426 89 70 27
-0.21283755550342287 0.47117988788044385 -2.2335856384171584 90 71 29
-0.21388193831113078 0.47230355800287516 -2.2385316478329775 89 69 27
-0.20683222815425928 0.46690945053914273 -2.25223620405337 88 68 25
-0.21386333624907378 0.47285457365645217 -2.2507176934644706 89 69 27
-0.2139432287733492 0.47320250502560857 -2.2567271046635278 90 70 30
-0.2252453448564385 0.48258310849539576 -2.2505062891116734 91 72 31
-0.23850750045701757 0.4935383082891868 -2.2420844054044315 92 73 37
-0.23364243014541997 0.4899054388448258 -2.2534691385776955 90 77 47
-0.22874714859558043 0.48625001666498524 -2.2649247140536057 113 105 86
-0.22296222260797727 0.4818808102420024 -2.277398915786929 164 160 152
-0.22385274482477313 0.482881802270462 -2.2825376039179113 186 186 186
-0.26369217057042116 0.5151990728496099 -2.24451181127185 196 196 197
-0.2658786601393053 0.5172368371798111 -2.2481018322720296 200 201 203
-0.23999945279111168 0.49671650320636695 -2.2829607539142693 205 205 207
-0.23915393174226096 0.49632120443149175 -2.290013680793677 207 207 208
-0.24083235359044597 0.49795448576872164 -2.2942531940585624 208 208 208
-0.25542292624205487 0.5099605223189503 -2.283988180520424 209 209 209
-0.21098612102793451 0.47455228619921147 -2.340123753958803 209 209 209
-0.20032107691856382 0.46627754405901395 -2.358398538145588 210 210 210
-0.7736327675629928 0.954524609533538 -2.309507441040735 214 214 214
-0.7731917618652238 0.9544334071068095 -2.315657497050525 214 214 214
-0.7737720773093488 0.9551438180947885 -2.320255157946462 214 214 214
-0.05962607296755508 0.24286960268720217 -0.03386363160195334 176 176 176
-0.0899251548996636 0.2688677404758065 -0.036900740167310236 176 176 176
-0.11944251214114532 0.2941951182528356 -0.03985947212090554 175 175 175
0.0961464755256542 0.14978959822059115 -0.8762134044907957 177 177 179
0.10364369374932209 0.14374659203348536 -0.8837070229033952 177 177 179
0.1109475592034633 0.1378668588314683 -0.8911643461809503 177 177 179
0.11796658746878391 0.13222679769463072 -0.8985501637412727 176 176 178
0.13415339248599517 0.11892797387034482 -0.9094072265214038 174 173 174
0.13536115382843505 0.11814715890923205 -0.9146880971109292 142 135 128
0.1300746059606468 0.12279209634509303 -0.9175185561928101 107 94 74
0.12585577747857662 0.12654445357867775 -0.9207404542366335 109 94 68
0.12098294965729772 0.13084250523297322 -0.9237008394204402 105 88 61
0.11713371626330821 0.13428510347578607 -0.9270415545502367 93 73 46
0.11364365463416642 0.1374273356626281 -0.9305116286135342 97 79 47
0.1145744591244387 0.1368781468603514 -0.9356930532022874 92 74 42
0.11482924513067691 0.13689376138159035 -0.9406197254252274 78 58 29
0.11468639049194612 0.13724161907294305 -0.9453969803661397 79 58 32
0.11408273057599225 0.13797432573009666 -0.949997477642718 60 42 20
0.11286658556169216 0.13921833143516776 -0.9543582197265217 58 41 23
0.11074237744328447 0.1412201017474976 -0.9583575570670277 60 43 25
0.10943836297310316 0.1425374229090709 -0.9626831109379632 72 55 36
0.1107241160351336 0.1416942737781009 -0.9680531356377535 70 53 30
0.10819856230739913 0.1440308436713576 -0.9718902632103928 80 61 36
0.1093065566752319 0.14333663848110365 -0.9772023754054291 73 52 30
0.1073254519879143 0.14521909808274472 -0.9812609270654022 74 56 37
0.10610432175711501 0.14646774364320614 -0.9856298284263023 75 57 36
0.10730777419914139 0.14569490478990993 -0.9910015952275507 72 54 32
0.10651920045371116 0.14658326494397528 -0.9955569501547666 65 48 27
0.1064385917963879 0.14688161458509486 -1.0004104653522627 73 56 35
0.11046755159369018 0.14375501138736835 -1.0069929843907883 67 51 28
0.10763449389767438 0.1463481185174465 -1.0107062455210363 64 48 25
0.11075309000873568 0.1439815633932277 -1.016934132888106 68 52 29
0.11042898356064923 0.1444842983288796 -1.021715899637187 67 51 28
0.10966996187623834 0.14534957579903368 -1.0263163796331447 66 50 27
0.10971918972881395 0.14554172689787032 -1.0312669828697087 66 50 27
0.11032015910907136 0.1452746313275084 -1.036461978401555 66 49 27
0.11092229421303657 0.14500696722559453 -1.0416659845443226 72 55 33
0.1128817384101726 0.14360948000238177 -1.0474700321157655 57 42 22
0.11232205016345209 0.1443100883210766 -1.0521851853783153 73 57 32
0.11176212836383181 0.14501106857874901 -1.0569039887560745 100 81 53
0.11144624692500082 0.14550908673980473 -1.0617344184908126 79 59 33
0.11090738822046278 0.14619291592198697 -1.066470606190371 76 55 29
0.11136671557841518 0.14604623077685003 -1.071656002768485 92 72 43
0.11313835366134323 0.14480794041084094 -1.0774376431687585 83 62 35
0.11336225981770082 0.14485801640558904 -1.0825358083195147 83 63 36
0.1131104610348499 0.1453041710364103 -1.0874258334408966 88 67 40
0.11031040630569056 0.14787023778087843 -1.0911628023622115 102 81 52
0.11167126405209607 0.14697535486265545 -1.0967940118746993 80 58 33
0.11062570410947697 0.14808224503434964 -1.1013333267535288 80 58 34
0.10975850691419048 0.14904090886869248 -1.1059566234458107 84 63 34
0.11031837367520811 0.14881320888539884 -1.1112430027180054 95 71 42
0.10925605123492393 0.14993446684163725 -1.115783674726743 80 57 32
0.10802091030154021 0.15119945701956566 -1.12024537239658 76 55 30
0.10727534209846698 0.1520576025904486 -1.1249377802818858 75 55 29
0.10779026547367787 0.15186840223105014 -1.1302273101222635 76 58 32
0.108276721978181 0.1517032532443821 -1.1355117728027233 62 44 19
0.10846913884859388 0.15178279066797223 -1.1406647243258106 70 52 27
0.10879212968517013 0.15175419251601752 -1.1458871150989804 62 44 21
0.10901857388679215 0.15180614923118185 -1.1510708311801663 64 46 23
0.11063685898797682 0.15070249942276065 -1.1569324533571532 54 36 13
0.11050336841375458 0.15105417829157713 -1.1619594316673467 52 33 10
0.1089685454333249 0.1525696795121278 -1.166310969862249 60 40 17
0.1079718583496112 0.1536384015560624 -1.1709250336208816 62 43 19
0.10685500831460842 0.15480697142212307 -1.1754822601700958 62 43 18
0.1147282883779343 0.14851367375185887 -1.1844686337428696 50 34 10
0.11344159045495802 0.14982426042347097 -1.1889642104585905 60 44 20
0.11366446570864813 0.1498822257108111 -1.1942105741095947 61 45 21
0.11178880001706834 0.15168172190589685 -1.1984173041303419 71 54 30
0.11085607907323441 0.1526988642172395 -1.2030948613303352 86 68 44
0.10788094098047996 0.1554103226842985 -1.2067470812654781 88 71 49
0.10463350556177448 0.15834732516382005 -1.2102553270325247 92 75 56
0.10275159878921153 0.1601515306965967 -1.2144490285184861 112 95 75
0.09966809308582533 0.16295202619163318 -1.218028645075362 87 71 49
0.09160189947849084 0.16988334826579915 -1.219051179141965 88 74 54
0.08921101816191768 0.17210849932267874 -1.2229622699698637 91 79 64
0.08465858645562596 0.17612516687322904 -1.225753789559705 124 116 104
0.06870526152469875 0.18959019886956902 -1.2226229005421558 182 179 173
0.05510856947703474 0.20109934107607347 -1.2206558205568572 196 196 196
0.0416509725707383 0.2124907409136566 -1.2187088002371596 196 197 199
0.029531119791801508 0.22277137271467123 -1.217411719399008 197 198 200
0.016564317942694085 0.2337514077936845 -1.215621895221977 197 198 200
0.013558956931640387 0.23647820739091888 -1.2190532139726105 197 198 200
0.02877806798219179 0.22411160112215756 -1.2321613978467445 198 199 201
0.03832484189557786 0.21644555050199532 -1.2423159780338808 198 199 201
0.25902170340788144 0.03501319059533686 -1.3879920955924807 199 200 204
0.24244157168521416 0.04899759936579212 -1.3845338570804016 199 200 202
0.22752792585355022 0.06160012481067928 -1.3819243598652236 199 200 202
0.20747853936378374 0.07844837023347095 -1.376425680349221 198 199 201
0.19454901558800095 0.08940365138921019 -1.3747850311614809 193 193 193
0.18173678521797143 0.10025955081717286 -1.3731593044920654 140 136 131
0.16904013010042618 0.11101752166530249 -1.371548226167259 99 91 79
0.15683965182025833 0.12136290564985813 -1.3701655977257228 103 91 76
0.14505889825582163 0.131359059047786 -1.3689716502286713 104 91 75
0.1329447486432484 0.1416286493641088 -1.3675440181309222 95 81 61
0.12409924878556056 0.14919444909983276 -1.3679214715572736 99 83 59
0.11426420505151635 0.1575764682273511 -1.367703402122741 102 86 60
0.10479384478183412 0.1656553970292155 -1.367656530180498 98 84 58
0.09692778175244082 0.17240719032616064 -1.3684939537274545 90 76 50
0.09202300786830697 0.17671136378936797 -1.371007434267306 84 70 44
0.08485810779771336 0.18288163562961268 -1.3721997792614116 99 84 60
0.08119543803489726 0.1861583112301876 -1.3753982884142695 105 89 66
0.07350234839763464 0.192762715467177 -1.376240167281036 95 78 53
0.06986418955033868 0.19601780893254267 -1.3794245799955904 95 78 52
0.06617236901711926 0.19931674854093862 -1.3825678950942817 101 84 58
0.06308839997678695 0.20211347219106712 -1.3860594076602282 115 98 70
0.05896687815017232 0.20576619201590673 -1.3889302453022763 86 67 37
0.05224398063331709 0.21156509314957472 -1.3902450912514879 119 97 69
0.0481053812700557 0.21523050369805247 -1.3930761457439693 112 90 60
0.045264503877439966 0.21782470246119778 -1.3966714126734128 121 100 67
0.04248653236097277 0.22036672040806538 -1.400298336804226 125 102 69
0.0365486633311799 0.22551475876770477 -1.4020150802514173 150 124 95
0.028774875893116225 0.2321759158267414 -1.402600983250643 149 124 94
0.02463396528983053 0.2358400893036799 -1.4053641867029414 147 123 94
0.02406859640292841 0.2365557242853264 -1.410294552962105 134 112 82
0.019131060892178364 0.24087585301766956 -1.4125543161849092 119 99 69
0.01742846937300091 0.24252878493851016 -1.4167847574496488 129 106 75
0.016071136405510555 0.24389712223626087 -1.4212269943752096 143 115 79
0.016797963765124435 0.24354803893678545 -1.4269591713226506 146 120 84
0.004783911202873359 0.2536971462565622 -1.4247900987027269 135 111 75
-0.004899413254424889 0.2619238386893941 -1.4240252241382712 148 123 82
-0.014972178819873783 0.27046953525703693 -1.4229789565849367 138 109 68
-0.002817107362636073 0.2607062302155357 -1.4358488252886379 118 90 51
-0.011358747672220892 0.2679897120756836 -1.435739338004731 114 89 52
-0.01260104524040151 0.26926141329816966 -1.4402138102446438 124 98 65
-0.018786836787482053 0.2746030673790838 -1.4415512873401504 129 103 67
-0.018141888297022735 0.2743207930235223 -1.4472187892981583 122 96 61
-0.007884831716686969 0.2661275890586587 -1.4590422781783132 103 80 47
-0.008417319921845579 0.26681627700529764 -1.4639961197404316 92 73 39
-0.009472012756530201 0.26793486644703607 -1.4686180178461437 102 80 44
-0.009191570939102112 0.26795508657009265 -1.474104914267755 99 75 38
-0.01023503435818246 0.26906477211955776 -1.478741152513361 83 59 25
-0.013384145200606934 0.27190647956668834 -1.4820085092919475 70 46 14
-0.017273882628729642 0.27535691193460515 -1.4847841290928114 106 80 41
-0.021360463708477218 0.27896867342471104 -1.4874193779054137 167 137 93
-0.02510661625594801 0.28229996178313255 -1.4902664221945299 151 120 77
-0.028323141234625093 0.28519535414434266 -1.4934525889873176 157 129 83
-0.031775752564885296 0.2882844125325869 -1.496474087079333 155 124 78
-0.035856173023347426 0.2918889942953714 -1.499068683452007 142 113 70
-0.03903234908629355 0.2947499428755981 -1.5022545610421951 96 73 34
-0.0419392211915654 0.29738924335775657 -1.5056127781105448 96 73 39
-0.03805651778314628 0.29445049009846713 -1.5135282694229715 94 71 40
-0.03870107090191788 0.295231632646249 -1.518415060185819 86 66 37
-0.03518316560285806 0.29259437399594773 -1.5261235487916818 76 56 30
-0.03006257313657218 0.288642143259585 -1.5349444470173241 77 56 28
-0.031552739692579934 0.29011926153428874 -1.5392901244547597 75 52 21
-0.033183009212558456 0.2917113952129934 -1.543539906308784 98 73 36
-0.03761196913616416 0.29560077340704344 -1.545867783331706 144 116 68
-0.040427487407901475 0.29816528973419876 -1.5492929981416281 146 116 66
-0.04230016416517224 0.2999557939144232 -1.5533635401990338 132 104 65
-0.0414905130960837 0.29954535349931793 -1.5592927013470192 82 61 26
-0.044873946952591115 0.3025753895890185 -1.5623143575407403 79 57 25
-0.043788416493793725 0.3019392127155394 -1.56844804748132 79 55 24
-0.04594571263885927 0.303963259561604 -1.5723214242804455 89 64 31
-0.04854446639526111 0.3063491683114768 -1.5758810945332002 119 94 61
-0.05090260876005481 0.30853753620384106 -1.579605146543525 90 69 39
-0.05424549907585985 0.3115330194097584 -1.5826277180570172 72 52 28
-0.05789234863370746 0.3147772337141504 -1.585425334116064 73 54 30
-0.06128357304386434 0.3178114432561735 -1.5883946782414358 72 56 33
-0.06329112438580492 0.3197113249634936 -1.5923444519454302 90 75 51
-0.0637659675417262 0.3203552397104265 -1.597391654247821 121 105 78
-0.0671757099303657 0.32340379389918145 -1.6003301960144287 104 86 57
-0.07539046576555392 0.330387849328754 -1.5997874443520848 126 104 72
-0.07950549782418748 0.3340126046731095 -1.6021841326872217 128 109 73
-0.08464290700489119 0.338473977623044 -1.6038242223021264 128 108 71
-0.08796434970110711 0.3414476122808351 -1.6067718004724696 128 103 66
-0.09462154319421939 0.34715170409765905 -1.6072675251589645 139 114 78
-0.09977930201514246 0.35162722194806206 -1.6088395446733215 123 102 69
-0.1062012398811184 0.3571365385752773 -1.6094615010023192 137 113 74
-0.11334615608158588 0.36323633452857207 -1.609524357588651 149 126 85
-0.1204859009171641 0.3693305772199304 -1.6095631017632117 132 107 70
-0.12924443819825338 0.376747818431254 -1.6083685802601175 159 133 91
-0.1350548505822399 0.3817518609642631 -1.6093403601616632 159 132 85
-0.14105930760972613 0.3869135856686833 -1.6101451609822919 151 127 87
-0.14328800745570122 0.38898664569406394 -1.6137666021512658 72 50 22
-0.14237969999492622 0.3884946212911509 -1.6197507418701376 70 50 25
-0.1383105774247908 0.3854191504326111 -1.6281388790630167 82 62 35
-0.13731721487712295 0.3848590701803489 -1.6342186330323287 90 71 41
-0.13233857706525193 0.3810424973582083 -1.6433466572856807 90 70 39
-0.12424305805354702 0.3746804521588287 -1.6548889301797636 93 73 43
-0.11408083963999349 0.36663207752559746 -1.6680634686670128 106 87 59
-0.10265741130705358 0.3575561300452892 -1.6822661346041672 100 82 52
-0.09132558164217852 0.3485580402310487 -1.6964623665018732 89 73 43
-0.07464007612584017 0.3351907065327975 -1.7148679448851423 88 72 43
-0.0760365205643635 0.33659279184311314 -1.7193180854649308 81 64 39
-0.07845565958576989 0.33882987615138127 -1.7229716791828213 73 57 32
-0.0784466898905451 0.33908460185440414 -1.7285189558358949 93 78 51
-0.0783669517144383 0.33928192090812626 -1.73412925199935 83 67 41
-0.07856819555040179 0.33970892009073467 -1.739526341685548 69 53 26
-0.0803908888980539 0.3414592850880379 -1.7436499954647129 87 70 41
-0.07503481187126748 0.33735274384456637 -1.7534567669792231 102 82 52
-0.08021394642854979 0.3418417715983613 -1.7549287795613053 116 95 61
-0.05547680478662104 0.32192976148482255 -1.7802237262091447 104 83 45
-0.06979130958113566 0.3338704561247914 -1.7744306773120446 84 64 29
-0.07279729757701636 0.336587396791981 -1.7776422454958591 95 75 44
-0.07497396454533944 0.33862786787281485 -1.781513400940792 89 70 39
-0.07702809102543501 0.340568289187456 -1.7854800167622622 93 74 44
-0.07656162576996173 0.34045425832108495 -1.7914845693895343 96 77 46
-0.06986733444645443 0.33526568414167385 -1.802557285223505 91 72 41
-0.07751881046077314 0.34176763438509933 -1.8019838072472176 100 81 54
-0.07596380571079564 0.3407680185169285 -1.8089033043410103 89 72 46
-0.07440477217189312 0.33976586111936846 -1.8158417506054982 76 59 33
-0.07552133780562731 0.34094348093621496 -1.820595443651751 79 60 31
-0.07603194652098061 0.3416277714573402 -1.82585103789416 86 66 34
-0.08636017224385029 0.3503054843404092 -1.8229871732414524 94 73 42
-0.08895537308872847 0.3526860169793377 -1.82649727822216 92 71 41
-0.08553378713668286 0.35016907889350685 -1.8350119260295041 91 70 41
-0.0919428526382911 0.3556535402642267 -1.8353406160588221 94 73 42
-0.0915869174173321 0.35563226214676225 -1.8413121118498816 91 70 39
-0.09271426273622058 0.3568181713229402 -1.8460465856955872 90 69 37
-0.09385917316403536 0.3580184602311212 -1.8507681895050934 93 73 41
-0.09547235803030113 0.35959968970499784 -1.8550956538042322 96 75 43
-0.09831842451995293 0.3621834572076308 -1.8583767656314178 97 77 45
-0.08999144769347611 0.35568247633035377 -1.8711573234079748 98 77 46
-0.0917700728793418 0.3573991899284033 -1.8753645388903544 104 83 52
-0.10133888291184528 0.365447847089317 -1.8729015445673534 104 83 52
-0.10365550083686381 0.3676006884965242 -1.8766236240631953 103 82 51
-0.10363981411998724 0.3678581634615968 -1.8823502066486604 98 77 46
-0.10242719299678477 0.3671435675742747 -1.8891187670598115 95 74 43
-0.10304328095314125 0.36791514923198726 -1.8943169545207714 91 70 40
-0.10247130159444523 0.3677220038730125 -1.9005524149312085 89 68 39
-0.10172268812278284 0.3673859351162016 -1.9069527868707814 88 67 36
-0.09692529910272485 0.3637630227740521 -1.9169053394261435 86 65 34
-0.09782763773233694 0.3647688694551553 -1.9218922041209434 89 68 37
-0.10001042229151719 0.36681420754962907 -1.9257558925065328 94 73 42
-0.10311175637459019 0.3696048504719063 -1.9288055657183842 85 64 35
-0.10228717589562619 0.36920941003499014 -1.9353211977924014 81 60 32
-0.11109661038824142 0.37663087293317443 -1.9332977047574371 81 60 33
-0.10991626430438545 0.37594679862957575 -1.9401292898917686 80 59 32
-0.11019225130366217 0.37644459390814755 -1.945674735615161 78 57 30
-0.10954485780442824 0.3761938867356052 -1.9520537465126266 85 64 37
-0.10920763292733149 0.37619521532226025 -1.9581656474008717 91 70 42
-0.11322065027064698 0.37972373134822884 -1.960368055601631 91 70 41
-0.11328714464648876 0.3800526870906777 -1.9661232835707525 89 68 39
-0.11165325132284354 0.37900394331180554 -1.973427323829262 86 65 36
-0.10777324084399925 0.3761359350242232 -1.982789935249514 84 63 34
-0.10310689701187253 0.37263221932274726 -1.992898402332812 79 58 29
-0.10919136535134977 0.3778388896486572 -1.9932099821730938 78 57 28
-0.1089551584015423 0.37792507100555284 -1.9992934096417208 76 55 26
-0.11490648245774426 0.38302239974866165 -1.9996953017284473 75 54 27
-0.11365671841636399 0.3822880323665324 -2.006715938207138 74 53 28
-0.11614066739883966 0.384577001480785 -2.0102972651773903 72 50 26
-0.11822739096131846 0.38654420043993065 -2.0142419407754493 71 49 26
-0.1249560667957963 0.39226795752156957 -2.013863832274799 71 49 27
-0.1149259944391881 0.38442977555196267 -2.029098278789046 74 52 28
-0.11540622422698582 0.3850977854018045 -2.034557724805199 79 57 32
-0.12327650119176847 0.3917439323537652 -2.03308553173969 91 71 42
-0.12116870252620426 0.3903183835809877 -2.0409727325902445 89 69 36
-0.12881299861539658 0.39677980183453115 -2.039671851789498 98 78 46
-0.1353035761081235 0.40230683092792197 -2.039429973404696 103 82 51
-0.14244528567996007 0.4083589408329176 -2.038542493285696 80 59 28
-0.14446342778834448 0.41026840969723816 -2.0425038943054195 77 56 25
-0.12007760473570378 0.3908398753729471 -2.07168249820025 76 55 24
-0.12674259042582214 0.39650717011324765 -2.071259674975779 78 57 26
-0.13479967461089076 0.40329776231605313 -2.069471214518936 79 58 27
-0.13596871301118807 0.40452289648074724 -2.0742828128612665 79 58 27
-0.14520926397301553 0.4122667553046846 -2.07129777919831 79 57 27
-0.14673790095233197 0.4137813851966161 -2.0757424961114763 80 58 26
-0.1442911107642731 0.4120864581438257 -2.0840501369345983 85 61 28
-0.14103977543154078 0.4097431281267234 -2.093163777401871 100 76 41
-0.1399617797944867 0.4091551219300203 -2.1001799660171914 102 79 41
-0.13933877789042692 0.4089349584736267 -2.1067646933246054 126 100 61
-0.13937169082020845 0.4092445669513364 -2.1127167146485357 130 103 69
-0.14084301241217884 0.41071491900123236 -2.117259317872543 119 95 66
-0.14487005528293967 0.41424662273461854 -2.1192760892014078 83 59 28
-0.15082765698817013 0.41933451659639204 -2.1193652534460643 70 48 16
-0.1565300976163697 0.424215500638784 -2.1196832073781966 76 53 20
-0.15715160278013457 0.4249993252605733 -2.1250425069218832 81 58 24
-0.16087579692684306 0.4282842408934339 -2.1273052782630146 82 59 25
-0.1586206386715998 0.4267498418765828 -2.1355496350458316 82 59 25
-0.16295446120968765 0.43052559354654024 -2.13719155590858 82 59 25
-0.1643269604274814 0.43191486945461266 -2.141802869132875 80 57 23
-0.16478476416481175 0.43256740208489086 -2.147339677256191 77 54 20
-0.1649692242684206 0.4330000781152372 -2.1531595800781975 77 54 20
-0.16621205160164032 0.4342853366623634 -2.1579111262895907 80 57 23
-0.16682546981606056 0.43506393697346446 -2.163305867687427 82 59 25
-0.1679945478879708 0.4362900633555521 -2.1681377279578222 83 60 26
-0.17763750704003972 0.444336258854997 -2.1642849781910085 83 60 26
-0.18051128929230642 0.446933187256938 -2.1673443251378597 84 62 25
-0.1826720919422875 0.44895611846395317 -2.1711308546910986 84 62 25
-0.18610433818991284 0.4520016467037811 -2.173599433348003 84 62 25
-0.1888823158898985 0.4545204382843186 -2.176735189962343 84 62 25
-0.19165742920377699 0.4570365829623586 -2.179866661154411 84 62 25
-0.18700542263359526 0.4535808956846517 -2.190731897807842 85 63 26
-0.17067398888968444 0.4407380802859595 -2.2138391918100364 86 64 27
-0.17818993099726305 0.4470671951582881 -2.2120567398900253 88 66 27
-0.18248863676341825 0.4508092963818092 -2.213620752230902 90 68 29
-0.1933878076237514 0.4598538903334226 -2.2082132365801095 89 67 28
-0.19627122964200194 0.46245663146910704 -2.2112215681395577 84 63 24
-0.19930465705299105 0.46517948058549674 -2.2140630243894757 82 62 25
-0.201615835616691 0.4673219066719305 -2.217663031836408 79 56 24
-0.20293545476943392 0.4686679721190714 -2.2223147813026816 74 52 19
-0.20408833656054381 0.4698802366714695 -2.227145766416744 76 55 20
-0.20570242859057697 0.4714627869309895 -2.231484789026617 82 63 24
-0.21180639420716785 0.47664845386221 -2.2310005645948188 87 68 25
-0.2151596167283843 0.4796257472997115 -2.2334521633869233 86 67 23
-0.21593151812627037 0.4805317212950653 -2.2386806960142116 87 68 24
-0.2084699716634444 0.474833934903636 -2.252829464996733 88 69 26
-0.23015917876149694 0.4925161125179394 -2.2353782274561516 89 70 29
-0.2368503343288622 0.4981670650895077 -2.234137769280781 90 71 31
-0.23205681725940702 0.4946096222797638 -2.2454046371691767 91 73 39
-0.22718019798421168 0.49098732308576165 -2.2567995313991336 88 77 49
-0.22172209634155288 0.4869008073151613 -2.268870292252778 130 123 107
-0.21657550176325496 0.4830658341805721 -2.2806393708104897 172 169 163
-0.21878480067010614 0.48512563489896116 -2.284330490113437 190 190 190
-0.2606834079237969 0.5189753441980596 -2.2441020253800614 197 197 198
-0.251209791383135 0.5116731116769164 -2.260628693773564 201 202 204
-0.23437779567845812 0.4984821576357983 -2.2854061245937216 206 206 208
-0.23190906412257817 0.49679490644932556 -2.294271890106476 208 208 210
-0.23600805667237368 0.500365656003222 -2.2958161442451894 208 208 209
-0.24002148333227147 0.5038671981361754 -2.297440881205837 209 209 209
-0.25332461592176003 0.5148009902881236 -2.2886057001363422 209 209 209
-0.7808387593720124 0.9652038279680595 -2.294317309282655 214 214 214
-0.7774899646774602 0.9628450353942304 -2.3048622839619464 214 214 214
-0.7804515433396485 0.9654161393182084 -2.3057917264079504 214 214 214
-0.049558953672598466 0.23940716101946333 -0.0339260279847248 176 176 176
-0.0803367714865319 0.2657462739681022 -0.0369682575703726 176 176 176
-0.10840794687943467 0.2897797558730697 -0.03996481589487924 175 175 175
0.11287147447223742 0.14212920715655755 -0.8858696597927583 177 177 179
0.10757583853389754 0.14677041614145117 -0.8886666848238159 177 177 179
0.11619867570449141 0.13981504852097373 -0.8966323255076522 177 177 179
0.13977394762954276 0.12040577046630874 -0.9102366847878893 176 175 180
0.13613638356119562 0.12366779271462242 -0.9136969362491589 174 173 175
0.13509388106555623 0.1247681285404475 -0.9181305108419869 142 137 130
0.13076266991818888 0.12860719241340782 -0.9213146547975075 104 95 81
0.12805503033147508 0.1310938417014494 -0.925108176283523 108 94 75
0.1237457958309987 0.1349136589691497 -0.9282810080924919 119 101 77
0.12289559694909616 0.13585343556769855 -0.932779006459701 98 79 51
0.12023968239503471 0.13829633019779292 -0.936578038903912 95 76 45
0.11929181729837474 0.1393174475358074 -0.9410390891994579 93 72 41
0.11904669888714003 0.13975386016321872 -0.9457779310605778 85 64 37
0.11880119591580621 0.1401908255923196 -0.9505214643338209 62 45 24
0.11855548403540972 0.14062819799599022 -0.9552697650972648 54 37 21
0.11834523284454973 0.14103630508905868 -0.9600370541681885 68 51 34
0.11709199769657341 0.1423121840878605 -0.9643916493539867 72 55 36
0.1170846437831172 0.14255192622996649 -0.9692485283712952 73 56 32
0.1138475063807377 0.1454777841722505 -0.9728046976239669 82 64 40
0.11399635774432218 0.14558789191672822 -0.9777302448298602 62 44 23
0.11259649469393085 0.14698589538984136 -0.9820294998539394 67 48 30
0.11201564036885162 0.14770307464390814 -0.9866652708052477 79 61 39
0.11301804334017079 0.1471044315941517 -0.9919579224349764 74 56 34
0.11550050559936767 0.14527619875907882 -0.9978743353096065 70 53 32
0.11561510428822463 0.14541642601845972 -1.0028200486187195 73 56 35
0.11572973557034077 0.1455569346152477 -1.0077721912457902 61 45 22
0.1137706532689926 0.14742059572571942 -1.0118581228566388 60 44 21
0.11333971591006903 0.14801472431451607 -1.0165881936973067 67 51 28
0.1135695874039735 0.14806018466297083 -1.0216032554317407 66 50 27
0.11449794945949854 0.1475258776875707 -1.0269234692224984 67 51 28
0.11435027353037769 0.1478855917952402 -1.0317918648928717 64 48 25
0.1158042623428231 0.1469156902875599 -1.037356081925481 68 51 29
0.11627368497292428 0.14676376193749857 -1.0425058694813027 66 49 27
0.11781104019065414 0.14572571501326836 -1.0481283719691583 57 42 21
0.11830193412998899 0.14555683821374032 -1.0533057071553282 77 61 39
0.11799829691680047 0.1460477411190756 -1.0581420883331651 87 69 44
0.11733280312431899 0.14683914877158244 -1.0628235737600118 62 44 21
0.11672709136713655 0.1475811145917103 -1.0675348995262213 69 51 28
