ply
format ascii 1.0
element vertex 670
property float x
property float y
property float z
property uchar diffuse_red
property uchar diffuse_green
property uchar diffuse_blue
end_header
-0.3968787963089999 -0.15655052757670618 -2.0726566366811747 110 97 76
-0.3949353437309526 -0.16436100644161955 -2.07301744806289 111 98 75
-0.39281023301343276 -0.17276657059734613 -2.072905154638371 107 92 69
-0.39112575459931337 -0.17970937809861165 -2.0738679205281723 104 90 65
-0.38981428382470384 -0.18541502028856638 -2.0757448824041282 105 91 65
-0.38881527434973934 -0.1900852711037765 -2.078391246377743 108 91 67
-0.38817235007934764 -0.19357769438786865 -2.081922387512134 110 92 68
-0.3871397972706978 -0.19835403818650033 -2.084467160684131 114 96 70
-0.38652250346792644 -0.20175850910106685 -2.0880500677898213 114 97 71
-0.3862429682952886 -0.2040485687390623 -2.0924827189270383 115 99 74
-0.38522298259724586 -0.20877737956061404 -2.0950363209933185 115 99 74
-0.3826676210716626 -0.21855833701443794 -2.093675656929422 115 98 75
-0.3843879546461938 -0.2142620968288721 -2.1031851866813143 114 96 73
-0.38238508645714864 -0.22221755440694868 -2.1032047917071672 114 96 72
-0.38014524717275106 -0.2309460816254938 -2.102595172733278 111 94 69
-0.3786722189316766 -0.23714847291057384 -2.103929381763367 109 92 66
-0.37703560198617625 -0.2438839129532585 -2.1048268672585975 108 91 63
-0.38201826663439037 -0.22888832406245008 -2.12278602485347 108 91 63
-0.3816529996667059 -0.23145451545919826 -2.126977701571405 109 93 65
-0.38416321589364927 -0.22459163713484542 -2.138622860480366 109 93 64
-0.38563985749437707 -0.22112515550680267 -2.147615857199465 109 92 64
-0.3847641957984996 -0.22536958706991495 -2.150501792579965 110 92 63
-0.3834913095774102 -0.23091233266257494 -2.1523421879494573 111 92 62
-0.38161417799396646 -0.23842884078477022 -2.152587666379258 110 91 61
-0.37889851098101096 -0.24868236603368454 -2.1506121096286472 110 91 59
-0.37444402168500457 -0.26461171979440334 -2.144031802911884 110 91 59
-0.37334965585031843 -0.26954841030148824 -2.146257342630185 111 90 59
-0.37233827129680497 -0.2742111846464479 -2.148691179368542 110 89 58
-0.3712773556897199 -0.2790329713337505 -2.1509838374098083 109 88 57
-0.3698230212651211 -0.28513538231090896 -2.152221255270974 109 88 57
-0.36804559275612736 -0.29228714062504446 -2.152583191883467 110 89 58
-0.3670430187460312 -0.29690846425496464 -2.1549927040256915 112 91 60
-0.36754613004461373 -0.2966227205340327 -2.16141871213781 113 92 61
-0.36777719140429715 -0.29722506631233414 -2.167124538801036 113 92 61
-0.36753852162559003 -0.29935737687466535 -2.171573948780475 118 97 66
-0.36711734768633764 -0.30208315777548167 -2.175531579686826 119 99 66
-0.3634961684909793 -0.3152101044199854 -2.1708488839770803 116 96 63
-0.3614890761600557 -0.32308162118222294 -2.1704903293245494 115 95 62
-0.36140492338179736 -0.32470291334598766 -2.1753239712962134 115 95 61
-0.3590937244134712 -0.3335526078512958 -2.1741057051549806 113 93 58
-0.3586983451392813 -0.33618060354083845 -2.1780806270826294 114 91 57
-0.35797280390068165 -0.33987843059495004 -2.1811516371452524 110 87 53
-0.3570751413321025 -0.34413229243484544 -2.1837450557443487 115 92 58
-0.357053061340693 -0.3455480003888931 -2.1887319360225574 121 98 64
-0.35535935884401043 -0.35237561071614565 -2.1891246493918635 117 95 59
-0.3537382238458513 -0.35896344340796205 -2.1896986304832873 113 91 54
-0.35242186449153656 -0.3645609558631221 -2.191096699645854 110 88 51
-0.35201843608242234 -0.3672040831222323 -2.195008466658751 104 82 46
-0.3516974498061217 -0.3695802434805555 -2.1991465890698594 104 82 46
-0.35119201616131235 -0.3725515597488116 -2.2027702978219903 115 91 55
-0.3503214587539846 -0.376700141470809 -2.205372397261499 129 104 69
-0.34917067041713257 -0.3817503301776678 -2.2071831341118506 128 104 69
-0.3481329271165924 -0.3864329268351989 -2.20929852118453 125 101 67
-0.347243752818311 -0.3906340466565851 -2.21182041276698 123 100 66
-0.3451443273440601 -0.39873017487840445 -2.210929030394978 122 99 63
-0.34463675131373933 -0.40169645749945626 -2.2145019050957058 126 104 67
-0.34375103902707044 -0.4058781424254405 -2.217002420584566 126 104 67
-0.3433557653348691 -0.4084806976737807 -2.2208833873103297 120 98 61
-0.34437974183825215 -0.4065219140099072 -2.228790728201942 117 95 58
-0.3443536157918958 -0.40794000384289586 -2.2337262451674933 134 110 74
-0.3443161269581939 -0.40939519434881766 -2.23863171059339 136 111 75
-0.3444451442628605 -0.41031675874609064 -2.2440152165474814 127 104 68
-0.3444263781614597 -0.41171336960318194 -2.248979781383425 121 98 64
-0.3438555509851895 -0.41487997134960175 -2.252362083689414 121 98 69
-0.3433436657929634 -0.4178565397286633 -2.2559093525010847 109 92 67
-0.34187626932142 -0.4238912129008866 -2.256697722254269 98 86 65
-0.3416232298441575 -0.4260358288754692 -2.2609791558007055 102 92 75
-0.3417613513389585 -0.4269293038773744 -2.2663928858130387 115 107 94
-0.3404718998717935 -0.43238713388678895 -2.2676675145746437 130 124 113
-0.3394169743853373 -0.4370920295492834 -2.269610530483185 149 145 138
-0.33843301197580694 -0.4415674516356428 -2.271749591652175 165 164 161
-0.3372258024263949 -0.4467526832954275 -2.2732264454606033 178 178 180
-0.3350482651226866 -0.45502948154444844 -2.271849206760164 185 186 188
-0.3341832576620486 -0.45911531970996045 -2.2742984270691537 192 193 195
-0.32960934358702654 -0.47501622899354246 -2.2658312605755846 198 199 201
-0.3431089036299857 -0.43334743157194056 -2.3105785137858845 202 203 205
-0.34815497155007563 -0.4186311517652921 -2.330531516419193 205 205 207
-0.34602390799363403 -0.4267637860813882 -2.329305642457782 207 207 209
-0.3439660933215276 -0.43465695691668704 -2.328272372064483 208 208 210
-0.32622837850443476 -0.49236873696584743 -2.280595999003982 209 209 211
-0.327602594956642 -0.4893224823442125 -2.2896402814953882 210 210 212
-0.3281710673578068 -0.48883924808729706 -2.2962989326967427 211 211 213
-0.3252585292976994 -0.49940211238430526 -2.2925505417623646 212 212 214
-0.3891989086021959 -0.43578706883160956 -3.0067202834413225 214 214 216
-0.39586648353018067 -0.4172681682739663 -3.0365633279547093 215 215 217
-0.3906480893262802 0.061488766218093516 -1.0878051267295532 186 187 189
-0.3661036569466641 -0.027999117057227907 -1.0601346514711907 187 188 190
-0.36558389069157704 -0.03106684272186283 -1.0639347959114696 187 188 190
-0.33469694840720726 -0.1501656115582488 -1.0533746363768322 190 191 193
-0.32808849035627463 -0.17499619795052623 -1.0486790037734346 191 192 194
-0.3178217215745735 -0.21290709172682054 -1.038895167733643 191 192 194
-0.3152170006337456 -0.22336357911355045 -1.0395485595853768 192 193 195
-0.31368786434550633 -0.23222227308845692 -1.0501058659865141 193 194 196
-0.2839913319905536 -0.33946553659109635 -1.0127786175466307 194 195 197
-0.2843146103894748 -0.33939663729831365 -1.0172938337263935 194 195 197
-0.28456695089951256 -0.33958251656223204 -1.0217146482478898 195 196 198
-0.29316508692552756 -0.30998542332221024 -1.0379582185110685 195 196 198
-0.34616957831147194 -0.1220048588332403 -1.1174297912262257 196 197 199
-0.3451146827512032 -0.12694754853668472 -1.1203420446907044 196 197 199
-0.3361957708881249 -0.15991720720613145 -1.111976707788085 197 198 200
-0.44127787764313386 -0.007615995751227289 -2.0937769410430263 118 108 98
-0.434410961431878 -0.03179080511768917 -2.0828126422807407 119 108 99
-0.430101528247746 -0.04748042108694139 -2.077870637155495 120 110 100
-0.42826512420719964 -0.054976688978754296 -2.0787956110124437 120 110 96
-0.4263975384613371 -0.06257079459384274 -2.0796261514025085 122 111 95
-0.42357945640395966 -0.07330039575978298 -2.0781509683194304 122 108 95
-0.42107750166221647 -0.08297742470341651 -2.0774062500646537 117 104 89
-0.41875828217181965 -0.09204377426184385 -2.0770753671766813 118 102 87
-0.41638162776920695 -0.10129278395795094 -2.076579701851891 119 104 88
-0.41372111801817224 -0.11147087724399252 -2.075368161371381 113 99 83
-0.41226712800558785 -0.11766399432029218 -2.0770650401268513 111 98 80
-0.40941620333903495 -0.12845544956481925 -2.0753363143820285 105 93 74
-0.4076238830056349 -0.13575232897713896 -2.076166384091945 102 88 69
-0.40610068801657145 -0.14215827773683343 -2.077637554750521 103 88 66
-0.40430218728811634 -0.1494656316948919 -2.0784155537691333 102 87 63
-0.40304107032613634 -0.1550008604000841 -2.08049937051967 106 91 65
-0.4013186211395471 -0.16204880482079764 -2.08142994872759 105 91 65
-0.39938541913787906 -0.16978409148948748 -2.0818197747758402 108 94 68
-0.39804109621823636 -0.17558038135367326 -2.0836515612557163 112 97 73
-0.3976652874439762 -0.17819480869325366 -2.0878816648169867 113 96 76
-0.39673077073142776 -0.18264119614426033 -2.090714915029828 114 97 77
-0.3954014838939208 -0.18837936369431074 -2.09255130443983 114 97 78
-0.3951086506703093 -0.1907178878821323 -2.096974523916008 112 95 76
-0.3934832158860572 -0.19742030461703342 -2.098045076701224 110 94 72
-0.3938624077593263 -0.1975564426172277 -2.1041526937627615 109 94 70
-0.39383957448374585 -0.19900982020233482 -2.109251560657781 109 93 70
-0.3943512469235737 -0.19871604064214798 -2.1157071401321694 111 93 70
-0.39415577300346727 -0.20073583991203536 -2.1203756751044884 111 93 69
-0.3899706673976891 -0.21578842442405777 -2.114886605315969 110 92 68
-0.3875578016937042 -0.225041549318989 -2.1138717043872037 108 91 65
-0.385228077756353 -0.23401609455537087 -2.113042362627984 109 92 66
-0.38876449092586013 -0.22385018180850913 -2.12723139070072 111 94 68
-0.38941679810319635 -0.22309895924345535 -2.1340523698733076 111 94 68
-0.39305779377233346 -0.21261237523818477 -2.1485860776845813 111 94 67
-0.38532365428770265 -0.23918410637040233 -2.133783064679417 110 93 65
-0.3836697164570798 -0.24593953998841855 -2.134631091336358 111 93 63
-0.38785060944964295 -0.23370721469765487 -2.1506064096446114 111 92 62
-0.389283751810055 -0.23042444240911641 -2.1594871195215823 110 91 61
-0.38895580514136097 -0.2328708207607657 -2.163795320797927 109 90 58
-0.38848030687836776 -0.23579614433657048 -2.1677164246233156 109 90 58
-0.38385700397954303 -0.2521874787496532 -2.160765009083931 110 89 58
-0.37801952213084317 -0.2725042650426268 -2.150569457682436 110 89 58
-0.3776177542168856 -0.27517205573396486 -2.1546158894945764 110 89 58
-0.3796463102947123 -0.2699607233662835 -2.1650740736907887 110 89 58
-0.3731672070560163 -0.2923224053514647 -2.1530539560864166 110 89 58
-0.37226281745099704 -0.2966099568290207 -2.155737921530377 110 89 58
-0.3728096687943129 -0.2961979062168515 -2.1622705239863262 116 95 64
-0.3730984613807191 -0.2966232389825796 -2.168125134131232 119 98 67
-0.3725643905212748 -0.2997109089262353 -2.171788680273644 118 97 66
-0.3701381827803256 -0.30891240442273804 -2.17038368982121 119 99 66
-0.36714992333353835 -0.3199219710907434 -2.167443127938759 116 96 63
-0.36673422356320245 -0.3226170227703081 -2.1713858309853777 115 94 63
-0.36514621436585654 -0.3290941130532844 -2.1721661642214025 115 95 62
-0.363076333722773 -0.33712065833226645 -2.171627429406578 114 94 59
-0.36192519998680167 -0.342179521399842 -2.1735533285693127 115 92 59
-0.361695976877019 -0.34426512495073147 -2.177969710732543 116 93 60
-0.3607455854329188 -0.34867284705422175 -2.1804239671054586 120 97 64
-0.35960279528723205 -0.3536972973683411 -2.182344339977648 117 94 61
-0.3605254279772832 -0.3520748607366737 -2.189897884257162 115 92 58
-0.35935380157873287 -0.3571892380241548 -2.191728864070594 114 91 56
-0.3585345730519866 -0.3611680313449439 -2.194515327211013 112 89 55
-0.35784356103075143 -0.364733000781459 -2.1976469919196675 108 86 52
-0.3570312265105703 -0.3686857959517805 -2.2004379995918733 107 90 54
-0.3563974142223564 -0.3720638254254126 -2.203714966957358 100 80 45
-0.3549865605284275 -0.3779320691450916 -2.204833610771843 113 90 56
-0.3537796274734411 -0.38314272951043693 -2.2065034411640125 120 96 62
-0.3530027404564325 -0.38697251068370586 -2.2093576977026634 123 99 65
-0.3522337422395069 -0.390775126819355 -2.2122268215713703 119 96 62
-0.35163302574136945 -0.3940373876012393 -2.2155594160403953 121 99 62
-0.3516134945323818 -0.39543962357126394 -2.2205157531196917 123 101 64
-0.3501963612413727 -0.4013098613084426 -2.2215491424100087 126 104 67
-0.3502027031906465 -0.4026283686484139 -2.2265743083965575 127 104 68
-0.3487543370278524 -0.4085925814463214 -2.227498061511188 126 103 68
-0.3486025860690425 -0.4104146268171256 -2.2320724799687683 131 108 73
-0.3489086250821222 -0.41077666835432125 -2.237944993825141 128 105 70
-0.348735168872747 -0.41266908085150433 -2.242462143580298 120 98 63
-0.34836361250106473 -0.41519282211280006 -2.2464158424356544 118 97 63
-0.34799231266974795 -0.417715199443758 -2.250368227454074 113 94 66
-0.3475852582483694 -0.4203508333158332 -2.254216334524385 98 84 64
-0.34755072129344833 -0.4218007477476492 -2.259129454054895 99 89 73
-0.3477460858897623 -0.4225202874682066 -2.2647050879793538 109 100 87
-0.34771073211884795 -0.4239743821099975 -2.269621782938358 129 122 112
-0.34617454973983136 -0.430195849523513 -2.2702112020612795 146 141 135
-0.34548474559639325 -0.43372606587417784 -2.273230715151131 162 159 156
-0.34188637468559757 -0.4464826401018078 -2.2678166300420544 175 175 174
-0.33932701621569067 -0.45593297329997695 -2.2653765008505307 185 186 188
-0.33980578468394634 -0.4557466016330932 -2.271748013864036 189 190 192
-0.3398560979966735 -0.4569197396337402 -2.276878661552999 196 197 199
-0.33833497291421505 -0.4630687390216912 -2.2774193404263268 201 202 204
-0.33934342043386334 -0.4612092636784956 -2.2853532823326783 204 204 206
-0.3130356044307051 -0.5457405585362112 -2.213109201164201 206 206 208
-0.3299068805554677 -0.4937042530320149 -2.2675702546388123 208 208 210
-0.3278648736969865 -0.501474189630895 -2.2664832734541016 209 209 211
-0.3308799287705205 -0.4932710215977949 -2.280316050838638 210 210 212
-0.32929782707597083 -0.4995857608542425 -2.2805763713952447 211 211 213
-0.32995070259436965 -0.49884687580247483 -2.287451886864912 211 211 213
-0.3316603230996171 -0.494779867744468 -2.29748131958446 212 212 214
-0.3862534664863418 -0.46100146165811096 -2.977160867618522 214 214 216
-0.39290444305932776 -0.44265358102278307 -3.006731118053014 214 214 216
-0.40104553064428383 -0.4198877173986545 -3.0417772099642186 214 214 217
-0.39817120686163054 0.07077211776155717 -1.0913472553238206 186 187 189
-0.36739326544210793 -0.04048623229465781 -1.055722045836803 187 188 190
-0.36681807480242146 -0.043740354941661674 -1.0594335780964756 187 188 190
-0.34244492277887506 -0.1378091593328885 -1.0534383158382643 190 191 193
-0.33759768016708336 -0.15624390018192752 -1.051227693554124 190 191 193
-0.32899646141226724 -0.1880330522298388 -1.0438680981400794 191 192 194
-0.3267270884507082 -0.1972583124669154 -1.045048155757643 191 192 194
-0.315487694780817 -0.23839374433877678 -1.033925559427873 192 193 195
-0.3157935202621476 -0.24069324423012145 -1.0469657915342354 193 194 196
-0.28618466063468756 -0.34699870674309097 -1.0099858921434428 194 195 197
-0.3108806866791646 -0.2603982816020757 -1.0485286651856094 194 195 197
-0.31424066124435024 -0.24959731144882305 -1.0574286058725024 195 196 198
-0.2904706178914518 -0.3350552747123614 -1.0281723544492345 195 196 198
-0.3522818300210253 -0.11695668373478746 -1.1196178696316268 196 197 199
-0.3519328452872322 -0.11938146239876218 -1.1235478717673288 196 197 199
-0.34662799873882993 -0.1393653063261453 -1.1204160863313202 197 198 200
-0.44963084712264945 0.00034336850815819275 -2.106374606984545 124 114 104
-0.4423246996473451 -0.025134684374795713 -2.0944426404114185 112 103 90
-0.4383278382246525 -0.03971135539058934 -2.09029515644948 107 98 82
-0.43573604323321774 -0.04965928169168943 -2.0894520715644633 106 97 79
-0.4328717400440797 -0.06049441893520002 -2.087928916000342 110 97 80
-0.4300902869356968 -0.07104902297680793 -2.0865722963283933 107 92 74
-0.4273208314390648 -0.08155593857987409 -2.085213473799864 108 93 73
-0.42482779309869023 -0.091148165764531 -2.084489518675122 110 95 73
-0.4225699281828122 -0.09996222532518384 -2.0843058588286167 108 93 71
-0.4205419269099553 -0.10801665720609965 -2.0846539106947186 105 90 67
-0.4180432717882242 -0.11760620276013434 -2.083837815743016 104 88 65
-0.41558149753684853 -0.12706761941676614 -2.083083749567001 104 88 64
-0.4139405620438162 -0.1338368265420815 -2.084304446010766 105 89 67
-0.41265925332665254 -0.1394256755641129 -2.0863871819141866 105 90 67
-0.411133285730447 -0.14581051511943488 -2.087857295793454 111 96 74
-0.4092075256317633 -0.15349680674957655 -2.0883290881209415 116 101 78
-0.40729376117220734 -0.16113835675608512 -2.0888096278261266 120 105 85
-0.4068396506690244 -0.1640119141109242 -2.092874138966703 122 106 88
-0.40570881028547506 -0.16909157810308983 -2.095260468999933 120 104 84
-0.40509327254013544 -0.1724886579650865 -2.098914523292374 116 101 81
-0.40458879243007484 -0.17552263826739078 -2.1028400443440707 112 97 78
-0.4033699193249615 -0.18088186051442923 -2.1049804068908613 107 91 74
-0.4028866518226626 -0.183843764459365 -2.108947636655067 105 90 72
-0.4026360238164376 -0.1860480585090969 -2.1134946943789754 104 89 67
-0.4026366575779741 -0.18743534525336603 -2.1186726421187005 107 91 68
-0.40208375524792406 -0.19062211647096228 -2.1224592197507626 109 92 68
-0.4013839193227327 -0.19428502191995067 -2.1258707620013695 111 93 69
-0.3982971914404987 -0.20569486556080063 -2.12323572396624 111 93 69
-0.39610347773208165 -0.21419775462270774 -2.1228309711255204 111 93 68
-0.3935659789300543 -0.2238090179987604 -2.1215276794594486 111 93 69
-0.39000263959954196 -0.23673771522437603 -2.1175807802238213 112 94 70
-0.3908949068598212 -0.2352206291449399 -2.1249784389332227 112 95 70
-0.3919926614027803 -0.2330418369413988 -2.132916121543514 111 94 68
-0.3919722859446023 -0.2344860803608212 -2.1379990031396057 111 94 66
-0.391569988386103 -0.23716638850878646 -2.1421013117206025 111 93 64
-0.39067871730261927 -0.24142696987139134 -2.1449397903787872 111 92 62
-0.3882476692291613 -0.2506609703394769 -2.143787817691076 109 90 60
-0.3883405132344472 -0.2517360926253863 -2.149151349205953 108 89 57
-0.3868367399461736 -0.25796627430989927 -2.1503698519667407 109 89 57
-0.3852997057516853 -0.2642995034459389 -2.151485822962821 110 89 58
-0.3845526187832419 -0.2680809487462126 -2.1546479401680294 110 89 58
-0.383766865870551 -0.27198525783928307 -2.15770230439092 109 88 57
-0.38497979901848034 -0.2694489978739806 -2.1659927080318635 109 88 57
-0.38205078294320816 -0.28025371030814705 -2.1634097330873856 110 89 58
-0.3783381679828318 -0.2935711268793668 -2.1587278591298915 112 91 60
-0.37772538110366227 -0.29690641416967656 -2.1621919230161013 115 94 63
-0.3773806677962895 -0.2993785740985435 -2.1663609278684026 122 101 70
-0.37773971880158413 -0.299589010785443 -2.172396295034334 119 98 67
-0.3756705521010421 -0.30759951142283415 -2.1719786014864755 118 97 65
-0.37292751621379605 -0.3177668182877933 -2.1697408853445226 116 96 64
-0.3729214793367559 -0.31914502571520886 -2.1747874438152928 115 94 63
-0.3719584631276549 -0.3235924499979864 -2.1772727368915445 115 95 63
-0.3712243367238256 -0.3273038277386362 -2.180363356065713 117 97 64
-0.3669773154361383 -0.3422657142638853 -2.173992351335703 116 93 61
-0.3679310488004087 -0.3405641348851167 -2.1816016129441147 116 93 61
-0.3672910234921203 -0.34396613833300815 -2.184915866169343 119 96 64
-0.3664851820831466 -0.3478970106920214 -2.1877753922385184 117 94 62
-0.36587361340566843 -0.35120491738820336 -2.1911552598952095 114 91 58
-0.3643948101197574 -0.3572820945072237 -2.1921689075075355 116 93 61
-0.36421761299362265 -0.35919888936667566 -2.1967187862335207 116 93 61
-0.3634713935491083 -0.36293178394819503 -2.1997127038236535 113 91 57
-0.36257929040510284 -0.3671282165576246 -2.2023000111176794 109 90 53
-0.36202944611281584 -0.3702312277003412 -2.2058192455637604 114 92 57
-0.3608735980086527 -0.3752640573551034 -2.207665330019364 117 94 59
-0.359627160618718 -0.3805822135276463 -2.2092495468088402 121 97 62
-0.35891053732600775 -0.38421048653360024 -2.212286532174672 118 94 60
-0.3580300692545334 -0.3883583036817194 -2.2148628804097323 119 96 62
-0.35782401650105644 -0.3903594668252719 -2.219305063340615 123 100 64
-0.3577660366328057 -0.3918900769105169 -2.22415973848023 124 102 65
-0.3562147065374357 -0.39816449575002555 -2.2248475112147545 126 104 67
-0.3559021929624128 -0.4005016608029862 -2.2289844995344152 128 105 70
-0.3556408105677287 -0.4026762482054578 -2.2332635885284695 129 106 73
-0.3530902902645365 -0.4121100167690773 -2.231108549042252 125 103 70
-0.35283816082105657 -0.4142510696155661 -2.2353980266720455 120 99 66
-0.35260094654169705 -0.4163447315405998 -2.239729080848462 120 100 67
-0.35396345395376627 -0.4133733446404486 -2.248585924005427 118 98 67
-0.3536669920443326 -0.41565701474954797 -2.2527583688387205 107 91 65
-0.35349305863855496 -0.41755286490576915 -2.2572779467535726 100 90 72
-0.35383002238325556 -0.4178338554560148 -2.263253140465078 109 101 87
-0.35381088273864014 -0.419241766072728 -2.2682187297567347 122 116 106
-0.3531717063909698 -0.4226082060512202 -2.2714128990650932 142 137 131
-0.3515683954957766 -0.4290159911521888 -2.271837310709762 158 156 154
-0.3509028351376888 -0.4324611110336788 -2.274938739617775 173 172 173
-0.3460078767980428 -0.4492382661077834 -2.265854502331609 184 185 185
-0.3442449295269392 -0.4561308640334397 -2.265750427146456 188 190 192
-0.348784236292134 -0.4431711337337797 -2.2838558063198784 193 195 197
-0.3450084220754493 -0.4563993737589258 -2.2779173566419866 199 200 202
-0.3427403645623857 -0.464872385416475 -2.2763139660303264 202 203 205
-0.33097875534876786 -0.5031870201572413 -2.2470440835560526 205 206 208
-0.3156626986293086 -0.5526317800416043 -2.2072563265727245 207 207 209
-0.33537339504774083 -0.4920169126365988 -2.269701301911032 208 208 210
-0.3329954801191311 -0.5034489029230289 -2.277515585577638 211 211 213
-0.316995457912085 -0.5549134581208591 -2.235249673704033 212 212 214
-0.3350033732086779 -0.49980584530244115 -2.2933091014287617 212 212 214
-0.38256143155582056 -0.4881105432462205 -2.9453001196230413 214 214 216
-0.389999740367489 -0.46754737557270565 -2.977476639859768 215 215 217
-0.39803235945726223 -0.4452514256562621 -3.0118893924070322 215 215 218
-0.3980839599402692 0.05288359374365437 -1.0849914553465663 186 187 189
-0.368867720574077 -0.052178348802112806 -1.0515991376666243 187 188 190
-0.36399180310022905 -0.0706964478613808 -1.0496793030351217 187 188 190
-0.36485509285011736 -0.06882324732824208 -1.055235607030986 188 189 191
-0.34472246865122624 -0.14613149014559101 -1.0504528743376547 190 191 193
-0.33169301400116913 -0.19344455142185352 -1.037264572288809 190 191 193
-0.33618724131814987 -0.17868225520301972 -1.0475935967809613 191 192 194
-0.32342074475934096 -0.2250145651059283 -1.0345753758313692 191 192 194
-0.31643813948911076 -0.2508505871150759 -1.0292910816867975 192 193 195
-0.3206134058890983 -0.23948353722723742 -1.0476000057697212 193 194 196
-0.31273334903125855 -0.2684452187133442 -1.0409129390275424 194 195 197
-0.3118761583671547 -0.2725947927076672 -1.0438938070422252 194 195 197
-0.3149435930571357 -0.26289514199191244 -1.0523392777216964 195 196 198
-0.2845148519946419 -0.37133954632895316 -1.0139323648511231 195 196 198
-0.3667264501079207 -0.08260168292763004 -1.1334897148357341 196 197 199
-0.3633064232776756 -0.09585992385685083 -1.1331430945058565 196 197 199
-0.35922236814636205 -0.11144746993631693 -1.1318202280617737 197 198 200
-0.4471568757586677 -0.02867393363736559 -2.09874031810576 133 125 109
-0.4436311752013308 -0.041629465283286815 -2.095739017540205 125 116 100
-0.4421813316938991 -0.047799227090493224 -2.0976305467329968 122 110 93
-0.4390342880447301 -0.059501486215937094 -2.0954642895000903 118 105 87
-0.43637530453549844 -0.06960293859318145 -2.0944284050275854 116 103 81
-0.4338281738915401 -0.0793319672969045 -2.093630966581864 112 98 74
-0.4313335396460398 -0.08888245041998355 -2.0929315047802635 112 98 75
-0.42837500151406094 -0.09993583632657188 -2.0910883123415136 116 99 76
-0.4249652251579864 -0.11244863825679086 -2.088123507747309 116 98 76
-0.423048318993583 -0.12009572044391947 -2.0887305874702538 115 100 79
-0.4220910020352278 -0.12461792554079276 -2.091643692609036 119 104 84
-0.4212336584021566 -0.12881291422774077 -2.0947909015673996 122 106 89
-0.4191191941081831 -0.137088277110888 -2.094867318303754 124 109 92
-0.41745484842107516 -0.14389645703578524 -2.096020297284807 125 110 93
-0.4157341484468288 -0.1508827493922077 -2.0970177927337197 124 108 92
-0.4178480387135025 -0.14543027848716428 -2.107410270044324 123 106 90
-0.4166372096057541 -0.15076059146823928 -2.1096493927244215 122 107 87
-0.4155350421059826 -0.155735684170614 -2.1121445720946577 120 105 84
-0.41487265488536607 -0.1592840437127836 -2.1157166456312844 116 101 81
-0.4117855773092119 -0.170677270761053 -2.113272294762036 107 92 74
-0.4122687769415975 -0.17051352238091866 -2.1196659072470245 108 93 75
-0.4110378440893108 -0.17589340490254257 -2.1217977129849492 109 94 74
-0.41060326060045604 -0.17869690215605438 -2.125906001500379 109 94 73
-0.4098149588049172 -0.18264201182012707 -2.129126168546698 110 93 72
-0.4104993781534196 -0.1818316083951228 -2.136035302219914 110 93 70
-0.4100537273725582 -0.18466996450740114 -2.1401126093930243 110 93 69
-0.40268689519244993 -0.20982501841733847 -2.1267335979655684 110 93 68
-0.39873792825737436 -0.22394123412204558 -2.1219072372368757 110 93 69
-0.39525502506708904 -0.23654387695120094 -2.1182163003916554 111 94 70
-0.39667856779677363 -0.2333390995924609 -2.1269482736444734 112 95 70
-0.39846702836363806 -0.2289654515253201 -2.136629475401811 112 95 69
-0.3987897036917859 -0.2293127917072284 -2.1425940694675685 111 94 66
-0.3968214821607968 -0.23702629922849394 -2.1427041490237118 109 92 63
-0.3971760350888507 -0.23727100826030445 -2.1487497193731286 108 90 60
-0.39509198622811076 -0.24534875605096806 -2.148533391675346 107 88 56
-0.39441364930207923 -0.2489084608639356 -2.1519164685920336 105 86 54
-0.3924909158939663 -0.25645869438537217 -2.1520796584429824 107 88 56
-0.3920368772992403 -0.25929411203614605 -2.1560245234336137 109 89 58
-0.3908838728653994 -0.26436873127138627 -2.1581524905915215 110 90 60
-0.3912410046284318 -0.26460319810412003 -2.1641974131218307 111 91 61
-0.3914796397138986 -0.2652189220779916 -2.169940409035435 113 93 63
-0.38847455383652174 -0.2762152344582305 -2.167210929217938 111 91 61
-0.38397859985072436 -0.2919702265149171 -2.160541293436991 111 91 61
-0.38318149646277544 -0.2958879123601771 -2.16353214499787 117 97 66
-0.38298673590373417 -0.2978793216689475 -2.168101292650894 119 100 68
-0.38352094379139173 -0.2975431247255973 -2.174593948370336 118 98 67
-0.3834143360485521 -0.29925454616172076 -2.1794012149612914 117 97 65
-0.38189450002021286 -0.3054742206246728 -2.1804638324839893 115 94 63
-0.3831523548043708 -0.3028339454928778 -2.188890213965827 114 93 62
-0.37877309861727126 -0.31816097531149423 -2.182323093014181 114 93 62
-0.3820935454540538 -0.3089521996517197 -2.1962564985381796 116 95 63
-0.3801710309593344 -0.3164441996582641 -2.196206725677197 117 95 64
-0.3761085239069371 -0.3307388042741093 -2.190397308008865 117 96 64
-0.3728719127262774 -0.3423944003922056 -2.1867600629021515 117 96 63
-0.37227851500328507 -0.3456394559668008 -2.1902060485539474 118 97 64
-0.3726783101477898 -0.34572841212378713 -2.196329080896515 115 94 61
-0.37136117360654014 -0.3512702987051851 -2.1978131108391907 117 94 62
-0.36952590194472656 -0.35845259542800934 -2.1978779823736225 117 93 61
-0.3698551490253433 -0.3587648282562239 -2.2038074969376416 116 93 60
-0.3693551611440622 -0.3617073539310791 -2.2074841085862373 116 94 58
-0.36809520775208426 -0.3670565580328534 -2.2090815549576446 124 101 66
-0.3669059059232077 -0.3721785414793646 -2.2108593806057084 125 101 66
-0.3656699697703084 -0.377444836197091 -2.2124971074786455 124 101 66
-0.3642269722626694 -0.3833626462652646 -2.2135527092873635 120 96 62
-0.36332831150077427 -0.3875554660579317 -2.216093199860498 121 98 64
-0.36315887988528384 -0.38944182642947023 -2.2206394627554285 123 100 65
-0.3636046897609558 -0.38938537533092976 -2.2268895484587055 121 99 64
-0.3619018565105523 -0.39611300344577394 -2.227185888793648 121 99 63
-0.36366597065490913 -0.3918985422927037 -2.2371051456614395 125 103 68
-0.36149694200307825 -0.40009187795420154 -2.236086501481147 125 104 70
-0.3607422736293191 -0.4038215443001133 -2.2389943816846523 117 96 63
-0.35954779978285556 -0.40893460122849057 -2.2406641359647788 121 100 66
-0.3596057129823818 -0.4101019076769501 -2.2458357525070767 124 105 73
-0.35993033910773276 -0.4104309727267249 -2.2517607843728698 120 103 73
-0.360255490100751 -0.4107601923314791 -2.2576939949924495 112 97 74
-0.3601129767564025 -0.41256103292962865 -2.2623128846666556 110 100 83
-0.360423007694133 -0.41294057605176526 -2.268213788384831 121 115 103
-0.3597446242282651 -0.41642500880577027 -2.2713168174341787 137 134 125
-0.3593304009263418 -0.41907897706688746 -2.275165137436953 154 153 149
-0.35645931372883705 -0.42943728494408717 -2.272009279794334 168 169 169
-0.35442666966786096 -0.43715855119552627 -2.2712146995876195 180 180 182
-0.3524255128113675 -0.4447750078404057 -2.270487353614548 188 189 190
-0.35527024086688275 -0.4372127103300515 -2.283638717857708 194 196 197
-0.3533441052337169 -0.44459047062093093 -2.283112473521304 196 198 200
-0.350563125795502 -0.45463607119921423 -2.280101622446101 201 202 204
-0.35021333236979213 -0.4570731581235852 -2.2840785465532734 203 204 206
-0.3357496864014877 -0.5036051669781094 -2.24721050265254 206 206 208
-0.4046442490299216 -0.2897972508266635 -2.451913161370315 208 208 210
-0.405785018879129 -0.287674696607608 -2.460564559418921 209 209 211
-0.41242499814247835 -0.26840382052047085 -2.4852509916798824 209 209 211
-0.33838497631638353 -0.5006735834324942 -2.274514166333605 210 210 212
-0.33819878111791507 -0.5025809143531097 -2.2788953642352943 211 211 213
-0.3211167983265586 -0.5571028801430113 -2.23374353875985 212 212 213
-0.3370198633784943 -0.5089059832011728 -2.2852889230222515 212 212 213
-0.38007015723524423 -0.5113394723358325 -2.918102217363677 214 214 216
-0.3885142446923366 -0.48794872885716356 -2.953638490454285 215 215 217
-0.3960410592321422 -0.46728840267785254 -2.986017839843621 215 215 217
-0.37092824750862957 -0.06167179364195424 -1.0482798834654903 186 187 189
-0.36780910342530654 -0.07388566246501016 -1.0486626138704436 187 188 190
-0.363933670636961 -0.08876052207837803 -1.048027156773091 188 189 191
-0.3447777618222578 -0.1621923637356747 -1.0445414468289183 190 191 193
-0.3332812806243081 -0.20383606894922485 -1.0334768264988865 190 191 193
-0.3277567035468564 -0.22442798216956822 -1.030305229754396 191 192 194
-0.3215605890362401 -0.24736658600208974 -1.026170000222221 192 193 195
-0.31988724110216793 -0.2543827648667274 -1.0280899643228547 192 193 195
-0.3188315140179458 -0.259223546164315 -1.0308328956522488 192 193 195
-0.31938654494490226 -0.2584021907893038 -1.0357639491284123 193 194 196
-0.31741098648730925 -0.2664707573482692 -1.0372366138227553 193 194 196
-0.3139700122656416 -0.27967853986378727 -1.036674174501151 194 195 197
-0.3137383279485315 -0.281614793114811 -1.0405074842781001 194 195 197
-0.3112143850875208 -0.2915913619437621 -1.041162437721248 195 196 198
-0.28609845260955524 -0.38077226662239605 -1.0103471883612198 195 196 198
-0.45428783377061926 -0.024745344026196325 -2.108456982356352 145 136 125
-0.45056817541796595 -0.03826223010244734 -2.105036664073924 141 131 119
-0.4573198577678246 -0.017818320966218937 -2.126371895163352 137 126 113
-0.453678504551065 -0.03107580623964279 -2.123116583396007 134 122 108
-0.4446498218631844 -0.06177119428628497 -2.1069979166271997 128 116 100
-0.44211305585087235 -0.07142195356587155 -2.106264085232971 124 113 95
-0.4393003811762727 -0.08195795554298013 -2.104842519292669 124 111 94
-0.434559240618174 -0.09872225041875315 -2.0987651889929992 124 110 93
-0.4325386804269919 -0.10667788263565214 -2.0991742269504092 123 110 93
-0.43339077421134214 -0.1053468001971769 -2.1064851911004054 125 111 95
-0.4307008521467248 -0.11545688572991042 -2.105251022901712 126 110 94
-0.4314693742647613 -0.11439677684747918 -2.112364164731701 126 110 94
-0.4305359375759866 -0.11883022207518312 -2.1153565599755972 125 109 93
-0.42951176535348884 -0.1235539113930948 -2.1181195417144325 124 108 92
-0.42842093269983994 -0.1284898142104528 -2.1207102117662764 122 106 90
-0.4272652560212909 -0.1336317516426242 -2.123131799851191 121 106 88
-0.4216340071605791 -0.153179121309738 -2.1145665723518485 121 106 87
-0.4211049666363301 -0.15629132162997028 -2.1184791377153953 120 105 86
-0.42043984461553074 -0.15984017051964916 -2.122052637697419 118 103 84
-0.4196919824966498 -0.1636535361867798 -2.125416379172099 115 100 81
-0.4189385757139831 -0.16748299635855735 -2.1287600313194153 113 98 79
-0.41803991210781366 -0.1717771641258944 -2.1317366461227376 110 95 76
-0.4171255099569974 -0.17611962952912186 -2.1346659002368717 110 94 75
-0.41603202278786017 -0.18103431429510675 -2.1371400072629205 111 94 74
-0.4142888287860783 -0.18802927723470153 -2.1379788110192997 111 94 72
-0.41111115268800713 -0.19961623532263184 -2.1352032231267457 110 94 70
-0.4092745301023953 -0.2068981097639253 -2.1357616294284516 111 95 70
-0.41170121680034966 -0.2005263360278472 -2.147039349279908 112 96 71
-0.4038908806921871 -0.22691872650960332 -2.132500803409459 113 96 72
-0.4058463867217953 -0.22205438946367473 -2.142588043825392 113 96 70
-0.4042924649582006 -0.22841480439962858 -2.143797780016898 111 94 68
-0.4033195038593559 -0.23291478951866618 -2.146468795071814 110 93 65
-0.4041536454602832 -0.2316419800973024 -2.1537375038353184 109 92 63
-0.40229962491079607 -0.23895185938694163 -2.1541496932756505 105 88 56
-0.3996271748199277 -0.24886700593734556 -2.152445558167593 104 85 54
-0.4002563586350903 -0.24824783729519406 -2.1591887483871837 108 89 58
-0.3992990579055313 -0.2526868545194467 -2.161859153005709 109 90 59
-0.39856070518935655 -0.2564261071072509 -2.165085375574977 110 91 61
-0.3978406898700486 -0.26010526858119987 -2.1683526611813964 113 94 64
-0.3975972383812297 -0.26226654215463674 -2.172849063352676 114 95 65
-0.3944586743673817 -0.27363399195111315 -2.169823328930836 110 91 61
-0.38966600134539203 -0.29024900202227655 -2.162454208988677 108 89 59
-0.38900915924962637 -0.2937108898166607 -2.1658250335233635 111 92 62
-0.3887635948157138 -0.2958655227606233 -2.170266548134598 111 92 60
-0.38894907115106303 -0.2966522284066081 -2.175838133922399 112 93 61
-0.38774506282386056 -0.3018472308076313 -2.177762080559215 113 94 62
-0.38828665486751535 -0.3015054046375065 -2.184273284979112 113 93 62
-0.38731026072896113 -0.30597558599586283 -2.186784814441179 114 93 62
-0.3872817895224432 -0.3074414724670259 -2.19179625974747 115 94 63
-0.3877263665149685 -0.30741077192178234 -2.1980651119935954 116 95 64
-0.38679052961419214 -0.3117490091097097 -2.200671013787336 118 97 66
-0.38562942737046335 -0.3167970726789048 -2.2026676094822832 118 97 65
-0.3843324894106431 -0.32227123627578924 -2.2042896645374763 117 97 64
-0.38301444710772353 -0.3278084552375914 -2.2058418945892044 117 97 64
-0.38248586896309794 -0.3308498947910914 -2.20949945686783 118 98 65
-0.381343935476553 -0.33582544916188106 -2.211503134238302 119 96 64
-0.38071934988055744 -0.3391665208115985 -2.214890311669323 121 97 65
-0.38041906190693087 -0.34148413282811485 -2.2191488347393 122 99 66
-0.37886423651040885 -0.3477532989555384 -2.2200082018730467 121 98 64
-0.3750766644487078 -0.3610475022916515 -2.214789531922463 123 100 66
-0.3723976767112065 -0.3708413875550616 -2.2125431731312935 123 100 66
-0.3727843479656253 -0.3709854442258915 -2.2186269002424854 123 100 66
-0.3714617478965428 -0.37650435426089557 -2.2200460007248055 123 100 66
-0.37128049801566515 -0.3784337870682638 -2.2245781308243533 123 100 66
-0.3694792679033343 -0.38545008032686434 -2.2246626351517635 124 101 67
-0.3692831960678432 -0.3874235230536064 -2.229144709153759 120 97 63
-0.36741842439330186 -0.3946311665796256 -2.229024533715143 120 97 63
-0.3688045018790852 -0.39164189910020153 -2.237870182068927 121 99 64
-0.36739911755421173 -0.39740450371245317 -2.239001899117924 113 94 59
-0.3667404371953955 -0.4008247002344626 -2.2421921781564773 115 95 62
-0.36643124574574404 -0.40314951051325854 -2.2463494983826076 119 99 65
-0.36720119207010826 -0.4020981523188839 -2.2535154422394115 115 98 68
-0.3667756760474903 -0.4047878166461252 -2.257351865055843 109 95 69
-0.3674868519518224 -0.40392469763081174 -2.2643701205097617 113 100 83
-0.3668639076757626 -0.40723144729448446 -2.267653953765114 124 116 103
-0.36705512019595654 -0.40799538282335923 -2.273223694996894 137 133 123
-0.3654547609279052 -0.414350134764927 -2.273745832954085 153 151 144
-0.3642711761854012 -0.41940062948525736 -2.275428658094457 168 168 166
-0.36269108358130486 -0.42568356030621046 -2.2759761835277166 178 179 180
-0.3613209533778392 -0.43130788058151004 -2.277102698069761 186 187 189
-0.3581466176137265 -0.4425449958133816 -2.2730815049152873 192 193 195
-0.35741512294957634 -0.4461713698498554 -2.2759888086323716 197 198 200
-0.3559774072903269 -0.4519921458395325 -2.276871466689611 200 201 203
-0.3738904496903177 -0.3976655990649066 -2.3331571894004015 202 203 205
-0.40533549265699975 -0.30136505187758966 -2.428508266224501 205 206 208
-0.4120039506982369 -0.2835398247687341 -2.458331416410703 208 208 210
-0.4140165526892118 -0.2787440199158987 -2.469491729996349 210 210 212
-0.41652218819112974 -0.2724275933144794 -2.4821074911549963 210 210 212
-0.41947055834283 -0.2647488790526812 -2.496042054212431 211 211 213
-0.34273563218850855 -0.5037961479179459 -2.278319464421644 212 212 214
-0.325225415177334 -0.5593128458279562 -2.2322173583846125 212 212 212
-0.25016262430422276 -0.8619825325733176 -2.2737466959254338 215 215 215
-0.24963582323141176 -0.8647703198072413 -2.276491879389874 215 215 215
-0.37762437308662883 -0.5341449886832584 -2.891400085732011 214 214 216
-0.38596513458894754 -0.5112080287899322 -2.926330049971392 215 215 217
-0.39329209761944384 -0.4912657699443044 -2.957778912283148 215 215 217
-0.39675388417682605 0.013642631609833922 -1.0710120082766852 186 187 189
-0.39738656441678855 0.014630990143568223 -1.0763708766530435 186 187 189
-0.36670503891802997 -0.09432422898104942 -1.041301126708566 187 188 190
-0.36504784766227694 -0.10133081696091234 -1.0435387807734773 188 189 191
-0.34627239840587776 -0.17303389895411486 -1.0406014249787023 190 191 193
-0.3398680547584844 -0.19661688815707806 -1.0363758616143182 190 191 193
-0.326265161095948 -0.24536994782778487 -1.0224737627184892 191 192 194
-0.32321454189452625 -0.25717550022942914 -1.0225685859405982 191 192 194
-0.3161694554869049 -0.2829377974353488 -1.0172567090583282 192 193 195
-0.31801337563941817 -0.2776157368218728 -1.0238807472481926 192 193 195
-0.31420675612134197 -0.2920380319420595 -1.022861162240892 193 194 196
-0.3209300221816032 -0.2696824233266822 -1.0361448089473302 193 194 196
-0.31867772807383676 -0.2786739293021341 -1.037229274138759 194 195 197
-0.3145835773800948 -0.2940850511936258 -1.0357622511274358 194 195 197
-0.3138095321987628 -0.2979065430381776 -1.0388292355126159 195 196 198
-0.28258589869188466 -0.4078663520439295 -0.9997487900604696 195 196 198
-0.27227593865884114 -0.4448649002996245 -0.9893867884194033 196 197 199
-0.2761410488258048 -0.4335317574916821 -1.0026182766905276 197 198 200
-0.46445254230733435 -0.00966319736191934 -2.119872055316366 152 146 138
-0.4611220899820705 -0.02186428698047027 -2.1174433726025916 149 141 132
-0.4655872220278784 -0.011869848982299591 -2.1441416499440917 136 126 116
-0.46222209616234855 -0.024165783872757474 -2.1415691330291957 131 123 110
-0.4523183891850683 -0.05747905511219986 -2.1234101374951804 130 120 108
-0.44954003521448105 -0.06785803611758767 -2.1221226700925073 128 117 105
-0.4477014333377047 -0.07520963809412562 -2.1230507484855234 127 115 99
-0.44616076725545406 -0.08159932908346368 -2.124673422280259 125 113 97
-0.44419690028275083 -0.08934298857539513 -2.1252638884412236 124 110 94
-0.4427524475489111 -0.09541483116878291 -2.1270842897499884 125 110 94
-0.441283216236228 -0.10156216148959396 -2.1288303018316785 125 109 93
-0.43994520723775743 -0.10728494295240276 -2.1308789746333323 125 109 93
-0.4394836436641284 -0.11019691925685993 -2.1350404823154316 123 107 91
-0.4296246199157959 -0.14319219425028296 -2.116345659660534 122 107 88
-0.429009901392422 -0.14657738347974036 -2.120071787077329 123 108 89
-0.4285833748459266 -0.14935945140190998 -2.1242531333377013 125 110 91
-0.4284024789248969 -0.15135571935857384 -2.1290338013017696 124 109 90
-0.4277542766188162 -0.15484506627276484 -2.132667323932012 124 108 89
-0.42613644905696313 -0.16142918551029928 -2.1339086232520437 122 105 87
-0.42490757626096565 -0.16676739536035112 -2.13609305336079 118 101 83
-0.4243636027708629 -0.1699175681056605 -2.1399597622976763 114 97 79
-0.42298602694865217 -0.17572442439086966 -2.141755318111947 111 94 75
-0.42142640716062235 -0.18210760838664297 -2.143084407044965 110 93 73
-0.42113385976856543 -0.1844508132756315 -2.1475548989158333 111 95 72
-0.4170756750560786 -0.19878111534546017 -2.14261794232719 113 97 72
-0.4144151377062737 -0.2086519482041168 -2.1411344764899947 113 97 72
-0.4138257750770637 -0.21192830357012493 -2.1448203642201764 114 97 73
-0.4146994772496945 -0.21055319372373915 -2.152183019520869 114 97 72
-0.4099243674859841 -0.22712678190294044 -2.145311748964584 114 96 71
-0.4095244753257018 -0.2297934378620291 -2.1494468094057955 112 95 69
-0.41030513706581273 -0.22871299685459323 -2.156571482241753 110 93 66
-0.40832320200375444 -0.2363984381649008 -2.156690466631881 110 93 64
-0.408204127703192 -0.23817239416404867 -2.161531582789468 110 93 63
-0.40466590177149353 -0.2507805476154997 -2.157646894406664 110 93 63
-0.4066470511451429 -0.2458982537215576 -2.167843023738887 110 92 62
-0.40558784384909496 -0.2506468199994665 -2.1702687852504012 112 93 63
-0.40478174858912985 -0.2545918604721692 -2.1733349918653984 113 94 64
-0.40645999363788893 -0.2506794772113473 -2.1827953182811544 114 95 65
-0.4002506931656724 -0.27170077406150905 -2.171907408399708 113 94 64
-0.3977270060570499 -0.2810605525881582 -2.1704879893110216 109 90 60
-0.3938075088534799 -0.2948193699192535 -2.165418599660795 107 88 57
-0.394019804170887 -0.2955284868476463 -2.171050734971134 104 85 53
-0.3939834075151365 -0.297023329394855 -2.1760397273815646 107 88 56
-0.39339937733177716 -0.3002449600136341 -2.1795998724272154 111 92 60
-0.3931723508941145 -0.3023406507072165 -2.1840905945845193 112 91 60
-0.39174595037196475 -0.30821288530822033 -2.1854324666327374 113 92 61
-0.39102287407254743 -0.3118676529662635 -2.1886102955956748 117 96 66
-0.39191172156499043 -0.3104504584403428 -2.196033358939623 120 99 68
-0.39063499983545663 -0.31584509691076257 -2.1977450163808765 120 99 69
-0.3894012676564449 -0.3211011367620864 -2.199557622857945 121 100 69
-0.38778220519917317 -0.32756393271341844 -2.2003344228056623 119 99 66
-0.38971835243316977 -0.32286278827821924 -2.2105577238817844 118 98 65
-0.38808207468475875 -0.32937617054909984 -2.211275989193931 118 98 65
-0.3864571899317432 -0.3358491089166835 -2.212007330493093 120 98 65
-0.38707213257106543 -0.3352980306339365 -2.218724745215893 123 99 68
-0.387471140595977 -0.3354260614570541 -2.2248722306484816 123 100 67
-0.3871340718939503 -0.3378604544672047 -2.229045332650168 121 98 64
-0.3837028692816831 -0.34997561700200464 -2.2248669488758344 121 98 64
-0.3807698619541691 -0.36052210375198834 -2.2219966163647644 123 100 66
-0.38055963917416535 -0.3625493307133285 -2.2264741605515934 123 100 66
-0.37936347569743006 -0.36765653089226147 -2.2282728789307025 123 100 66
-0.3783337873619468 -0.37224068079119066 -2.2305128639199334 124 101 67
-0.3775156064327358 -0.3761620858156147 -2.2333200845563486 124 101 67
-0.3762436150313692 -0.38149684842557774 -2.234878458485679 123 101 67
-0.37631509887937054 -0.38264017995441846 -2.2401071353076327 122 99 65
-0.3761389712314161 -0.384555902097221 -2.244658915137388 116 95 60
-0.37493441300064634 -0.3896741387674991 -2.246378875558224 111 92 56
-0.37197457068571727 -0.40025183670505937 -2.2432417948506376 109 91 59
-0.3737811668951856 -0.3959942416842275 -2.2532562037353956 106 90 61
-0.37450212790813464 -0.39511847490874363 -2.2602856236362436 103 88 65
-0.37436503637795565 -0.3969119473523812 -2.2649423418543218 109 97 79
-0.3749918751504278 -0.39633329136697504 -2.271727386405521 122 113 101
-0.37291743044251996 -0.4041417335213058 -2.270983544745322 136 131 122
-0.3714375326306825 -0.410099560115747 -2.271879729526033 153 149 144
-0.3686339951226974 -0.42015701804050976 -2.2690495961188906 166 166 162
-0.36696815481137085 -0.4266802962359505 -2.2693837922002356 178 179 179
-0.36836737672230485 -0.423705886265792 -2.27833037140438 186 187 189
-0.36639445332218085 -0.43117508268100513 -2.2777809384084544 192 193 195
-0.3596029009025977 -0.4535459054336457 -2.2635819722891943 197 198 200
-0.3629298896058631 -0.44460753174558054 -2.2779806430373517 200 201 203
-0.38039114426327136 -0.392001006575621 -2.3325720076317538 202 203 205
-0.3796468539102671 -0.3956851605333942 -2.335556322972902 205 206 208
-0.41179886383410746 -0.29781679721919363 -2.4323855229010434 207 208 210
-0.41408418365307276 -0.2922055810441646 -2.4442232232370587 208 209 211
-0.4201641579349926 -0.27490155312982156 -2.466965232070896 209 209 211
-0.41814361518959486 -0.2825840577566431 -2.4665242084236287 211 211 213
-0.4185896390586753 -0.28266286997707635 -2.473159176330078 211 211 213
-0.4194755826231295 -0.28138963223700963 -2.4810712424975887 212 212 214
-0.32949081830937405 -0.56102168234935 -2.231162483179476 212 212 212
-0.25489408677536546 -0.8598544524245495 -2.2708787011546128 215 215 215
-0.25417658042035296 -0.863204025141026 -2.273011478752815 215 215 215
-0.25413303139836313 -0.8645487339634703 -2.2773456639887932 215 215 215
-0.2492836476603279 -0.8801684913333859 -2.2659041138958984 215 215 215
-0.37522264215445417 -0.5565391593107244 -2.865179574107983 215 215 217
-0.38288336072833595 -0.5357266087424163 -2.8974827220968145 215 215 217
-0.390594296053473 -0.5147962651589171 -2.930066269311255 215 215 217
-0.383966139503379 -0.049215381040750905 -1.0531520490158042 186 187 189
-0.36665871472811085 -0.11084282916598132 -1.0353795070128515 187 188 190
-0.3661477921643427 -0.11381364436498925 -1.0390814201380199 188 189 191
-0.3382345135134969 -0.21579951349746324 -1.0199374133636812 189 190 192
-0.32740811516962753 -0.2569123803635841 -1.0182262168059701 191 192 194
-0.32290363556790663 -0.2737111395265071 -1.0163880285486349 191 192 194
-0.31774741143697127 -0.292762575688839 -1.0136309109880823 192 193 195
-0.29700665474751214 -0.365947208419325 -0.9898807673447315 192 193 195
-0.3266131949532307 -0.26421567601431784 -1.033826558258582 193 194 196
-0.31402591339195124 -0.30904835242257905 -1.0209468426449158 193 194 196
-0.3132787755504457 -0.31275871841994085 -1.024033457714019 194 195 197
-0.3115140805992395 -0.3199968624558627 -1.0257246874483126 194 195 197
-0.3064842181851399 -0.33855088096757113 -1.0229230784358325 195 196 198
-0.2879206109525203 -0.40399290367640417 -1.0014441191573848 195 196 198
-0.2858879393294246 -0.41211555771816155 -1.0026043903451625 196 197 199
-0.28136642183681754 -0.428850642643895 -1.0002923292853982 196 197 199
-0.27983543372245295 -0.43522220223928426 -1.0020972415040408 197 198 200
-0.4706594263252461 -0.007462343321148368 -2.121936278739607 164 161 154
