ply
format ascii 1.0
element vertex 675
property float x
property float y
property float z
property uchar diffuse_red
property uchar diffuse_green
property uchar diffuse_blue
end_header
-0.27903503657332973 -0.1251749973081589 -1.7020426522440497 75 55 28
-0.27686405166838673 -0.12494340740548743 -1.7089162872403438 82 61 34
-0.27662384655259376 -0.12494727795528557 -1.714581906751055 82 60 28
-0.2759000341591328 -0.12489225937174714 -1.72056460935555 108 85 50
-0.27690992282624644 -0.12504860026078024 -1.7254514521001034 111 87 51
-0.27792094864783046 -0.12520510490587902 -1.7303417541515662 108 83 47
-0.2791353265374855 -0.1253864129537608 -1.7351055620319595 103 80 46
-0.2763828864046998 -0.12508443833490585 -1.7424301869506407 91 71 41
-0.27950148102004335 -0.1254978153393135 -1.745977302928855 85 68 39
-0.278674035491549 -0.12543049170193993 -1.7520802424241035 55 35 5
-0.2685577815746517 -0.12423186793381735 -1.764240800218887 73 53 21
-0.2596591667325406 -0.12318183798107372 -1.7756564174027114 81 58 25
-0.2661270982947329 -0.12400333452538546 -1.7770522145558743 85 63 27
-0.2949720486181195 -0.12754939569672252 -1.763726736919495 89 67 30
-0.2926034432741919 -0.12729454863048012 -1.7708641845541762 89 67 30
-0.29276736242825496 -0.1273481139391654 -1.7763453796662816 86 65 28
-0.2887852514363168 -0.12689705148598693 -1.7845843332871516 78 58 24
-0.29059545146920396 -0.12715113496969094 -1.7889943753731261 80 60 27
-0.2924008245763279 -0.12740463691796555 -1.7934086203847939 81 61 26
-0.2941706993611225 -0.1276538252088275 -1.7978476359809243 89 69 33
-0.29697984674470396 -0.1280294735830925 -1.8015898177340095 85 65 30
-0.2991930075348017 -0.12833259380095358 -1.8057303274210743 87 64 31
-0.2996152339929985 -0.1284178435514136 -1.8110804461490924 87 64 30
-0.30010985124319384 -0.1285119396494719 -1.8163883029505605 85 62 31
-0.3021708961703715 -0.1287965905541021 -1.8206375168174551 80 57 26
-0.30469522951719114 -0.12913758237500705 -1.8245706669020947 83 60 29
-0.2999368122613156 -0.12859298751037634 -1.8334847288993728 82 59 28
-0.3047105310656512 -0.1292075418907051 -1.8358854353305847 81 58 26
-0.30698047141276436 -0.12951763394729043 -1.8399983225839405 80 57 25
-0.30349478229313176 -0.12912806156468815 -1.8480848317376561 78 55 24
-0.30598895231866563 -0.1294654705135881 -1.8520527483849436 79 57 24
-0.30806903903913574 -0.12975254251909682 -1.8563065021377074 81 59 27
-0.3133638815732788 -0.13043027897982484 -1.8583197179671151 81 58 27
-0.31831982730999253 -0.13106675319747182 -1.8605560358453839 80 57 27
-0.32491840103191916 -0.13190272703455608 -1.8616281793494591 74 51 21
-0.3327165029871018 -0.13288430747802588 -1.8618372320398888 78 55 24
-0.33800726807137715 -0.1335611708565556 -1.863790495712705 79 56 25
-0.3260079208181401 -0.13224122335379018 -1.8951436982672292 78 55 24
-0.32063154753364215 -0.13162303623350638 -1.9047384332646067 80 57 26
-0.3423883616907035 -0.13429883497383074 -1.8948736118514264 81 58 27
-0.3435816279963549 -0.1344781075761186 -1.899740289303708 81 58 27
-0.33703091786971956 -0.13371753551802523 -1.9102072255539075 82 61 28
-0.3465310883197672 -0.13490503321914848 -1.9090766826114227 83 63 30
-0.3400410169865695 -0.13415205859776805 -1.9195393526670577 81 61 28
-0.3471551313475624 -0.13504987978787192 -1.9201187572881098 80 58 26
-0.3414352690475889 -0.1343906123281485 -1.9300628546346115 78 55 24
-0.3400824050186047 -0.1342612746558773 -1.936837327491712 77 54 23
-0.33843016842217505 -0.13409571605913986 -1.9438469771944258 74 51 20
-0.34444135420604405 -0.13485964224332347 -1.9452175886449379 76 53 22
-0.33581375019133997 -0.13384832758349535 -1.9574058107146066 79 56 26
-0.33927668786042586 -0.13430326517407049 -1.960665576950694 81 58 26
-0.33803616734299224 -0.13418793695419728 -1.9674211580769865 77 54 23
-0.3368975079420329 -0.13408504424864348 -1.9741152459199083 75 53 26
-0.3381503322603346 -0.1342721073588634 -1.9790323617330863 76 54 27
-0.33983534412785144 -0.1345115717286262 -1.9836284461164346 70 49 21
-0.3434584421351848 -0.13498590938685712 -1.986766113679184 60 41 15
-0.34912693637445885 -0.13570804554858895 -1.9883513904804289 57 36 12
-0.35165154990818664 -0.13604918475724828 -1.9923031941908746 60 38 13
-0.36060248910565557 -0.1371688153814979 -1.9913686384871603 70 46 18
-0.36468045150201744 -0.1376980003594495 -1.9941179681285324 67 43 15
-0.3720234316591796 -0.13862257734942968 -1.994362162733749 77 54 22
-0.36547376263236775 -0.13786457597142637 -2.0052348519780705 82 59 27
-0.3660648317636397 -0.13825601600647985 -2.0579762362272764 80 57 25
-0.37446230487757265 -0.13930765523209948 -2.0573055291679347 79 56 24
-0.3935127010272964 -0.1416476287058574 -2.0481735965344003 81 58 26
-0.3973683922189733 -0.14214949417816342 -2.051026516716637 83 60 28
-0.3936545016034797 -0.14173595131279673 -2.0598975619464137 82 59 27
-0.3835242974661991 -0.1405467562612891 -2.073917824966856 80 57 25
-0.3936510928538596 -0.14180693699614827 -2.071774160823011 80 57 26
-0.39244515579032085 -0.14169694187686982 -2.078693637693674 94 74 44
-0.3958129130073811 -0.14213986351666294 -2.0819450016415506 87 65 35
-0.3979589409460343 -0.14243509460233392 -2.086177036951413 96 71 25
-0.3986363161781283 -0.14255284679468072 -2.091598152295725 140 111 55
-0.39925908554338263 -0.14266403953720652 -2.097070027807447 172 140 93
-0.39870432780326664 -0.14263300898382203 -2.103507684812995 135 108 70
-0.3976970707902022 -0.14254738885392024 -2.1103270968861847 95 72 38
-0.40316155241360135 -0.1432435601595105 -2.11185952134965 90 68 31
-0.40087849646406143 -0.1430039386549702 -2.119740503035406 93 69 33
-0.41784143915096383 -0.14508857860502097 -2.1117871262488763 95 71 35
-0.4238660660713873 -0.14585204770946594 -2.1128007112861265 99 75 37
-0.42594630167172415 -0.146139192976861 -2.117063536313282 98 74 36
-0.42871945260129596 -0.14650998468336707 -2.1207505972143 88 64 26
-0.4318069998964145 -0.14691870501878473 -2.124172382664135 89 65 27
-0.4296599687058688 -0.14669563833638566 -2.1319626829198834 90 66 29
-0.42806491991618206 -0.14653930100178253 -2.139310267206662 90 67 27
-0.4320510606607243 -0.14705649961344758 -2.1419858928107716 95 72 31
-0.42944323435796433 -0.14677810176780065 -2.1502080575374847 100 77 36
-0.43530740346022206 -0.14752183663050367 -2.1512943855086863 99 76 35
-0.44726864629094826 -0.14900088373616122 -2.147197016186615 96 73 32
-0.4518257614160361 -0.14958667930855374 -2.1493434588808773 100 77 36
-0.45230781879811705 -0.14968099208302815 -2.154949937103788 101 78 37
-0.4529464362657581 -0.14979422707714127 -2.1604301175697347 95 71 30
-0.4541820223687771 -0.14997947398716704 -2.1654055849292244 96 71 31
-0.4542888916398718 -0.15002868078969406 -2.1713546665638463 97 72 31
-0.45742706972291636 -0.15044331567311908 -2.1747015471663853 94 69 28
-0.45911726701313615 -0.15068341112755038 -2.1792941739211087 96 71 30
-0.46500004366805336 -0.1514287398531685 -2.180256545874286 101 76 35
-0.46353423848098496 -0.15128853047337254 -2.1875842306050703 100 75 34
-0.47231877321696103 -0.15238333419979444 -2.185999804840654 98 73 31
-0.4768684880847838 -0.1529678138959616 -2.188082125479431 102 78 34
-0.46988782767150017 -0.15216343116396677 -2.200251983568165 110 86 42
-0.484131914625472 -0.15391544291598824 -2.193823219947583 106 82 38
-0.4866593277245709 -0.15425621172180104 -2.197654893503945 107 83 39
-0.4890325115938461 -0.1545783969284456 -2.201620448599068 109 86 39
-0.4882131967066904 -0.15451623401787418 -2.2084116611978577 98 76 29
-0.49341847283942675 -0.1551793553583286 -2.20986684577551 99 78 31
-0.48439296944148413 -0.15412958517685 -2.223978500317884 98 77 30
-0.4996396848970345 -0.15600115820723026 -2.2164717028304333 100 78 30
-0.5010108191279332 -0.15620270308060313 -2.2213237364854868 104 82 33
-0.5020412543443611 -0.15636327663699395 -2.2264849335177006 109 88 40
-0.505192348422815 -0.156778995325643 -2.229742024884994 111 90 43
-0.5084007617212791 -0.1572015760457131 -2.232941949588459 114 93 47
-0.5082345273093067 -0.15721825191739017 -2.239190676736006 97 80 42
-0.5123106402096298 -0.1577451594967847 -2.241599928803288 82 67 37
-0.5156679773641533 -0.15818558066156907 -2.2446532995332236 77 65 41
-0.5201833557227935 -0.15876518945092244 -2.246643427118544 83 72 51
-0.5251235596450227 -0.15939579342237503 -2.2482326000921735 83 72 55
-0.5133982271219897 -0.15802317672169117 -2.265097832167788 99 93 79
-0.8449432696208554 -0.19964659694313458 -2.25576344517328 215 215 215
-0.851430955888379 -0.20045594045369383 -2.2547251139787354 215 215 215
-0.8508498719856268 -0.20042156761128502 -2.2611573251227672 213 213 213
-0.8502676061990982 -0.20038713349264686 -2.267604055101264 212 212 212
-0.8513493932308654 -0.20055130763848578 -2.27229044810593 215 215 215
-0.8498835407044354 -0.20041160539085937 -2.279703461586931 216 216 216
0.15697542222067523 -0.06256516434094056 -1.2371774981446662 191 192 193
0.13831903265902495 -0.06492425958926842 -1.2350963522503469 190 191 193
0.11985779703614718 -0.06725867817761483 -1.233037069344248 188 187 187
0.1019046914315937 -0.06952933465871987 -1.231125855348585 137 131 125
0.08519947148230728 -0.07164385489888675 -1.229662670081652 116 101 85
0.06865096623796041 -0.07373853793705026 -1.2282131175131843 127 107 86
0.05252464486832931 -0.07578023817056549 -1.2268855558025382 130 108 84
0.03711387358652407 -0.0777323364684856 -1.2258015183479554 128 109 85
0.028625833867757022 -0.07881986993675993 -1.227503055160623 125 108 88
0.01612765431120311 -0.08040792468851488 -1.2275358124284634 119 103 83
0.006442355398754929 -0.0816446441636087 -1.2286928302549331 111 96 77
-0.007951894140599658 -0.08346901742309877 -1.227873727932601 112 96 79
-0.013918756753686035 -0.0842412932771861 -1.2305165029095464 110 94 78
-0.03397298079778027 -0.08677168980491015 -1.2272637885935325 107 91 75
-0.061837746103741764 -0.09027648644713375 -1.2206743648674965 104 88 72
-0.052967575902699515 -0.08919672940771385 -1.2294607685284549 116 101 81
-0.04825604977155945 -0.08863608432425366 -1.2365268867264732 118 106 83
-0.0362654568730737 -0.08716736033225096 -1.2467059005258188 99 89 73
-0.021850747685731642 -0.0853964645692024 -1.2579666198045076 95 87 78
-0.009144358973270372 -0.08383898968648379 -1.2685534370656797 136 132 124
-0.0010973117268214816 -0.08286300286828796 -1.2771896559228646 139 136 127
-4.854994628961107e-05 -0.08276011526903067 -1.282842061814644 134 127 119
-0.003415156284223675 -0.08320798250911501 -1.2865928958903226 102 92 84
0.0006497841450782693 -0.08272901289125331 -1.293571037850497 87 76 65
-0.0025651782804207435 -0.08315799076191811 -1.2973920344698464 88 75 58
-0.0048486016566571255 -0.08347078944332045 -1.3016174126383915 88 72 55
-0.0006943719872188892 -0.08298090482559514 -1.3086754522776265 89 72 55
-0.004274574286912247 -0.08345543314535228 -1.3123376481483597 87 70 52
-0.0012838656274469784 -0.08311076240329077 -1.3189096855078277 90 73 54
0.0072798271146539695 -0.08207147716640552 -1.327981761231241 86 73 54
0.008841402008889498 -0.08190518868837807 -1.3339602841338374 90 77 59
6.441866129802687e-05 -0.08302754511468433 -1.3353104606822643 91 78 61
-0.005269442875018515 -0.08372066405536718 -1.3381888032580003 89 76 58
-0.011518792048167359 -0.08452780834288985 -1.340641438663217 73 59 40
-0.016715208196809606 -0.08520366810140644 -1.3435575970937694 71 57 36
-0.027289894193704145 -0.08654959997361521 -1.344010181153756 80 66 43
-0.033407888745796976 -0.08734010933059307 -1.3464727816401758 88 72 52
-0.04214446129922217 -0.08845676575705504 -1.34771759464862 82 68 49
-0.04386653619056147 -0.08869949058230492 -1.3521747569409386 76 62 41
-0.04286343308248741 -0.08860276957253435 -1.3578952586228783 97 80 56
-0.04536380768387244 -0.08894247256059785 -1.3619979133642552 109 90 65
-0.04850532409495256 -0.08936201659032746 -1.3657998033888874 106 85 58
-0.05333281718348826 -0.0899914992882121 -1.3688079780803946 121 96 68
-0.05513518027494907 -0.09024423023062743 -1.373228942166597 122 95 68
-0.06253792122659496 -0.09119428868506704 -1.375006989695935 130 103 76
-0.07454934167002375 -0.0927180420975328 -1.3745818442811935 131 105 77
-0.07862146334326786 -0.09325320698141731 -1.3778974800700385 138 112 84
-0.08719056687389404 -0.09434813699951312 -1.3790585639793778 136 109 79
-0.08668569172350532 -0.09431345960840977 -1.3845452613080818 128 101 73
-0.09216182272486101 -0.09502325783024883 -1.3871636875257154 131 104 75
-0.10353254892955904 -0.09646660285346505 -1.3869230775961539 126 101 75
-0.10401440098135012 -0.0965546945188999 -1.3919268679915078 114 93 72
-0.10268734877938168 -0.09641772426637323 -1.3978164602850311 121 98 70
-0.10857817401687064 -0.09717891147845137 -1.400193304761316 173 143 103
-0.1128557337845198 -0.09773930706868306 -1.4033469525967557 168 137 97
-0.12713342745615708 -0.09954373958121855 -1.4015721762157887 159 132 99
-0.12918788822752614 -0.09982740341344118 -1.4057890965549602 132 108 78
-0.13964977790284605 -0.10115683968358335 -1.4058385603627586 128 105 75
-0.13237493297375663 -0.10028006963962165 -1.4146813495860697 132 107 71
-0.1378373794670643 -0.10098758248293109 -1.4171979647142505 163 135 91
-0.12872627747253695 -0.09988270209979251 -1.4270060120626284 165 136 92
-0.1600627841797444 -0.10380759315006648 -1.4165089186402156 160 133 92
-0.16917703464102068 -0.10496884646977654 -1.4171231339193109 141 115 76
-0.14856416009890672 -0.10243406019625699 -1.43277430964116 164 138 100
-0.15521273627062626 -0.10328880034119978 -1.4346449791174136 142 115 75
-0.15816140749085722 -0.10368352225636407 -1.4383870308072386 156 127 86
-0.1615104044720057 -0.10412798536545843 -1.4419205890766915 175 146 103
-0.17968874506363908 -0.10641552705059919 -1.437825109554832 162 133 95
-0.17046334972502147 -0.10529707255524116 -1.4478094381102131 141 113 77
-0.1716242439132034 -0.10546952325702019 -1.4524571252151173 152 126 90
-0.17718507803791222 -0.10618871760627255 -1.4548213293900119 149 123 88
-0.18224188653019835 -0.10684521696942283 -1.457435206083657 143 116 80
-0.1834611141492905 -0.10702488337403558 -1.4620464925717533 153 126 94
-0.19968925637657858 -0.10906908687519654 -1.4587762960814148 157 131 95
-0.1906823625650787 -0.10811992552498505 -1.4951142911749142 108 82 47
-0.19220373457192458 -0.10833724791229746 -1.499589445130848 109 85 49
-0.20151028000911836 -0.10952108329387567 -1.4998594130725857 112 89 54
-0.2092185228150119 -0.11050636271780256 -1.5009684974513469 99 75 41
-0.2102172749199756 -0.1106587023951807 -1.5057072250035286 90 65 34
-0.21119247122179935 -0.11080813916149197 -1.5104626782613855 90 66 32
-0.21425678879896676 -0.11121686917285287 -1.5140772495128931 97 73 40
-0.21921054629701903 -0.11186004869282284 -1.5166487956202948 93 70 37
-0.2241581609588672 -0.11250240564982854 -1.5192124983583326 90 66 35
-0.22638231120650054 -0.11280678850737935 -1.5232730425591225 62 38 13
-0.22792684532503715 -0.1130268506038374 -1.527710395759493 82 59 27
-0.23022167636165863 -0.11333999990809954 -1.5317311926889456 82 59 25
-0.21771681373228757 -0.1118173294105809 -1.5440312040714272 90 67 33
-0.21651783387790863 -0.11169726960870113 -1.55003978147107 85 62 28
-0.22310151871427808 -0.11254250869226481 -1.5516764521069506 82 61 28
-0.23246185998866387 -0.11373199468674106 -1.5517259413902422 82 61 30
-0.23261874164217783 -0.11378007524000426 -1.556967323467435 93 71 41
-0.23429190618879442 -0.11401620169100206 -1.5613529147585057 80 59 30
-0.23348419658451453 -0.11394475203533219 -1.5671566192735253 85 64 32
-0.2279973094444589 -0.1132932772170654 -1.5756525736478253 93 72 39
-0.22282982307178067 -0.11268155236976332 -1.583994070581104 82 59 27
-0.22921950306121092 -0.11350249413059393 -1.5856960537548994 93 71 41
-0.23324897128191768 -0.11403081990484161 -1.588747275602246 68 46 20
-0.23799777357896068 -0.11464825035630051 -1.5913728659941824 88 66 33
-0.24093501746222185 -0.11504113705578059 -1.5950435304774233 127 104 70
-0.24371758773154983 -0.1154148391285973 -1.598801052869216 88 66 30
-0.25067794111099134 -0.11630614390013601 -1.6001044963331597 133 112 75
-0.25931862931541994 -0.11740551673436635 -1.6003993820097107 125 101 61
-0.26885723482876767 -0.1186159807342792 -1.6001378669421649 149 120 81
-0.2793263819927572 -0.11994154813748126 -1.5992952521709551 148 124 85
-0.28910194909601594 -0.12118103236377117 -1.5988316221800165 114 94 66
-0.2933133129685077 -0.12173125262665259 -1.6016565832146488 123 104 75
-0.301293540024953 -0.12274814068128798 -1.6022169969548903 104 83 53
-0.30468848375527 -0.12319713426797968 -1.6055071890042079 135 110 75
-0.30708580437683164 -0.12352257906853428 -1.6093928623394427 159 135 93
-0.3046996675634306 -0.1232558115311793 -1.6161684316634772 182 159 120
-0.3025196039627312 -0.12301464768410654 -1.6228364385147938 176 150 118
-0.3053834690742636 -0.12339791578169192 -1.6264520028292724 158 132 97
-0.3092769034490909 -0.12390859530389628 -1.6294355749510538 149 128 98
-0.316648357282091 -0.1248496721295705 -1.6302813773007014 149 128 98
-0.3149832257268163 -0.12467236667954305 -1.6366583309088967 143 125 99
-0.3250437503575671 -0.1259460494238715 -1.635821366868064 136 118 90
-0.33752454626401374 -0.12751901150477524 -1.633455081112791 104 84 54
-0.33851408150902984 -0.12767008904543653 -1.6381768371788077 80 59 30
-0.34087425359032264 -0.12799074340984146 -1.6420493351785226 78 57 28
-0.3195542158051282 -0.1253822713665149 -1.6607092493936226 81 60 29
-0.31749406388928647 -0.12515644313939328 -1.6673960595026296 91 71 44
-0.31088550293466266 -0.12436818744952959 -1.6769582895902715 79 59 32
-0.2793294842345349 -0.12049506257826605 -1.7022872757228071 88 68 41
-0.27894620899362516 -0.12047721843974361 -1.7080317004117294 77 57 30
-0.2787622472724532 -0.12048407017039695 -1.7136594368444575 82 62 34
-0.2789620262575159 -0.12053841197401462 -1.7190518650179363 73 52 22
-0.2802971013445589 -0.12073313746934478 -1.7237266105633866 102 80 47
-0.28040671930963246 -0.12077640261791107 -1.7291894593756907 109 85 50
-0.2853907944222792 -0.1214221759098339 -1.7315267552009102 102 80 46
-0.281813670981227 -0.12100984431164613 -1.739372868193267 90 72 42
-0.2998628213676281 -0.1232700920010154 -1.7332514131107746 84 67 39
-0.28973730603417713 -0.12204862741913414 -1.7453489626240963 55 35 6
-0.2713010248850862 -0.11980061632432873 -1.7629071395326235 77 56 24
-0.25887255009972837 -0.11832553875444181 -1.7822619559676909 85 63 27
-0.2769838765469475 -0.12059294814656903 -1.7760031413223842 85 63 26
-0.2837805367947274 -0.12146254855196033 -1.7771376347776777 87 65 28
-0.29137255228307274 -0.12243026717752406 -1.7777264235061019 84 63 25
-0.29012038194012585 -0.12230573125366785 -1.7841598513808228 80 60 24
-0.29249680435280573 -0.12262930789047251 -1.7881920523138706 76 56 23
-0.2957741006165855 -0.12306410206643961 -1.79162144137851 75 54 22
-0.2954465608538609 -0.1230538437334512 -1.7974598383062756 81 61 27
-0.2962640531116658 -0.12318498248548303 -1.8025389283837756 83 62 29
-0.30262731983476365 -0.12400066232418477 -1.8038859832570022 84 61 29
-0.2962152691173531 -0.1232395347265374 -1.8138507259949546 88 65 33
-0.29250558933125576 -0.12281208979189334 -1.822018556553274 84 61 30
-0.30237686073324643 -0.12406060891649458 -1.8209731912321407 81 58 27
-0.3031515729673761 -0.12418657581375868 -1.826101307566211 81 58 27
-0.30455250852772325 -0.12438983079426041 -1.8308062160372574 78 55 24
-0.30377340092273414 -0.12432416609076097 -1.8370104597640387 78 54 24
-0.30596530182554804 -0.12462504133507105 -1.8411807937165439 78 55 25
-0.3040302888474091 -0.12441690303130207 -1.848201123056553 75 52 22
-0.30598967892638584 -0.12468914386918314 -1.8525401217792643 69 48 20
-0.30724383402807587 -0.12487441983509324 -1.8573696491665976 66 45 19
-0.3114234990202952 -0.1254204441081317 -1.8601632007692621 61 41 16
-0.3144528067466398 -0.12582458813286035 -1.863752071179257 64 43 19
-0.3186904386255501 -0.12637767453938362 -1.8664892985035004 63 43 18
-0.32387565456108025 -0.1270475200721085 -1.8685505573114476 71 51 24
-0.32965256276401356 -0.12779022502408707 -1.8701808745328652 74 54 25
-0.33551921351144537 -0.1285439046886416 -1.8717316889968667 77 55 24
-0.33821808208386 -0.12890711121044165 -1.8755150282553423 76 53 22
-0.3231582557623863 -0.1270819959009084 -1.891941325182334 76 53 22
-0.3242019856178307 -0.1272414430140253 -1.89693944421932 77 54 23
-0.32836955298105913 -0.12778577464572055 -1.8997040131341447 77 54 23
-0.33547954970508753 -0.12869253447918613 -1.9003451465283916 79 56 25
-0.3466880787603427 -0.1301040264303154 -1.898010488740127 81 58 27
-0.34163252950876716 -0.12951211555435505 -1.9073933182886345 82 61 29
-0.3358306095647974 -0.12882845104976792 -1.9173481373825896 84 63 32
-0.33752356038865744 -0.12906791204398183 -1.9218865483030312 82 61 30
-0.3324926571892998 -0.12847946345783418 -1.9313310177820924 82 60 29
-0.33018992386065643 -0.12822707251419613 -1.93881048228944 80 57 26
-0.3390366403095691 -0.12934737080643266 -1.9381277737932265 77 54 23
-0.33232950471684997 -0.12855288834255052 -1.9488625199709217 73 50 19
-0.3291041886549156 -0.12818717027984144 -1.9570655496834026 75 52 21
-0.33473626791474564 -0.1289116808066137 -1.9587342095030582 81 57 28
-0.3410064196730038 -0.1297146290589279 -1.9599134143956782 82 59 28
-0.3440373637487919 -0.1301188963419339 -1.9634865250590319 80 57 25
-0.3431227548840457 -0.13003769069243146 -1.9700025316955916 70 45 19
-0.34438441330552977 -0.13022429186301127 -1.97490131068362 64 42 16
-0.34394164687586837 -0.13020124482954903 -1.9810843132980356 56 36 11
-0.350087490335045 -0.13098866730087985 -1.9823133160827746 53 34 11
-0.3536764861206374 -0.13146152664167002 -1.985456719921821 53 32 11
-0.35841999958718873 -0.1320763296586215 -1.9877181935487922 57 35 11
-0.3648862705108995 -0.13290290894850004 -1.9886580045251776 82 58 30
-0.3669609142390424 -0.13318941526874636 -1.9929267387691547 68 45 16
-0.37500783006540145 -0.13421016354502485 -1.9926282951480228 75 52 21
-0.3720233230249349 -0.13387467666889186 -2.000763675342124 82 59 26
-0.3672881704818036 -0.13348257517831202 -2.039771845691791 142 118 75
-0.36245701297403526 -0.13295288001166028 -2.0554309819932635 81 60 27
-0.370688189064284 -0.1339958407780199 -2.054909551042971 80 57 26
-0.37387625053794576 -0.13441931290818712 -2.0583417569716147 79 56 25
-0.38475346414810346 -0.13578695890780543 -2.055680739705118 79 56 25
-0.3933856599559286 -0.13687873652454013 -2.054762284114635 81 58 26
-0.39874062538076194 -0.13756800097723504 -2.056423665050513 81 58 26
-0.38645007204763665 -0.13609102519914684 -2.07216226199122 79 56 24
-0.3899415829234398 -0.136551610387789 -2.0753263695289665 77 54 22
-0.3946924977643425 -0.1371667336634156 -2.077472383649221 89 69 37
-0.3994188318267214 -0.13777877413926953 -2.0796258754244037 95 75 42
-0.4003496274326152 -0.13792499669820202 -2.084833212297611 90 68 27
-0.4010614648978113 -0.1380443815732564 -2.090223154928995 134 107 53
-0.4029342712817336 -0.13830623424673608 -2.0946761447369697 175 141 91
-0.4019283838659495 -0.13821495299223 -2.1014754065050565 151 122 81
-0.40222444850979366 -0.13828344665107298 -2.10722513311418 94 72 36
-0.40437243325228056 -0.1385791194404668 -2.1114656727892847 87 65 28
-0.40659975433040074 -0.13888451977494407 -2.115640661616185 92 68 32
-0.41450248283881946 -0.13988585390750363 -2.1151382680018944 96 72 36
-0.42372586573018056 -0.14104896864908814 -2.1135173677867956 100 76 38
-0.4253301322363383 -0.14127781288849453 -2.1181768996846877 99 75 37
-0.43028774326983443 -0.14191774095121282 -2.120051856417976 90 66 28
-0.43323262461161394 -0.14231088939250194 -2.1235905804680315 90 66 28
-0.4384789367545667 -0.14298608026989526 -2.125201816270955 92 68 30
-0.43352174751812533 -0.14241077195929747 -2.135349198540464 92 68 29
-0.4347415566267302 -0.14259254160840182 -2.14033835690576 94 71 30
-0.4362154987624922 -0.14280546959620535 -2.1451173008781246 100 77 36
-0.4385246855257847 -0.14312073831092761 -2.149193126502437 99 76 35
-0.44909879959810595 -0.14444843230750648 -2.14626331425617 90 67 26
-0.44996415116890137 -0.14458673570103464 -2.1515442793096873 99 76 35
-0.4507367312621206 -0.14471370748623064 -2.1569099471022146 99 76 35
-0.4512607514572139 -0.14481027357494933 -2.162494130690369 100 76 36
-0.45209624238349944 -0.14494501727747072 -2.1678186796972807 97 72 32
-0.4546124811801478 -0.145285572174434 -2.171704666575192 98 73 32
-0.46542841957520914 -0.14664217051415301 -2.168436125408046 95 70 29
-0.46246762755822723 -0.1463121636108053 -2.177030866922291 99 74 33
-0.4720603780327471 -0.14751877662756177 -2.1747713993113678 102 77 36
-0.47323993290515665 -0.14769557062900332 -2.1797863662037495 99 74 33
-0.46949597853440633 -0.1472699010700716 -2.189095599364232 100 76 34
-0.4731819581940237 -0.14775348049945952 -2.1919407828621544 106 82 38
-0.47786236435724033 -0.14835867914621018 -2.1939068170035605 110 86 42
-0.4805283450729876 -0.14871738421438727 -2.1976299961948285 113 89 45
-0.483193135523575 -0.14907592771166944 -2.2013512483600985 105 81 36
-0.48575786290999173 -0.1494222170689452 -2.205157921206372 105 82 35
-0.4886484084321 -0.14980833774474228 -2.2086734697712966 95 74 27
-0.4916814916199498 -0.15021186572354892 -2.2120583162436955 97 76 29
-0.4909517291986917 -0.15015530282179557 -2.218789986934369 95 74 27
-0.49363578668459396 -0.15051615940329482 -2.2224861447371 99 77 28
-0.5012516209053726 -0.15147985482830695 -2.221762332923291 109 87 38
-0.5040448490444719 -0.15185395678422703 -2.225342184013444 115 93 46
-0.5060378972925468 -0.15213024690087823 -2.2296389239416605 108 87 39
-0.5101117656723484 -0.1526608135939315 -2.2320570467412844 113 92 43
-0.5115773223853319 -0.1528726267036145 -2.2368267699714863 106 89 49
-0.5155317236865339 -0.1533885249137432 -2.2393397937342536 88 74 43
-0.5176196443468697 -0.15367636351136166 -2.243542511778877 82 69 45
-0.5197329250253899 -0.15396729852326904 -2.2477218529597227 72 61 41
-0.529000931694917 -0.15513206176327385 -2.2453522538311903 74 63 48
-0.5091632625157005 -0.1527422485315225 -2.2696588593289664 95 89 75
-0.8547033458429988 -0.19654775026899304 -2.251978185893418 215 215 215
-0.8535006952707549 -0.19643300770822544 -2.259063680577173 215 215 215
-0.8524944624471995 -0.19634218737245737 -2.265956937482642 215 215 215
-0.8510848264248105 -0.1962025088982352 -2.2732959164679403 215 215 215
0.14798376404922747 -0.05869909756894755 -1.2338722579886063 192 191 193
0.12942240483101775 -0.06107236950423926 -1.231813787217339 191 189 189
0.111054488984416 -0.06342090773706427 -1.2297767989822415 139 132 126
0.09417877430580485 -0.06558043434371619 -1.228282340193839 120 108 91
0.07759902475930419 -0.06770228904781782 -1.2268567604522154 130 113 85
0.06149874607182276 -0.06976326951421556 -1.2255755899271477 141 121 91
0.05034237993925694 -0.07119877997901827 -1.2262520715144287 125 106 78
0.03387735553510318 -0.0733054741611097 -1.22473521858188 130 112 89
0.02213927686646794 -0.07481420718068095 -1.2251027286337761 121 105 84
0.008148795511380647 -0.07660758500173304 -1.2245119790354093 113 97 78
0.0007342313509137721 -0.07756934240535703 -1.2265927220162611 105 90 71
-0.010143656248817468 -0.07896887072516356 -1.227220633725242 106 90 74
-0.024627535144308432 -0.08082412126171754 -1.2263184798760298 109 93 77
-0.04062542022480531 -0.08287055619005562 -1.2247412424453765 102 86 69
-0.038326860342490554 -0.08260404472972141 -1.2307885002724999 102 86 70
-0.05800869217416876 -0.08511580418768838 -1.227595317494764 107 90 73
-0.04390096204757582 -0.08335673726476528 -1.2386274942623992 121 106 81
-0.03967035535215396 -0.08284618672896901 -1.245522339268295 114 100 81
-0.03503003131357996 -0.08228396295459928 -1.2526135596475396 98 88 77
-0.02725436682041421 -0.0813256618020002 -1.2610699106338243 102 95 85
-0.024586542443906012 -0.0810129155747798 -1.2673653501781645 116 110 100
-0.01919361005653819 -0.0803559424959989 -1.2748530567852903 114 105 95
-0.0225286346664072 -0.08080175642079551 -1.2785855575437592 108 98 90
-0.019945025168628727 -0.08049985544377465 -1.2848880420393742 81 70 58
-0.0049048718604604025 -0.07862451404866272 -1.2966467589579778 81 69 51
-0.008227341392129162 -0.07906887991815201 -1.3004139131384091 85 71 51
-0.006340762488013407 -0.07885530164569594 -1.306469828202372 90 74 55
-0.008122276563436615 -0.07910505335436564 -1.3109184366059297 75 58 38
-0.004942153709297292 -0.07872821795251099 -1.3175697294034756 93 77 55
6.382055365716788e-05 -0.07812090328074257 -1.3250529331719414 97 81 58
0.0016296651842134802 -0.07794809430383838 -1.3310224980813594 94 77 57
-0.00523284155542586 -0.07883952981343433 -1.3332204454308736 88 72 52
-0.012942876785778157 -0.07983788940889769 -1.3350194614567314 82 66 46
-0.019021948918268083 -0.08063025289466709 -1.3375366726244957 76 61 39
-0.021166808043544205 -0.08092590511352947 -1.3418271457599682 74 58 38
-0.03041561904477552 -0.08211828002620991 -1.3428772319479232 83 67 46
-0.04046261023165182 -0.08341128111331345 -1.3435363569565357 83 68 48
-0.056191071464918974 -0.08542121800765852 -1.341555540313562 85 71 52
-0.05149915166197072 -0.08485379855429592 -1.3489489064015014 76 61 40
-0.05169570637731258 -0.08490339497454492 -1.3541018812968617 80 63 39
-0.05298936372799479 -0.08509146273691742 -1.358751356093801 112 92 67
-0.05036205352616907 -0.08478480260950202 -1.3652339225813117 111 90 63
-0.058669254947676885 -0.08585782717584468 -1.3666094071848445 124 101 73
-0.060968776863611907 -0.08617280909390089 -1.3707884701223474 131 104 75
-0.0651190808584326 -0.08672126838033718 -1.3740927617870113 145 117 85
-0.07481072499078362 -0.08796870068052186 -1.3747629946800828 130 101 69
-0.08068382977244998 -0.08873434847351881 -1.3772225596329155 152 123 94
-0.09614379311953586 -0.0907090952875265 -1.3750896760769793 150 122 92
-0.09871960676521807 -0.09105868063750762 -1.3790850689868168 142 115 87
-0.10248911941305311 -0.09155879445443088 -1.38250411052054 136 108 79
-0.10222822621156902 -0.0915506381422115 -1.38786369943457 144 114 84
-0.10991386183356988 -0.09254452303086648 -1.3893788228468131 131 103 73
-0.10724806086002725 -0.09223315622150019 -1.395911088661101 136 110 75
-0.10421074176359973 -0.09187503097443878 -1.4026419690902467 168 138 96
-0.11096595635503154 -0.09275151042877132 -1.4045900417865083 171 140 98
-0.12419380582063172 -0.09444383958675204 -1.4033355403497811 142 117 81
-0.13099124855168226 -0.09532542324664224 -1.4052165058552513 130 107 78
-0.1352190445816746 -0.09588304299648713 -1.4083540425890795 104 81 52
-0.13554435805642795 -0.09594878473227397 -1.413425497209344 138 113 77
-0.14419574857954526 -0.09706384081603919 -1.4143446775727364 158 128 85
-0.13042520294212867 -0.09535327679904336 -1.4264795918331252 161 133 89
-0.14169245887291054 -0.09679791373510081 -1.4260751798573315 155 130 88
-0.14508891099623056 -0.09725068589767565 -1.4296113597375946 157 131 90
-0.14962412238894662 -0.09784690545240994 -1.4325653447276765 167 140 99
-0.1533703737492474 -0.09834368779272945 -1.4359113968940738 156 128 87
-0.15923168243249436 -0.09910687715041079 -1.4381712893893428 167 138 97
-0.16184908717505098 -0.09946138808972019 -1.4420790938107486 148 120 79
-0.17397849108722613 -0.10101396312781266 -1.441093228236774 145 120 85
-0.1847431216694252 -0.1023944738020237 -1.4407741416505835 142 117 85
-0.17258265208410428 -0.10088772544711591 -1.4522968616131984 147 122 85
-0.1770903354007345 -0.10148020751988168 -1.4552078479738975 159 134 95
-0.18351513522363916 -0.10231404664228148 -1.457109393418334 132 107 70
-0.18474247365943364 -0.1024933958778977 -1.4617156844423331 145 121 85
-0.1842589788803251 -0.10245736336298741 -1.467223875247172 151 124 85
-0.18281238085496848 -0.10242513233461088 -1.4996901567237029 94 69 32
-0.19288115807695 -0.10371728376438277 -1.4995779417588135 103 79 42
-0.19913728363213595 -0.10452954608830932 -1.501496087385323 102 79 42
-0.21187905960259035 -0.10615776212642287 -1.4998802094980648 96 72 38
-0.2147418824081221 -0.10654289655986098 -1.5036009138914486 66 41 14
-0.21400231587049956 -0.10647482499116334 -1.5092860977195097 91 67 34
-0.21759470271945602 -0.10695173587518479 -1.5126072898575669 90 66 31
-0.22211167807234444 -0.10754491742478185 -1.5154138949378118 82 59 26
-0.21305894780991658 -0.10643131398178113 -1.5257007460460266 83 60 28
-0.21566299433057207 -0.1067839449903504 -1.5295736639707591 67 43 16
-0.21791406917138806 -0.10709217651120459 -1.5336405137302656 86 63 33
-0.21976519600015182 -0.1073501109268623 -1.5379295222151776 82 60 25
-0.22321570528720047 -0.10780915386336795 -1.5413241182170603 84 62 29
-0.22251963653165996 -0.10774681999823386 -1.547041713647461 92 71 37
-0.2245397586855724 -0.10802601848984657 -1.5512392564219992 68 47 23
-0.22784587200439405 -0.10846688162746766 -1.55470968341506 61 40 16
-0.2280625035435796 -0.10851936421204182 -1.5599279326572197 79 58 31
-0.23181085868164497 -0.10901579558385285 -1.563142618024827 77 56 26
-0.2319174124787831 -0.10905447676332095 -1.568430869108582 83 63 30
-0.23019205687379596 -0.1088629670065105 -1.5747765300227883 91 71 37
-0.22604406510681646 -0.10836708251077314 -1.582530039642115 82 60 31
-0.23267447915520084 -0.10922569435191501 -1.58408784391765 79 58 32
-0.23885807299817274 -0.11002807928592742 -1.585886398179451 58 37 14
-0.24201355834395022 -0.11044994009024285 -1.589427910247455 90 69 38
-0.24598246380409744 -0.11097396932815769 -1.592490823948394 127 104 69
-0.24836328911754607 -0.11129846770708234 -1.5964749311115394 111 85 50
-0.25636298976642263 -0.11232875075812544 -1.5971602344403917 135 111 77
-0.2627697673604045 -0.11315884911919567 -1.5987599471124767 132 105 69
-0.2713317736950691 -0.11425954563434075 -1.5990691133573454 132 104 67
-0.2810872929108456 -0.11551000482112489 -1.5986450019036944 143 119 79
-0.2893684732352218 -0.11657518138607983 -1.5990671094982964 111 90 61
-0.2941994018073786 -0.11720701243498621 -1.601523132340395 126 105 72
-0.30286786767094953 -0.11832061176844037 -1.6016704842222274 114 95 59
-0.30560062770105123 -0.11868888500762963 -1.6053566984213576 141 117 78
-0.3082973821856296 -0.11905262427195694 -1.609061654133532 148 123 78
-0.31817141689606976 -0.12031729030596564 -1.608424164390453 191 167 128
-0.32143487158065687 -0.12075206594304572 -1.6117654030352753 194 170 137
-0.3253126870378757 -0.12126392448271806 -1.6147276143741685 152 128 97
-0.32888425781448444 -0.1217373139700509 -1.6178692431597839 137 118 91
-0.33455003844231224 -0.12247347346884223 -1.6197215480021296 156 136 107
-0.33940341522495976 -0.12310762311012338 -1.622058395367539 131 113 88
-0.3459571219121342 -0.12395505847168631 -1.6233352193120059 153 136 109
-0.34174888410889886 -0.12345220824910297 -1.6312513815673515 117 98 69
-0.3451474601605702 -0.12390375759913295 -1.6344712354481656 72 52 24
-0.34726653369170635 -0.12419477718834927 -1.63848205000207 70 49 21
-0.3468604802166886 -0.12416906257217168 -1.6440696836386568 69 48 20
-0.31212033050068055 -0.11986276084136312 -1.6766054478479133 76 57 30
-0.2879134177729798 -0.116852805233039 -1.6973034011077994 91 72 46
-0.2844399269525006 -0.11644319047345113 -1.7049879129041023 71 53 25
-0.280828449752118 -0.11601638013988565 -1.7127823798420596 97 79 51
-0.28219779106983767 -0.1162141451143067 -1.7174277323409852 81 61 34
-0.2795250742931351 -0.11590519157872026 -1.724658257894389 80 60 29
-0.282379330705532 -0.11628916271934045 -1.72836553191231 102 80 46
-0.28324744827712683 -0.1164241647751564 -1.7333465215726689 93 72 39
-0.28588433101754424 -0.11678087877559987 -1.7371913724132895 89 70 39
-0.2779019380033603 -0.11580671029133217 -1.747905387133178 95 78 48
-0.2773668147199347 -0.11576600027966352 -1.7538262183652404 65 46 15
-0.27139435800844686 -0.11504400721369104 -1.7632984762701405 63 42 12
-0.26538612122841954 -0.11431768729778595 -1.7728271635981163 92 69 36
-0.2843987818456885 -0.1167527634600161 -1.7715859634353561 86 65 29
-0.28367251670132076 -0.11668827182324357 -1.7776671603534495 84 62 26
-0.29206103124756483 -0.11776553019289163 -1.7777300400815965 83 61 25
-0.29186352722871695 -0.11776728406418538 -1.783464431098163 84 63 27
-0.2917753122012694 -0.11778276913923064 -1.7891353906079606 74 53 20
-0.2907198899026322 -0.1176771746871148 -1.7954611232401723 77 56 24
-0.29528431481628475 -0.11827534888837755 -1.7980352325564712 81 60 28
-0.2944383844103652 -0.11819605158845926 -1.8042343695697176 84 62 30
-0.30361180284945866 -0.11937121877300166 -1.803692044260727 82 59 27
-0.29272395938485424 -0.1180348040808058 -1.8166842550252813 85 62 31
-0.29069342229052586 -0.11780739168163304 -1.8237233070850416 84 61 30
-0.3023094753386413 -0.11928818647376103 -1.8214950619758963 81 58 27
-0.30237250458392173 -0.1193228289300822 -1.8271109958605258 80 57 26
-0.298918057528676 -0.11891730313509229 -1.8351432513925603 77 54 24
-0.30471077269072266 -0.11966906599831521 -1.8368489413503515 77 53 24
-0.30582556765255153 -0.11983541160100632 -1.8417609379084032 78 55 26
-0.30440216782353957 -0.11968420016044024 -1.8484305756776112 62 40 14
-0.3043465258635231 -0.11970417693360896 -1.8541670635907543 60 40 18
-0.30458790300310495 -0.11976135283145005 -1.8597060492202766 59 39 19
-0.3092892751844478 -0.12037645995463402 -1.8621428654694998 58 38 19
-0.3137308850980057 -0.12095902311988908 -1.864750097040208 57 37 18
-0.315989315708689 -0.1212684912610621 -1.8688787630179449 55 35 15
-0.31786269164409764 -0.12152980097978469 -1.8732775177734116 54 34 11
-0.3179310631770653 -0.12156540176531873 -1.8789510819483062 59 40 15
-0.3179995461346134 -0.121601056766174 -1.884633087876952 70 49 21
-0.32256763764942536 -0.12219932889216492 -1.8871283400715158 77 55 26
-0.3246646160829967 -0.12248861692740876 -1.8913729110323692 77 54 24
-0.32599304718616245 -0.1226818298871571 -1.8961663803149391 77 54 23
-0.32813082467046223 -0.12297622385792456 -1.9003830183005754 77 54 23
-0.33770687760172713 -0.12420030502282656 -1.8992530224564894 78 55 24
-0.3363417624222174 -0.12405683880832516 -1.905978150212939 80 57 26
-0.33737969172385207 -0.12421374307355969 -1.9109804815512728 81 59 29
-0.3412810029610057 -0.12472846608152466 -1.913910533036753 84 63 33
-0.3453378185537384 -0.1252625807637407 -1.9167194297445842 82 61 31
-0.34493299261631166 -0.12523923532136513 -1.9227748548042887 83 61 31
-0.331769458028854 -0.12362205240753746 -1.938177717414772 81 58 27
-0.33709232758402796 -0.12431441628509435 -1.9400784780718003 77 54 23
-0.33214349340231175 -0.12372372734107323 -1.9495266527326514 73 50 19
-0.33347627606786157 -0.12391772288318283 -1.9543674825298525 74 50 20
-0.3367803941762439 -0.12435792210608487 -1.9577516605043275 77 53 24
-0.34333904469959553 -0.1252045011164537 -1.958713094830983 79 56 25
-0.34890044277540544 -0.12592646639120592 -1.9603976542549273 81 58 28
-0.3501940293895035 -0.1261155102753156 -1.965255518728759 71 47 20
-0.3512701352352807 -0.1262774193630391 -1.9702797464244766 61 38 13
-0.35091606772320666 -0.12626081773328207 -1.9763832249384294 56 36 13
-0.3576161506630614 -0.12712477620198787 -1.9771800187820874 50 31 10
-0.3621941104610634 -0.12772377310924907 -1.9795605935337925 52 31 11
-0.3661515643700201 -0.1282452776759982 -1.9824004680910068 55 34 10
-0.37073329864163757 -0.1288446461834677 -1.9847571440334746 72 49 20
-0.37108396394428245 -0.12891601118641693 -1.9903295757046002 75 51 23
-0.3756399225206192 -0.12951210177865136 -1.9926928727319753 77 54 23
-0.371768325297973 -0.12905673220269012 -2.001510315094516 83 60 28
-0.3691831472104506 -0.1287619659673051 -2.009364532962827 86 63 29
-0.37095620346934927 -0.12901093166236643 -2.0138765643877607 84 63 26
-0.37260846219535165 -0.12924483686762517 -2.0184833830333746 93 73 38
-0.3740382223767737 -0.12945100173081214 -2.0232647427743187 87 65 24
-0.37287149466674696 -0.1293333847007781 -2.030070072390215 123 98 48
-0.37274249303805435 -0.12934523535194864 -2.0360798801673177 138 113 73
-0.3693779071344411 -0.12895370808456924 -2.0446328302159733 92 70 36
-0.3737270891082012 -0.1295520564341786 -2.0530889059782953 82 59 27
-0.36857800616340497 -0.12893831966343478 -2.063099965728113 80 57 26
-0.37936859539873474 -0.13031147238042334 -2.0605195955119004 78 55 24
-0.3946117351200817 -0.1322393589229158 -2.054362907711024 78 55 23
-0.3951332289988787 -0.13233236041484903 -2.059872862571715 78 55 23
-0.3943271441428754 -0.13225996765790682 -2.066450400350811 78 55 24
-0.399587216654434 -0.13294346580333008 -2.0681812006025675 80 57 26
-0.3963278583865375 -0.13256548620251346 -2.0767421875052987 90 68 34
-0.4000563723208937 -0.13305814276895445 -2.0796972351465786 101 81 47
-0.40251900565235654 -0.13339307869447026 -2.0836675106440667 84 62 27
-0.40500866153907944 -0.13373137171276323 -2.087614052957303 123 96 45
-0.4072407766049233 -0.13403758047978498 -2.0917679219583203 148 116 64
-0.40715420697971827 -0.13405503446746653 -2.0978106623403394 162 134 91
-0.4075990971165029 -0.13413871362778557 -2.103429011392362 97 76 39
-0.4080675418344329 -0.13422536112696354 -2.1090355744346305 89 67 30
-0.4077208031942215 -0.1342105539220984 -2.1153195861381016 92 68 32
-0.41681932283802436 -0.13537162471223646 -2.113829548289473 94 70 33
-0.42158195663637493 -0.13599282097914914 -2.1158907184230538 95 71 32
-0.4260355169706898 -0.13657548843719713 -2.1181954846906024 95 72 34
-0.43195768114369587 -0.1373408784815372 -2.119268275455379 90 66 28
-0.4350820103544972 -0.13775800870050334 -2.122655251645347 90 66 28
-0.4405134848339633 -0.13846220045983343 -2.124108567637388 91 67 28
-0.43963672657233166 -0.13838143440885414 -2.1308341955037973 90 67 27
-0.44070689278465197 -0.138542952108606 -2.1359369335257603 93 70 29
-0.44030463068496034 -0.1385213221333237 -2.1422855897836683 96 73 32
-0.4442110275807503 -0.1390356948720272 -2.145003446509147 92 69 28
-0.4496201134500855 -0.13973692677388277 -2.146438679415763 92 70 29
-0.44974929897471494 -0.13978144266384007 -2.1523464988947434 95 73 32
-0.44992697312322993 -0.13983203155133778 -2.158222120034611 98 74 34
-0.4497890404025608 -0.13984341892470248 -2.164376467993928 97 73 33
-0.4515845928300691 -0.14009525066158302 -2.1688838178114813 89 64 24
-0.4548239089356094 -0.14052657874354998 -2.172151337925164 93 68 27
-0.4584949442382186 -0.1410115471458733 -2.1750410770987587 96 72 30
-0.4636041637723641 -0.14167524332421216 -2.1766799345209544 99 75 34
-0.4658709581036361 -0.14198559315535852 -2.1807679701580693 102 78 37
-0.4689232883652455 -0.14239356135934808 -2.184172203017523 101 76 35
-0.46874584243833084 -0.14240016025234153 -2.1903867135455193 105 80 37
-0.4731322825219128 -0.1429738871585423 -2.1926230944613234 104 79 35
-0.47631832796422535 -0.14339842178276022 -2.195900282463605 111 85 43
-0.47857171837604595 -0.14370706650334208 -2.199991650436912 120 95 51
-0.47835452346738416 -0.14370881327660498 -2.2062592652820716 108 84 39
-0.48098062285250254 -0.14406377033909928 -2.210025321997914 102 79 33
-0.4842225247073485 -0.1444951944537359 -2.2132429363624624 94 73 26
-0.4870072677733691 -0.14486981924142409 -2.216860977028599 95 74 27
-0.49473856370609204 -0.14585865518900515 -2.2160682010821606 94 74 26
-0.4973107892872597 -0.1462068027105179 -2.219856902640725 103 82 33
-0.502372299873376 -0.14686398248170202 -2.2214129957799997 110 88 39
-0.5045144285612329 -0.14715868544343064 -2.2255768302207737 115 94 47
-0.5078193347276665 -0.14759771787041537 -2.2286928076563 108 87 38
-0.5118568686536173 -0.14812765119056365 -2.23114087721132 109 89 39
-0.5119118047507785 -0.14816328400480883 -2.2371860683653857 104 86 44
-0.5162199854332503 -0.14872675590083478 -2.239378524821721 87 72 40
-0.5197190394937343 -0.14918977841549447 -2.2422965987216545 76 65 38
-0.5187960228628381 -0.149104127423479 -2.249245157287855 68 58 37
-0.5289199388838108 -0.1503889922884 -2.246094344423085 72 62 45
-0.5082692883201099 -0.14785623604697293 -2.2711555104047396 93 88 73
0.13619387822844903 -0.05521732817465337 -1.229458995497551 192 191 193
0.1193459621282465 -0.05739716870550757 -1.2280613077979692 160 154 149
0.10268911256667967 -0.059552331160139055 -1.2266899396424704 122 106 88
0.0854664611462681 -0.06177976331928885 -1.2250425609829636 132 111 84
0.06978731925679404 -0.0638092944324424 -1.2239647594837553 137 117 85
0.052391922965239146 -0.06605844098633053 -1.222147360747932 144 124 93
0.03798649742925042 -0.06792446352096267 -1.2214908441794783 132 114 85
0.025835571447445138 -0.06950160722931548 -1.2217107774931635 129 112 86
0.014228304295842042 -0.07100899410777481 -1.2221186901435268 125 109 87
-0.0019379313350948446 -0.07309999683766338 -1.2206209473383034 121 105 86
-0.017953200279273496 -0.07517147270415643 -1.2191371286424757 107 91 74
-0.01955239505032408 -0.075397060915906 -1.2235775264826003 106 90 75
-0.0357992515830427 -0.07749789456919469 -1.2219261806956478 105 90 72
-0.04887062101666095 -0.07919201509455111 -1.22155237282345 96 81 61
-0.051712151158411546 -0.07957646839056194 -1.2254312790641104 97 81 64
-0.052149778117292545 -0.0796532058734199 -1.2303198164334233 98 81 64
-0.055280312734311166 -0.08007464432149188 -1.2340750480034897 113 97 72
-0.04906393140689108 -0.07929977559657303 -1.2417953885284148 112 98 79
-0.04944494090436968 -0.07936936276148472 -1.246731477184512 108 98 86
-0.04155197865679089 -0.07838012286492847 -1.2552153431004514 91 81 72
-0.03857711978283951 -0.07802037680223353 -1.2616197768394422 94 85 77
-0.04303877105577947 -0.07861227390304995 -1.2648322852860616 93 84 74
-0.029271517840153416 -0.07687170571892082 -1.2759352609065902 101 88 80
-0.015895164370090198 -0.07518137680308515 -1.2869233836557845 89 76 64
-0.018410955053776823 -0.07552447842435525 -1.2910236058166344 69 57 39
-0.018988793115151337 -0.0756196495768162 -1.2959721669702957 77 65 44
-0.01607816172625337 -0.07526858395311987 -1.302461972307762 84 69 48
-0.012850397192516405 -0.07487702313705007 -1.3091094520006574 94 79 54
-0.015831143520545377 -0.07527966530688462 -1.3130200477691902 85 70 43
-0.01389787965149053 -0.07505378169371371 -1.3191170822566896 94 76 51
-0.00786448971911502 -0.07430357014523695 -1.327062446236602 102 84 61
-0.017803396820170625 -0.07559613740726133 -1.327863006177567 76 60 38
-0.012173012095740177 -0.0748975812335402 -1.33565575527148 87 70 48
-0.018564196578605308 -0.07573637475938397 -1.3380341591245766 83 67 45
-0.02483098301071751 -0.07655919958519126 -1.3404538144491194 67 50 32
-0.03130710392536884 -0.07740872894360261 -1.3427631014828079 86 69 49
-0.046475210564717206 -0.0793694785710683 -1.3410759698143537 85 70 52
-0.0606705190611983 -0.08120567103386495 -1.3397894668830488 87 72 53
-0.05579510387122405 -0.08060374207924757 -1.347261710938954 87 71 49
-0.05707802919938576 -0.08078913328183375 -1.351905355187015 68 51 27
-0.05710484134776156 -0.08081397639070573 -1.357136021032764 112 92 68
-0.060593536977499085 -0.08128133031965597 -1.360757586073211 115 93 67
-0.06421360856067954 -0.08176545422939875 -1.3643124603307293 128 102 75
-0.06220176980239067 -0.08152979450033203 -1.3705115363708176 127 100 72
-0.06296103571184025 -0.08164832270404855 -1.3754164756572749 154 125 91
-0.08965211533679007 -0.08508058685876067 -1.3680319446464968 148 118 84
-0.0921800492615642 -0.08542496005662935 -1.3720578205477176 155 125 96
-0.09403995168810542 -0.08568397108319935 -1.3764010801515816 158 128 94
-0.10185134854132233 -0.08670336947999042 -1.377891196807088 163 138 102
-0.10745360513451774 -0.08744045113029529 -1.380423746983762 137 109 73
-0.11127171650610496 -0.08794955756270133 -1.3838053730368998 162 130 95
-0.10544318667610325 -0.08722636192531921 -1.3918587043054895 167 139 104
-0.11561252513591586 -0.08854675481849633 -1.3921533490837945 135 109 74
-0.10497621733234769 -0.08720959323150604 -1.4025838741935235 138 110 73
-0.11338492056634247 -0.08830503233385656 -1.4037206559584519 156 126 86
