ply
format ascii 1.0
element vertex 856
property float x
property float y
property float z
property float nx
property float ny
property float nz
property uchar diffuse_red
property uchar diffuse_green
property uchar diffuse_blue
property uchar class
property uchar detection
end_header
0.4250 -0.0711 -2.0458 0.567 -0.641 0.517 108 82 47 0 0
0.4605 -0.1144 -2.1429 0.762 -0.501 0.410 92 69 30 0 0
0.4736 -0.1309 -2.1610 0.588 -0.730 0.348 122 93 50 0 0
0.4785 -0.1370 -2.1723 0.430 -0.319 0.844 134 103 57 0 0
0.5235 -0.1928 -2.2592 0.832 -0.202 0.516 88 77 53 0 0
0.5231 -0.1918 -2.2783 0.796 -0.226 0.561 168 164 162 0 0
0.5249 -0.1940 -2.2818 0.796 -0.226 0.561 185 184 185 0 0
0.2827 0.0926 -1.5625 0.955 -0.016 0.297 117 94 58 0 0
0.2907 0.0822 -1.5607 0.519 -0.252 0.817 116 93 59 0 0
0.2933 0.0790 -1.5638 0.796 -0.124 0.593 116 92 59 0 0
0.3067 0.0622 -1.5789 0.861 -0.123 0.493 90 74 43 0 0
0.3078 0.0608 -1.5833 0.812 -0.009 0.584 101 85 55 0 0
0.3392 0.0244 -1.7469 0.827 -0.226 0.514 74 59 32 0 0
0.3583 0.0010 -1.8002 0.984 -0.110 0.142 119 96 64 0 0
0.3747 -0.0179 -1.8910 0.669 -0.536 0.515 116 93 61 0 0
0.3743 -0.0173 -1.8972 0.435 -0.653 0.620 111 88 56 0 0
0.4068 -0.0571 -1.9755 0.566 -0.597 0.568 109 85 49 0 0
0.4114 -0.0630 -1.9815 0.442 -0.507 0.740 108 84 45 0 0
0.4149 -0.0673 -1.9889 0.540 -0.818 0.197 107 84 46 0 0
0.4160 -0.0686 -1.9934 0.928 -0.253 0.272 110 87 50 0 0
0.4118 -0.0626 -2.0164 0.899 -0.250 0.360 109 86 47 0 0
0.4126 -0.0635 -2.0214 0.826 -0.475 0.304 115 91 51 0 0
0.4202 -0.0731 -2.0295 0.928 -0.358 0.099 178 145 85 0 0
0.4217 -0.0747 -2.0454 0.888 -0.345 0.304 113 87 49 0 0
0.4301 -0.0852 -2.0584 0.395 -0.662 0.637 111 86 46 0 0
0.4342 -0.0899 -2.0770 0.585 -0.411 0.699 116 93 55 0 0
0.4574 -0.1183 -2.1421 0.783 -0.537 0.313 104 80 38 0 0
0.4629 -0.1247 -2.1649 0.307 -0.806 0.505 119 90 47 0 0
0.2977 0.0657 -1.5675 0.286 -0.478 0.830 106 84 50 0 0
0.3006 0.0620 -1.5702 0.367 -0.506 0.781 97 77 42 0 0
0.3571 -0.0095 -1.6094 0.309 -0.196 0.931 135 110 72 0 0
0.3895 -0.0439 -1.9218 0.977 -0.019 0.214 110 87 53 0 0
0.4054 -0.0632 -1.9727 0.557 -0.664 0.500 109 85 50 0 0
0.4069 -0.0650 -1.9767 0.557 -0.664 0.500 110 86 50 0 0
0.4081 -0.0664 -1.9811 0.741 -0.544 0.393 109 85 49 0 0
0.4102 -0.0689 -1.9903 0.724 -0.471 0.504 108 84 46 0 0
0.4143 -0.0738 -2.0029 0.812 -0.576 -0.095 112 88 51 0 0
0.4124 -0.0709 -2.0230 0.718 -0.399 0.571 121 94 52 0 0
0.4181 -0.0782 -2.0276 0.804 -0.570 0.169 182 148 89 0 0
0.4187 -0.0788 -2.0328 0.864 -0.474 0.172 179 146 94 0 0
0.4194 -0.0794 -2.0438 0.888 -0.345 0.304 115 89 49 0 0
0.4489 -0.1155 -2.1187 0.900 -0.406 0.159 111 86 42 0 0
0.4538 -0.1214 -2.1361 0.787 -0.413 0.458 103 79 38 0 0
0.4544 -0.1222 -2.1413 0.783 -0.537 0.313 107 83 41 0 0
0.5811 -0.2818 -2.2633 -0.056 -0.182 0.982 213 213 213 0 0
0.5912 -0.2948 -2.2653 -0.069 -0.323 0.944 214 214 214 0 0
0.3542 -0.0094 -1.7855 0.932 -0.355 0.074 125 101 68 0 0
0.3547 -0.0100 -1.7906 0.872 -0.268 0.410 110 89 56 0 0
0.4159 -0.0829 -2.0376 0.965 -0.219 0.144 147 115 70 0 0
0.4195 -0.0873 -2.0449 0.803 -0.291 0.520 110 88 48 0 0
0.4454 -0.1188 -2.1185 0.776 -0.460 0.430 109 85 41 0 0
0.4481 -0.1222 -2.1208 0.538 -0.606 0.586 110 85 39 0 0
0.4498 -0.1243 -2.1246 0.496 -0.626 0.601 109 83 38 0 0
0.4661 -0.1444 -2.1565 0.595 -0.687 0.418 114 89 44 0 0
0.5470 -0.2454 -2.2745 0.143 -0.337 0.931 208 208 210 0 0
0.5873 -0.2971 -2.2662 0.022 -0.255 0.967 214 214 214 0 0
0.5903 -0.3008 -2.2675 -0.017 -0.336 0.942 214 214 214 0 0
0.2857 0.0651 -1.5392 0.770 0.119 0.627 131 105 70 0 0
0.2892 0.0607 -1.5414 0.843 0.067 0.534 127 101 66 0 0
0.2901 0.0597 -1.5461 0.909 -0.043 0.414 122 97 63 0 0
0.3767 -0.0491 -1.6264 0.817 -0.555 0.160 109 89 60 0 0
0.3817 -0.0553 -1.6375 0.621 -0.496 0.607 105 83 57 0 0
0.3511 -0.0130 -1.7962 0.728 -0.202 0.655 103 83 51 0 0
0.4052 -0.0781 -1.9817 0.954 -0.274 0.126 109 85 47 0 0
0.4116 -0.0855 -2.0149 0.833 -0.544 0.104 111 84 44 0 0
0.4133 -0.0877 -2.0186 0.764 -0.626 0.154 125 99 53 0 0
0.4189 -0.0942 -2.0412 0.805 -0.174 0.567 108 87 50 0 0
0.4359 -0.1150 -2.0904 0.786 -0.395 0.476 146 123 79 0 0
0.4425 -0.1228 -2.1175 0.776 -0.460 0.430 116 93 48 0 0
0.4780 -0.1671 -2.1650 0.750 -0.434 0.500 121 92 50 0 0
0.4869 -0.1778 -2.2006 0.571 -0.655 0.496 141 110 64 0 0
0.4893 -0.1805 -2.2095 0.733 -0.678 0.061 143 112 67 0 0
0.5144 -0.2115 -2.2638 0.834 -0.542 0.098 98 90 73 0 0
0.5891 -0.3066 -2.2699 0.013 -0.510 0.860 214 214 214 0 0
0.2885 0.0539 -1.5389 0.850 0.060 0.524 129 105 69 0 0
0.2913 0.0504 -1.5417 0.813 0.019 0.582 124 100 64 0 0
0.2908 0.0511 -1.5476 0.975 -0.015 0.220 118 94 58 0 0
0.3465 -0.0151 -1.7804 0.743 -0.284 0.606 119 95 61 0 0
0.3485 -0.0174 -1.7896 0.826 -0.563 0.039 128 106 70 0 0
0.3485 -0.0173 -1.7952 0.750 -0.381 0.541 122 100 66 0 0
0.3716 -0.0451 -1.8780 0.800 -0.578 0.163 108 86 49 0 0
0.3808 -0.0561 -1.9078 0.657 -0.613 0.438 112 88 52 0 0
0.3825 -0.0583 -1.9115 0.555 -0.543 0.630 114 90 54 0 0
0.3837 -0.0597 -1.9159 0.810 -0.377 0.450 116 92 56 0 0
0.4046 -0.0851 -1.9722 0.747 -0.058 0.662 106 83 42 0 0
0.4097 -0.0909 -2.0128 0.860 -0.500 0.100 104 80 42 0 0
0.4106 -0.0919 -2.0175 0.758 -0.628 0.173 115 92 49 0 0
0.4120 -0.0936 -2.0216 0.669 -0.470 0.576 128 101 53 0 0
0.4344 -0.1203 -2.1115 0.659 -0.569 0.491 100 75 37 0 0
0.4708 -0.1655 -2.1642 0.577 -0.501 0.645 109 85 41 0 0
0.4739 -0.1695 -2.1658 0.742 -0.459 0.488 115 88 45 0 0
0.5120 -0.2163 -2.2439 0.622 -0.724 0.298 95 80 46 0 0
0.5141 -0.2186 -2.2651 0.874 -0.475 0.097 122 114 102 0 0
0.5765 -0.2982 -2.2603 0.442 -0.651 0.617 213 213 213 0 0
0.2534 0.0894 -1.4638 0.999 0.036 0.025 90 73 45 0 0
0.3358 -0.0125 -1.6000 0.091 -0.306 0.948 131 107 76 0 0
0.3654 -0.0457 -1.8352 0.621 -0.756 0.205 111 89 53 0 0
0.3657 -0.0459 -1.8406 0.795 -0.466 0.389 110 87 53 0 0
0.3718 -0.0525 -1.9024 0.771 -0.544 0.331 107 85 48 0 0
0.3780 -0.0603 -1.9068 0.847 -0.350 0.401 107 83 46 0 0
0.3807 -0.0635 -1.9152 0.847 -0.350 0.401 111 87 50 0 0
0.4024 -0.0901 -1.9705 0.614 -0.493 0.616 104 81 40 0 0
0.4103 -0.0995 -2.0016 0.550 -0.784 0.287 102 78 40 0 0
0.4100 -0.0989 -2.0137 0.698 -0.710 0.094 108 84 47 0 0
0.4106 -0.0996 -2.0189 0.700 -0.662 0.266 120 93 53 0 0
0.4160 -0.1061 -2.0298 0.835 -0.205 0.511 154 124 81 0 0
0.4131 -0.1019 -2.0571 0.391 -0.450 0.803 106 83 42 0 0
0.4655 -0.1664 -2.1605 0.566 -0.635 0.526 107 82 41 0 0
0.4710 -0.1734 -2.1648 0.732 -0.474 0.488 112 87 42 0 0
0.4985 -0.2072 -2.2222 0.373 -0.694 0.615 133 104 59 0 0
0.4992 -0.2079 -2.2272 0.667 -0.727 0.166 130 100 58 0 0
0.5014 -0.2106 -2.2361 0.455 -0.772 0.444 126 101 61 0 0
0.5127 -0.2244 -2.2619 0.727 -0.573 0.377 114 105 91 0 0
0.5147 -0.2264 -2.2956 0.585 -0.550 0.596 203 203 205 0 0
0.5243 -0.2386 -2.2932 0.711 -0.702 -0.045 207 207 208 0 0
0.5162 -0.2278 -2.3179 0.439 -0.844 0.307 210 210 210 0 0
0.5730 -0.3012 -2.2484 0.741 -0.638 -0.210 213 213 213 0 0
0.3556 -0.0413 -1.8080 0.974 0.094 0.206 121 98 58 0 0
0.3703 -0.0587 -1.8770 0.314 -0.537 0.783 110 88 51 0 0
0.3773 -0.0669 -1.9093 0.865 -0.345 0.366 107 83 45 0 0
0.3791 -0.0692 -1.9128 0.852 -0.259 0.455 114 90 52 0 0
0.4064 -0.1026 -1.9730 0.781 -0.625 0.013 104 80 44 0 0
0.4067 -0.1030 -1.9783 0.798 -0.599 0.061 103 79 43 0 0
0.4086 -0.1048 -2.0052 0.909 -0.353 0.223 105 81 43 0 0
0.4084 -0.1045 -2.0113 0.798 -0.595 -0.099 99 75 39 0 0
0.4083 -0.1042 -2.0173 0.794 -0.594 0.127 110 86 49 0 0
0.4119 -0.1087 -2.0245 0.605 -0.231 0.762 173 141 86 0 0
0.4143 -0.1117 -2.0274 0.605 -0.231 0.762 170 137 88 0 0
0.5073 -0.2254 -2.2524 0.701 -0.566 0.435 71 58 41 0 0
0.5092 -0.2275 -2.2618 0.631 -0.737 0.243 107 98 81 0 0
0.5114 -0.2297 -2.2953 0.585 -0.550 0.596 202 202 204 0 0
0.5701 -0.3049 -2.2476 0.741 -0.638 -0.210 213 213 213 0 0
0.3910 -0.0915 -1.9350 0.584 -0.739 0.337 102 78 41 0 0
0.3920 -0.0926 -1.9397 0.417 -0.659 0.626 103 79 43 0 0
0.4100 -0.1135 -2.0460 0.962 -0.139 0.236 95 73 33 0 0
0.4098 -0.1132 -2.0521 0.902 -0.427 -0.060 101 79 38 0 0
0.5060 -0.2311 -2.2553 0.621 -0.605 0.499 79 65 47 0 0
0.5058 -0.2308 -2.2616 0.753 -0.632 0.182 98 88 72 0 0
0.5657 -0.3066 -2.2491 0.863 -0.484 -0.145 212 212 212 0 0
0.2977 0.0126 -1.5716 0.748 -0.551 0.370 117 93 51 0 0
0.3417 -0.0423 -1.6057 0.275 0.050 0.960 134 105 64 0 0
0.3463 -0.0451 -1.7878 0.797 -0.087 0.598 138 111 71 0 0
0.3618 -0.0635 -1.8557 0.845 -0.513 0.149 105 83 45 0 0
0.3648 -0.0668 -1.8865 0.630 -0.690 0.356 104 81 44 0 0
0.3972 -0.1061 -1.9754 0.700 -0.489 0.521 103 77 40 0 0
0.3988 -0.1082 -1.9792 0.724 -0.610 0.321 103 79 43 0 0
0.4141 -0.1262 -2.0539 0.749 -0.614 0.249 99 75 38 0 0
0.4542 -0.1748 -2.1673 0.873 -0.317 0.371 103 79 37 0 0
0.5033 -0.2352 -2.2601 0.850 -0.411 0.331 94 83 67 0 0
0.5031 -0.2348 -2.2665 0.861 -0.456 0.227 118 111 98 0 0
0.5608 -0.3076 -2.2514 0.728 -0.681 0.085 212 212 212 0 0
0.5622 -0.3090 -2.2792 0.017 -0.993 0.117 214 214 214 0 0
0.5628 -0.3096 -2.2843 -0.071 -0.988 0.135 215 215 215 0 0
0.1985 0.1272 -1.4106 0.941 -0.248 0.232 82 67 48 0 0
0.2883 0.0161 -1.5232 0.937 -0.137 0.323 102 77 44 0 0
0.2956 0.0072 -1.5328 0.533 -0.124 0.837 138 111 72 0 0
0.2918 0.0121 -1.5415 0.905 -0.424 -0.040 129 100 61 0 0
0.2955 0.0079 -1.5757 0.617 -0.716 0.328 103 84 41 0 0
0.2969 0.0062 -1.5799 0.622 -0.653 0.432 120 98 57 0 0
0.2982 0.0047 -1.5841 0.622 -0.653 0.432 128 102 61 0 0
0.3080 -0.0076 -1.5912 0.745 -0.452 0.491 116 94 62 0 0
0.3393 -0.0466 -1.6048 0.325 0.055 0.944 138 109 66 0 0
0.3455 -0.0517 -1.7848 0.842 -0.127 0.525 121 99 57 0 0
0.3542 -0.0617 -1.8488 0.899 -0.432 0.075 99 76 42 0 0
0.3792 -0.0918 -1.9347 0.685 -0.712 0.155 94 72 36 0 0
0.3953 -0.1113 -1.9791 0.803 -0.472 0.362 103 79 46 0 0
0.4043 -0.1217 -2.0381 0.907 -0.383 -0.177 124 100 56 0 0
0.4109 -0.1298 -2.0533 0.749 -0.614 0.249 98 74 37 0 0
0.4129 -0.1322 -2.0567 0.853 -0.502 0.140 98 74 38 0 0
0.4385 -0.1634 -2.1181 0.417 -0.805 0.421 97 74 33 0 0
0.5005 -0.2390 -2.2651 0.851 -0.483 0.208 109 100 85 0 0
0.5575 -0.3106 -2.2573 0.716 -0.698 -0.004 212 212 212 0 0
0.2614 0.0415 -1.4635 0.915 -0.064 0.398 101 80 50 0 0
0.2634 0.0393 -1.4830 0.991 0.061 0.120 120 97 63 0 0
0.2845 0.0131 -1.4968 0.868 -0.248 0.430 84 67 37 0 0
0.2858 0.0116 -1.5010 0.762 -0.245 0.599 91 75 43 0 0
0.3012 -0.0066 -1.5834 0.716 -0.681 0.156 118 92 56 0 0
0.3041 -0.0102 -1.5861 0.348 -0.864 0.364 137 114 82 0 0
0.3400 -0.0522 -1.7925 0.959 -0.148 0.243 143 119 73 0 0
0.3409 -0.0534 -1.7971 0.959 -0.148 0.243 136 109 65 0 0
0.3477 -0.0616 -1.8123 0.687 -0.621 0.377 116 93 52 0 0
0.3475 -0.0612 -1.8182 0.894 -0.342 0.288 109 87 48 0 0
0.3913 -0.1139 -1.9739 0.758 -0.347 0.553 91 67 41 0 0
0.4017 -0.1263 -2.0136 0.930 -0.264 0.254 102 80 42 0 0
0.4014 -0.1259 -2.0197 0.852 -0.335 0.403 121 96 52 0 0
0.4026 -0.1273 -2.0241 0.797 -0.309 0.519 146 114 65 0 0
0.4044 -0.1296 -2.0276 0.795 -0.556 0.242 183 148 97 0 0
0.4023 -0.1267 -2.0420 0.934 -0.347 -0.085 105 82 43 0 0
0.4096 -0.1357 -2.0563 0.742 -0.645 0.180 101 77 41 0 0
0.4363 -0.1681 -2.1221 0.807 -0.542 0.233 94 69 29 0 0
0.2159 0.0904 -1.4285 0.735 -0.221 0.641 93 76 55 0 0
0.2186 0.0871 -1.4317 0.876 -0.125 0.466 92 74 52 0 0
0.2207 0.0845 -1.4353 0.881 -0.068 0.468 95 77 56 0 0
0.2608 0.0348 -1.4610 0.818 -0.078 0.570 116 92 61 0 0
0.2685 0.0256 -1.4916 0.985 -0.105 0.133 100 79 48 0 0
0.2774 0.0144 -1.4893 0.230 -0.886 0.402 109 86 54 0 0
0.2814 0.0097 -1.5176 0.275 -0.729 0.627 117 91 56 0 0
0.3479 -0.0719 -1.6165 0.814 -0.528 0.244 161 134 90 0 0
0.3350 -0.0537 -1.7772 0.916 0.081 0.392 102 78 44 0 0
0.3464 -0.0673 -1.8268 0.874 -0.303 0.379 106 83 49 0 0
0.3538 -0.0758 -1.8811 0.663 -0.502 0.555 105 82 48 0 0
0.3886 -0.1180 -1.9729 0.723 -0.475 0.502 80 58 37 0 0
0.3978 -0.1290 -2.0139 0.909 -0.064 0.412 88 66 33 0 0
0.3988 -0.1302 -2.0185 0.942 -0.124 0.312 115 91 51 0 0
0.3993 -0.1308 -2.0237 0.783 -0.223 0.581 126 99 53 0 0
0.4020 -0.1341 -2.0262 0.958 -0.213 0.189 170 137 89 0 0
0.4023 -0.1345 -2.0316 0.958 -0.259 0.124 172 139 90 0 0
0.4068 -0.1397 -2.0612 0.644 -0.614 0.457 94 72 35 0 0
0.4322 -0.1707 -2.1110 0.711 -0.534 0.457 95 72 31 0 0
0.5189 -0.2768 -2.2755 -0.366 -0.166 0.916 207 207 209 0 0
0.2118 0.0879 -1.4236 0.754 -0.228 0.616 94 77 55 0 0
0.2196 0.0783 -1.4334 0.931 0.031 0.363 102 84 61 0 0
0.2556 0.0337 -1.4518 0.868 -0.488 -0.089 118 94 61 0 0
0.2587 0.0299 -1.4598 0.747 -0.101 0.657 117 93 60 0 0
0.2582 0.0306 -1.4654 0.550 -0.184 0.815 126 102 69 0 0
0.2604 0.0279 -1.4689 0.801 -0.183 0.570 127 101 66 0 0
0.2702 0.0159 -1.4818 0.398 -0.758 0.517 126 102 63 0 0
0.2731 0.0124 -1.4899 0.325 -0.941 0.099 109 85 48 0 0
0.3319 -0.0582 -1.7101 0.811 -0.584 0.027 90 69 38 0 0
0.3476 -0.0765 -1.8159 0.899 -0.438 -0.020 113 90 54 0 0
0.3519 -0.0810 -1.8792 0.440 -0.498 0.747 101 78 44 0 0
0.3788 -0.1137 -1.9399 0.746 -0.166 0.645 92 69 35 0 0
0.3972 -0.1358 -2.0160 0.942 -0.124 0.312 104 80 47 0 0
0.4061 -0.1465 -2.0517 0.479 -0.591 0.649 93 71 34 0 0
0.4336 -0.1795 -2.1460 0.688 -0.723 0.071 92 70 31 0 0
0.4732 -0.2278 -2.2229 0.371 -0.809 0.456 131 102 58 0 0
0.1918 0.1048 -1.3991 0.908 -0.082 0.410 83 68 47 0 0
0.2262 0.0626 -1.4411 0.793 -0.440 0.422 110 90 58 0 0
0.2541 0.0280 -1.4500 0.484 -0.825 0.291 122 97 60 0 0
0.2545 0.0277 -1.4550 0.503 -0.545 0.671 122 96 60 0 0
0.2532 0.0293 -1.4613 0.217 -0.526 0.822 132 106 71 0 0
0.2549 0.0272 -1.4652 0.245 -0.468 0.849 133 107 71 0 0
0.2549 0.0273 -1.4705 0.371 -0.446 0.814 128 101 65 0 0
0.2613 0.0193 -1.4704 0.241 -0.497 0.834 128 104 69 0 0
0.2652 0.0145 -1.4724 0.918 -0.292 0.268 111 87 50 0 0
0.2662 0.0134 -1.4769 0.918 -0.292 0.268 117 91 51 0 0
0.2675 0.0118 -1.4811 0.645 -0.669 0.370 140 115 76 0 0
0.2737 0.0045 -1.5181 0.478 -0.522 0.706 120 94 55 0 0
0.3301 -0.0629 -1.7470 0.780 -0.548 0.304 94 75 41 0 0
0.3320 -0.0653 -1.7505 0.940 -0.236 0.244 112 95 57 0 0
0.3511 -0.0880 -1.8476 0.793 -0.563 0.235 99 76 42 0 0
0.3613 -0.1002 -1.8873 0.784 -0.407 0.468 98 75 41 0 0
0.3737 -0.1153 -1.9129 0.677 -0.733 0.070 94 71 37 0 0
0.3760 -0.1181 -1.9160 0.306 -0.928 -0.212 90 67 33 0 0
0.3713 -0.1120 -1.9387 0.881 -0.471 0.054 91 68 34 0 0
0.3780 -0.1201 -1.9595 0.695 -0.525 0.492 82 58 33 0 0
0.4020 -0.1488 -2.0524 0.592 -0.651 0.476 93 71 34 0 0
0.5028 -0.2716 -2.2649 0.344 -0.332 0.878 180 180 182 0 0
0.1896 0.0964 -1.0486 0.964 -0.173 0.201 83 70 50 0 0
0.1862 0.1008 -1.0603 0.923 0.001 0.386 83 70 51 0 0
0.1800 0.1096 -1.1727 0.934 0.332 -0.133 132 125 120 0 0
0.1953 0.0930 -1.3990 0.912 0.066 0.406 100 84 60 0 0
0.2486 0.0275 -1.4569 0.983 -0.184 -0.005 131 103 66 0 0
0.2498 0.0262 -1.4665 0.709 -0.156 0.687 135 107 70 0 0
0.2651 0.0074 -1.4801 0.918 -0.226 0.327 120 95 62 0 0
0.2817 -0.0127 -1.5346 0.824 -0.010 0.567 159 135 87 0 0
0.2849 -0.0166 -1.5424 0.919 -0.305 0.248 123 98 58 0 0
0.2909 -0.0235 -1.5798 0.707 -0.527 0.470 115 90 50 0 0
0.3106 -0.0478 -1.5938 0.589 -0.322 0.741 127 103 68 0 0
0.3144 -0.0526 -1.5955 0.256 -0.469 0.846 131 106 68 0 0
0.3374 -0.0809 -1.6005 0.470 -0.180 0.864 149 121 77 0 0
0.3435 -0.0885 -1.6053 0.479 -0.408 0.777 140 110 67 0 0
0.3448 -0.0900 -1.6147 0.646 -0.583 0.493 152 126 83 0 0
0.3433 -0.0858 -1.8410 0.817 -0.574 0.047 99 76 42 0 0
0.3484 -0.0920 -1.8523 0.525 -0.782 0.337 99 76 42 0 0
0.3465 -0.0896 -1.8601 0.691 -0.716 0.099 97 74 40 0 0
0.3505 -0.0945 -1.8669 0.443 -0.373 0.815 95 72 38 0 0
0.3496 -0.0932 -1.8737 0.812 -0.529 0.247 96 73 39 0 0
0.3602 -0.1063 -1.8845 0.692 -0.579 0.432 96 73 38 0 0
0.3604 -0.1064 -1.8900 0.629 -0.717 0.299 95 73 38 0 0
0.3614 -0.1077 -1.8945 0.271 -0.806 0.526 94 71 37 0 0
0.3725 -0.1209 -1.9445 0.296 -0.862 0.412 90 67 34 0 0
0.3985 -0.1520 -2.0523 0.592 -0.651 0.476 92 70 33 0 0
0.4172 -0.1747 -2.0989 0.622 -0.671 0.405 90 66 26 0 0
0.4621 -0.2293 -2.1985 0.621 -0.712 0.329 125 97 52 0 0
0.4657 -0.2337 -2.1995 0.726 -0.557 0.404 128 99 53 0 0
0.4777 -0.2483 -2.2243 0.519 -0.783 0.342 128 101 58 0 0
0.3075 -0.0514 -1.5933 0.508 -0.363 0.781 136 112 75 0 0
0.3242 -0.0719 -1.5991 0.422 -0.040 0.906 148 117 73 0 0
0.3318 -0.0813 -1.5972 0.053 -0.676 0.735 130 101 59 0 0
0.3358 -0.0862 -1.5987 0.392 -0.315 0.864 161 135 90 0 0
0.3409 -0.0925 -1.6045 0.513 -0.334 0.791 155 125 80 0 0
0.3592 -0.1150 -1.6133 0.275 -0.802 0.530 161 135 99 0 0
0.3608 -0.1169 -1.6171 0.275 -0.802 0.530 158 135 93 0 0
0.3251 -0.0720 -1.7062 0.873 -0.484 -0.062 100 79 47 0 0
0.3452 -0.0954 -1.8633 0.696 -0.691 0.196 95 72 38 0 0
0.3559 -0.1084 -1.8910 0.887 -0.304 0.348 93 71 34 0 0
0.3575 -0.1103 -1.8949 0.875 -0.411 0.256 92 70 34 0 0
0.4134 -0.1775 -2.0992 0.764 -0.469 0.442 88 64 26 0 0
0.4573 -0.2308 -2.1884 0.784 -0.277 0.555 116 89 46 0 0
0.4588 -0.2326 -2.1923 0.856 -0.425 0.294 111 86 40 0 0
0.4607 -0.2349 -2.2015 0.889 -0.360 0.283 121 94 47 0 0
0.4867 -0.2665 -2.2543 0.622 -0.686 0.378 82 70 47 0 0
0.1508 0.1289 -0.9315 0.148 -0.926 -0.347 178 181 181 0 0
0.2178 0.0504 -1.4180 0.848 -0.179 0.498 124 100 68 0 0
0.2246 0.0421 -1.4284 0.806 -0.448 0.386 114 92 56 0 0
0.2448 0.0173 -1.4437 0.712 -0.420 0.562 155 126 82 0 0
0.2815 -0.0271 -1.5339 0.897 -0.093 0.433 179 150 99 0 0
0.3273 -0.0830 -1.5981 0.093 -0.487 0.868 143 113 68 0 0
0.3620 -0.1255 -1.6126 0.603 -0.424 0.675 153 129 88 0 0
0.3636 -0.1275 -1.6162 0.551 -0.463 0.694 138 113 74 0 0
0.3227 -0.0765 -1.7051 0.873 -0.484 -0.062 90 71 41 0 0
0.3344 -0.0904 -1.7701 0.927 -0.075 0.368 108 84 48 0 0
0.3397 -0.0967 -1.7868 0.861 -0.272 0.429 144 119 75 0 0
0.3404 -0.0975 -1.7972 0.856 -0.514 -0.063 146 122 76 0 0
0.3513 -0.1102 -1.8865 0.460 -0.853 0.246 93 71 34 0 0
0.3521 -0.1112 -1.8912 0.448 -0.866 0.222 93 71 34 0 0
0.3528 -0.1120 -1.8961 0.646 -0.752 0.134 92 69 34 0 0
0.3616 -0.1228 -1.9088 0.496 -0.825 0.270 91 68 34 0 0
0.3659 -0.1279 -1.9267 0.489 -0.760 0.428 87 64 32 0 0
0.3693 -0.1320 -1.9342 0.615 -0.769 0.176 84 61 30 0 0
0.4102 -0.1810 -2.0987 0.594 -0.673 0.441 91 68 29 0 0
0.1185 0.1613 -0.9315 0.638 0.374 0.673 180 181 183 0 0
0.1984 0.0642 -1.0664 0.522 -0.803 0.288 91 74 53 0 0
0.1969 0.0660 -1.0720 0.769 -0.639 0.010 94 76 54 0 0
0.1951 0.0685 -1.0974 0.703 -0.707 0.075 87 69 45 0 0
0.1788 0.0894 -1.2168 0.956 0.256 -0.146 171 169 167 0 0
0.1797 0.0883 -1.2263 0.946 -0.040 -0.323 204 204 204 0 0
0.1785 0.0899 -1.2322 0.910 -0.221 -0.351 203 203 205 0 0
0.2161 0.0450 -1.4165 0.447 -0.500 0.742 132 108 68 0 0
0.2182 0.0424 -1.4201 0.444 -0.401 0.801 130 104 65 0 0
0.2205 0.0397 -1.4236 0.293 -0.625 0.724 127 101 62 0 0
0.2365 0.0201 -1.4318 0.852 -0.355 0.384 148 120 77 0 0
0.2377 0.0186 -1.4361 0.745 -0.582 0.327 162 133 87 0 0
0.2410 0.0146 -1.4386 0.551 -0.607 0.573 164 137 88 0 0
0.2427 0.0125 -1.4425 0.551 -0.607 0.573 167 135 88 0 0
0.2697 -0.0201 -1.5199 0.291 -0.545 0.787 114 91 52 0 0
0.3307 -0.0945 -1.6022 0.486 -0.445 0.753 157 131 84 0 0
0.3634 -0.1344 -1.6236 0.652 -0.560 0.512 97 70 33 0 0
0.3349 -0.0983 -1.7825 0.819 -0.520 0.243 114 92 51 0 0
0.3384 -0.1026 -1.7843 0.503 -0.825 0.260 148 126 79 0 0
0.3399 -0.1044 -1.7883 0.207 -0.945 0.253 124 102 56 0 0
0.3486 -0.1143 -1.8912 0.650 -0.734 0.196 94 72 35 0 0
0.3492 -0.1150 -1.8962 0.650 -0.734 0.196 92 69 34 0 0
0.3578 -0.1255 -1.9091 0.824 -0.544 0.157 86 62 28 0 0
0.3663 -0.1357 -1.9392 0.498 -0.748 0.439 83 62 33 0 0
0.3670 -0.1364 -1.9442 0.633 -0.558 0.536 79 58 31 0 0
0.4455 -0.2311 -2.1831 0.556 -0.542 0.630 96 74 26 0 0
0.1920 0.0651 -1.1020 0.780 -0.615 0.115 73 52 25 0 0
0.1959 0.0605 -1.1240 0.760 -0.515 0.396 78 56 29 0 0
0.1837 0.0759 -1.2112 0.980 0.157 -0.124 103 96 88 0 0
0.1830 0.0769 -1.2318 0.525 -0.847 0.081 201 200 201 0 0
0.2019 0.0547 -1.3776 0.168 -0.610 0.774 124 98 67 0 0
0.2044 0.0516 -1.3809 0.157 -0.642 0.750 122 97 66 0 0
0.2071 0.0484 -1.3841 0.298 -0.627 0.720 125 101 70 0 0
0.2132 0.0410 -1.3950 0.552 -0.241 0.798 129 101 61 0 0
0.2351 0.0144 -1.4248 0.698 -0.662 0.271 144 118 75 0 0
0.2636 -0.0200 -1.5168 0.562 -0.801 0.208 110 85 49 0 0
0.2653 -0.0219 -1.5312 0.292 -0.953 0.084 117 95 56 0 0
0.2979 -0.0615 -1.5925 0.377 -0.364 0.852 128 107 74 0 0
0.3603 -0.1377 -1.6233 0.652 -0.560 0.512 103 79 41 0 0
0.3614 -0.1391 -1.6274 0.641 -0.584 0.497 102 79 44 0 0
0.3407 -0.1134 -1.6692 0.799 -0.221 -0.559 121 99 61 0 0
0.3366 -0.1084 -1.6787 0.690 -0.336 -0.641 108 88 55 0 0
0.3321 -0.1028 -1.6886 0.726 -0.351 -0.592 90 73 45 0 0
0.3299 -0.0997 -1.7454 0.842 -0.488 0.230 105 82 50 0 0
0.3306 -0.1006 -1.7501 0.592 -0.758 0.274 136 110 69 0 0
0.3314 -0.1016 -1.7548 0.592 -0.758 0.274 147 122 75 0 0
0.3318 -0.1019 -1.7655 0.708 -0.665 0.239 92 73 37 0 0
0.3325 -0.1028 -1.7702 0.649 -0.757 0.078 101 81 46 0 0
0.3331 -0.1034 -1.7807 0.822 -0.454 0.345 106 82 48 0 0
0.3352 -0.1059 -1.7841 0.605 -0.708 0.363 147 123 81 0 0
0.3350 -0.1058 -1.7897 0.923 -0.384 -0.014 130 107 65 0 0
0.3357 -0.1065 -1.7946 0.934 -0.349 -0.077 124 100 62 0 0
0.3367 -0.1076 -1.8158 0.792 -0.414 0.449 105 82 47 0 0
0.3556 -0.1302 -1.9076 0.457 -0.813 0.362 85 60 28 0 0
0.3999 -0.1835 -2.0558 0.630 -0.598 0.496 83 60 26 0 0
0.4003 -0.1839 -2.0787 0.729 -0.552 0.404 116 94 52 0 0
0.4018 -0.1857 -2.0827 0.703 -0.499 0.507 135 107 66 0 0
0.4031 -0.1872 -2.0869 0.757 -0.537 0.373 152 122 82 0 0
0.1375 0.1235 -0.9234 0.615 -0.773 -0.157 129 125 119 0 0
0.1893 0.0613 -1.1015 0.758 -0.622 0.198 78 57 28 0 0
0.1899 0.0606 -1.1060 0.798 -0.523 0.298 82 58 30 0 0
0.1906 0.0597 -1.1105 0.782 -0.589 0.204 78 54 26 0 0
0.1943 0.0552 -1.1277 0.816 -0.442 0.373 79 55 27 0 0
0.1949 0.0547 -1.1421 0.726 -0.679 0.112 74 53 26 0 0
0.1952 0.0543 -1.1468 0.726 -0.679 0.112 75 54 27 0 0
0.1957 0.0537 -1.1563 0.617 -0.786 0.035 72 50 22 0 0
0.1976 0.0525 -1.3781 0.433 -0.360 0.827 110 85 55 0 0
0.2003 0.0493 -1.3813 0.482 -0.351 0.802 121 98 70 0 0
0.2022 0.0470 -1.3851 0.548 -0.326 0.770 87 68 42 0 0
0.2317 0.0112 -1.4404 0.400 -0.882 0.250 179 150 96 0 0
0.2622 -0.0257 -1.4991 0.368 -0.843 0.391 128 101 57 0 0
0.2625 -0.0259 -1.5306 0.561 -0.743 0.365 115 93 54 0 0
0.2745 -0.0405 -1.5307 0.937 -0.346 -0.043 111 90 44 0 0
0.2971 -0.0679 -1.5899 0.574 -0.626 0.527 125 102 68 0 0
0.3576 -0.1415 -1.6226 0.706 -0.476 0.524 141 122 82 0 0
0.3586 -0.1428 -1.6268 0.652 -0.560 0.512 106 86 50 0 0
0.3351 -0.1138 -1.6767 0.753 -0.255 -0.607 118 98 64 0 0
0.3271 -0.1037 -1.7501 0.673 -0.678 0.297 112 89 51 0 0
0.3316 -0.1089 -1.7840 0.605 -0.708 0.363 142 118 76 0 0
0.3328 -0.1104 -1.7883 0.761 -0.572 0.308 135 110 69 0 0
0.3324 -0.1097 -1.8110 0.751 -0.660 0.006 105 82 47 0 0
0.3346 -0.1125 -1.8142 0.696 -0.501 0.514 98 75 41 0 0
0.3374 -0.1158 -1.8280 0.400 -0.503 0.766 95 73 36 0 0
0.3413 -0.1205 -1.8405 0.770 -0.353 0.532 92 68 34 0 0
0.3432 -0.1228 -1.8441 0.948 -0.162 0.274 93 69 35 0 0
0.3629 -0.1461 -1.9751 0.356 -0.862 0.361 72 50 27 0 0
0.4260 -0.2223 -2.1405 0.590 -0.622 0.515 86 63 27 0 0
0.4588 -0.2620 -2.2142 0.565 -0.821 0.084 122 95 48 0 0
0.4659 -0.2706 -2.2280 0.548 -0.707 0.447 119 92 47 0 0
0.4677 -0.2727 -2.2314 0.536 -0.613 0.581 124 97 49 0 0
0.4705 -0.2761 -2.2393 0.604 -0.547 0.580 113 90 50 0 0
0.4750 -0.2814 -2.2750 0.773 -0.602 0.199 145 142 135 0 0
0.1353 0.1190 -0.9133 0.415 -0.891 -0.184 176 175 174 0 0
0.1337 0.1210 -0.9188 0.742 -0.668 -0.054 133 125 115 0 0
0.1823 0.0623 -1.0312 0.725 -0.596 0.344 74 50 24 0 0
0.1871 0.0567 -1.1056 0.798 -0.523 0.298 82 59 29 0 0
0.1877 0.0560 -1.1101 0.782 -0.589 0.204 78 55 25 0 0
0.1883 0.0553 -1.1146 0.782 -0.589 0.204 77 53 24 0 0
0.1903 0.0530 -1.1281 0.829 -0.540 0.145 78 54 26 0 0
0.1894 0.0541 -1.1384 0.682 -0.729 0.058 73 52 25 0 0
0.1921 0.0509 -1.1563 0.617 -0.786 0.035 77 54 23 0 0
0.1925 0.0504 -1.1610 0.761 -0.649 -0.018 73 50 21 0 0
0.1930 0.0499 -1.1657 0.626 -0.763 0.160 69 45 19 0 0
0.1845 0.0604 -1.2160 0.952 -0.116 -0.283 101 88 70 0 0
0.1726 0.0750 -1.2441 0.152 -0.971 0.187 153 148 144 0 0
0.1761 0.0707 -1.2469 -0.372 -0.857 0.358 204 203 205 0 0
0.2160 0.0229 -1.4030 0.794 -0.184 0.580 137 108 65 0 0
0.2594 -0.0297 -1.4827 0.466 -0.876 0.123 169 137 89 0 0
0.2579 -0.0277 -1.4945 0.657 -0.724 -0.209 132 106 63 0 0
0.2580 -0.0279 -1.4997 0.282 -0.803 0.525 135 108 62 0 0
0.2676 -0.0395 -1.5283 0.848 -0.509 0.147 100 79 40 0 0
0.2917 -0.0685 -1.5810 0.674 -0.673 0.304 124 100 65 0 0
0.3569 -0.1477 -1.6410 0.421 -0.785 0.454 95 71 42 0 0
0.3173 -0.0991 -1.7236 0.658 -0.660 0.364 70 51 25 0 0
0.3239 -0.1070 -1.7553 0.583 -0.810 0.053 147 120 77 0 0
0.3256 -0.1090 -1.7701 0.393 -0.901 0.184 104 84 52 0 0
0.3328 -0.1177 -1.7846 0.930 -0.271 0.249 141 116 75 0 0
0.3296 -0.1137 -1.8158 0.948 -0.294 -0.125 101 77 43 0 0
0.3538 -0.1426 -1.9357 0.743 -0.533 0.404 74 53 26 0 0
0.3929 -0.1898 -2.0498 0.671 -0.553 0.494 75 50 23 0 0
0.4423 -0.2493 -2.1906 0.651 -0.539 0.534 111 87 42 0 0
0.4437 -0.2510 -2.1947 0.647 -0.648 0.401 107 83 39 0 0
0.4449 -0.2524 -2.1989 0.641 -0.742 0.195 109 86 42 0 0
0.4455 -0.2532 -2.2040 0.641 -0.742 0.195 118 91 45 0 0
0.4484 -0.2567 -2.2119 0.776 -0.479 0.411 121 93 45 0 0
0.4517 -0.2607 -2.2132 0.685 -0.421 0.595 123 95 47 0 0
0.4642 -0.2758 -2.2314 0.536 -0.613 0.581 117 90 45 0 0
0.1787 0.0596 -1.0600 0.572 -0.562 0.598 73 51 23 0 0
0.1806 0.0573 -1.0637 0.529 -0.735 0.424 79 57 29 0 0
0.1865 0.0504 -1.1282 0.515 -0.588 0.623 71 47 20 0 0
0.1879 0.0487 -1.1322 0.643 -0.745 0.178 72 49 21 0 0
0.1892 0.0474 -1.1906 0.684 -0.718 -0.131 80 58 32 0 0
0.1663 0.0754 -1.2511 -0.181 -0.974 0.138 159 153 149 0 0
0.2208 0.0097 -1.4068 0.356 -0.481 0.802 155 125 80 0 0
0.2536 -0.0299 -1.4846 0.709 -0.699 -0.099 173 142 90 0 0
0.2549 -0.0315 -1.4887 0.625 -0.736 -0.259 160 130 86 0 0
0.2877 -0.0709 -1.5762 0.628 -0.752 0.203 124 103 57 0 0
0.2887 -0.0722 -1.5805 0.666 -0.702 0.252 158 137 100 0 0
0.2905 -0.0743 -1.5895 0.601 -0.613 0.512 124 108 78 0 0
0.3524 -0.1493 -1.6420 0.414 -0.751 0.513 91 67 36 0 0
0.3202 -0.1098 -1.7554 0.681 -0.684 0.262 120 93 48 0 0
0.3210 -0.1108 -1.7601 0.681 -0.684 0.262 130 107 62 0 0
0.3279 -0.1190 -1.8082 0.753 -0.440 0.488 108 84 45 0 0
0.3402 -0.1337 -1.8789 0.779 -0.528 0.337 85 62 31 0 0
0.4378 -0.2512 -2.1860 0.476 -0.822 0.313 102 78 33 0 0
0.4387 -0.2523 -2.1906 0.604 -0.715 0.353 113 89 43 0 0
0.4446 -0.2594 -2.2063 0.638 -0.686 0.349 124 96 49 0 0
0.4455 -0.2605 -2.2110 0.776 -0.479 0.411 122 94 46 0 0
0.4496 -0.2655 -2.2112 0.768 -0.349 0.537 119 91 43 0 0
0.4700 -0.2900 -2.2780 0.670 -0.319 0.670 156 155 148 0 0
0.1250 0.1172 -0.9054 0.448 -0.834 0.322 179 177 177 0 0
0.1753 0.0565 -1.0073 0.542 -0.838 0.059 70 49 24 0 0
0.1812 0.0497 -1.1244 0.238 -0.918 0.316 65 42 16 0 0
0.1822 0.0486 -1.1730 0.536 -0.788 0.302 65 46 19 0 0
0.1853 0.0449 -1.1958 0.536 -0.838 0.097 76 51 23 0 0
0.1857 0.0444 -1.2005 0.585 -0.799 0.140 67 46 24 0 0
0.1602 0.0755 -1.2630 -0.022 -0.918 -0.396 127 122 118 0 0
0.1929 0.0361 -1.3839 0.418 -0.443 0.793 120 99 66 0 0
0.2096 0.0160 -1.3972 0.497 -0.556 0.666 175 140 96 0 0
0.2119 0.0132 -1.4006 0.481 -0.598 0.641 175 142 92 0 0
0.2140 0.0106 -1.4041 0.391 -0.636 0.665 158 128 80 0 0
0.2482 -0.0306 -1.4757 0.594 -0.660 0.460 134 109 71 0 0
0.2500 -0.0328 -1.4794 0.741 -0.522 0.421 118 90 43 0 0
0.2512 -0.0342 -1.4837 0.693 -0.625 0.359 169 138 87 0 0
0.2625 -0.0478 -1.5213 0.888 -0.460 0.001 100 80 45 0 0
0.2845 -0.0744 -1.5758 0.666 -0.702 0.252 117 95 49 0 0
0.2853 -0.0753 -1.5804 0.666 -0.702 0.252 138 115 79 0 0
0.2859 -0.0760 -1.5852 0.626 -0.665 0.408 92 71 45 0 0
0.2871 -0.0775 -1.5894 0.626 -0.665 0.408 115 98 74 0 0
0.3154 -0.1117 -1.6003 -0.053 -0.352 0.935 146 120 76 0 0
0.3264 -0.1250 -1.6005 0.440 -0.071 0.895 152 126 81 0 0
0.3165 -0.1126 -1.7446 0.697 -0.682 0.224 112 91 59 0 0
0.3304 -0.1293 -1.8129 0.556 -0.681 0.476 100 78 41 0 0
0.3316 -0.1308 -1.8171 0.747 -0.664 -0.025 102 79 45 0 0
0.3364 -0.1366 -1.8398 0.802 -0.566 0.191 85 62 30 0 0
0.3406 -0.1416 -1.8576 0.389 -0.663 0.639 80 57 26 0 0
0.3362 -0.1362 -1.8737 0.779 -0.528 0.337 85 62 31 0 0
0.3379 -0.1382 -1.8775 0.721 -0.461 0.517 84 61 30 0 0
0.3610 -0.1661 -1.9475 0.706 -0.684 0.182 71 49 25 0 0
0.4005 -0.2136 -2.0953 0.639 -0.666 0.386 86 61 25 0 0
0.3910 -0.2020 -2.1135 0.716 -0.647 0.262 83 59 23 0 0
0.4150 -0.2310 -2.1588 0.642 -0.525 0.558 78 55 21 0 0
0.4166 -0.2330 -2.1625 0.642 -0.525 0.558 81 58 24 0 0
0.4345 -0.2545 -2.1798 0.566 -0.792 0.229 100 77 34 0 0
0.4426 -0.2642 -2.2102 0.631 -0.638 0.441 124 96 48 0 0
0.4661 -0.2926 -2.2784 0.871 -0.489 0.047 151 146 140 0 0
0.1128 0.1249 -0.9096 0.582 0.230 0.780 150 141 132 0 0
0.1556 0.0731 -0.9262 0.669 -0.548 0.502 135 111 84 0 0
0.1782 0.0462 -1.1241 0.454 -0.858 0.240 71 47 21 0 0
0.1802 0.0438 -1.1869 0.656 -0.752 0.064 69 52 24 0 0
0.1800 0.0441 -1.1920 0.701 -0.625 0.344 62 42 14 0 0
0.1820 0.0417 -1.1957 0.632 -0.712 0.305 70 46 21 0 0
0.1828 0.0407 -1.2001 0.604 -0.686 0.405 59 33 11 0 0
0.1501 0.0803 -1.2828 0.838 -0.539 0.085 111 101 87 0 0
0.1458 0.0855 -1.3168 0.992 0.124 -0.037 94 83 68 0 0
0.1467 0.0845 -1.3266 0.974 0.162 0.155 99 86 67 0 0
0.1531 0.0768 -1.3377 0.870 -0.348 0.350 93 77 57 0 0
0.2112 0.0067 -1.4035 0.714 -0.543 0.442 171 138 86 0 0
0.2397 -0.0277 -1.4536 0.837 -0.484 0.257 125 99 57 0 0
0.2607 -0.0529 -1.5251 0.913 -0.377 0.156 90 70 35 0 0
0.2750 -0.0702 -1.5547 0.854 -0.339 0.394 86 62 29 0 0
0.2763 -0.0717 -1.5589 0.854 -0.339 0.394 123 98 56 0 0
0.2816 -0.0780 -1.5806 0.700 -0.684 0.203 119 95 62 0 0
0.2825 -0.0792 -1.5851 0.696 -0.532 0.482 78 58 33 0 0
0.2840 -0.0809 -1.5891 0.696 -0.532 0.482 105 87 62 0 0
0.3239 -0.1291 -1.5996 0.395 -0.108 0.913 146 120 78 0 0
0.3079 -0.1097 -1.7169 0.700 -0.653 0.289 84 67 40 0 0
0.3079 -0.1096 -1.7224 0.619 -0.684 0.386 71 54 29 0 0
0.3095 -0.1115 -1.7317 0.815 -0.494 0.301 59 42 15 0 0
0.3117 -0.1142 -1.7404 0.741 -0.662 0.116 74 53 25 0 0
0.3220 -0.1265 -1.7848 0.803 -0.558 0.208 125 102 64 0 0
0.3226 -0.1272 -1.8063 0.918 -0.313 0.242 103 79 38 0 0
0.3254 -0.1307 -1.8144 0.635 -0.739 0.226 98 76 39 0 0
0.3256 -0.1309 -1.8198 0.848 -0.518 0.107 98 76 41 0 0
0.3238 -0.1286 -1.8441 0.674 -0.738 -0.012 86 63 31 0 0
0.3332 -0.1400 -1.8563 0.771 -0.535 0.347 82 59 28 0 0
0.3354 -0.1426 -1.8651 0.771 -0.535 0.347 81 58 27 0 0
0.3364 -0.1439 -1.8695 0.771 -0.535 0.347 83 60 29 0 0
0.4711 -0.3059 -2.2901 0.625 -0.715 0.314 202 200 203 0 0
0.0819 0.1549 -0.9034 0.138 0.088 0.986 178 179 181 0 0
0.1180 0.1114 -0.9101 0.369 0.080 0.926 120 100 76 0 0
0.1510 0.0717 -0.9221 0.692 -0.416 0.590 150 125 91 0 0
0.1527 0.0697 -0.9260 0.669 -0.548 0.502 171 145 110 0 0
0.1725 0.0459 -1.1157 0.533 -0.816 0.224 84 65 32 0 0
0.1726 0.0458 -1.1205 0.607 -0.757 0.239 74 53 25 0 0
0.1733 0.0449 -1.1249 0.607 -0.757 0.239 71 48 22 0 0
0.1719 0.0467 -1.1553 0.555 -0.777 0.297 65 45 19 0 0
0.1788 0.0384 -1.2004 0.622 -0.617 0.481 69 50 25 0 0
0.1818 0.0348 -1.2084 0.692 -0.630 0.352 101 79 46 0 0
0.1461 0.0778 -1.3140 0.997 0.009 -0.075 72 58 37 0 0
0.1455 0.0786 -1.3197 0.985 0.105 -0.135 75 60 39 0 0
0.1705 0.0485 -1.3640 0.746 -0.480 0.462 88 70 55 0 0
0.1730 0.0454 -1.3674 0.675 -0.322 0.663 86 68 45 0 0
0.2318 -0.0254 -1.4468 0.349 -0.932 0.100 159 126 81 0 0
0.2587 -0.0577 -1.5185 0.691 -0.557 0.460 85 65 30 0 0
0.2688 -0.0699 -1.5465 0.806 -0.510 0.302 102 82 45 0 0
0.2765 -0.0792 -1.5714 0.703 -0.648 0.292 114 91 55 0 0
0.2783 -0.0813 -1.5804 0.700 -0.684 0.203 89 67 32 0 0
0.2789 -0.0821 -1.5851 0.475 -0.438 0.763 90 73 40 0 0
0.2962 -0.1029 -1.5958 0.263 -0.239 0.935 105 85 53 0 0
0.3068 -0.1156 -1.7308 0.772 -0.601 0.206 81 64 37 0 0
0.3084 -0.1174 -1.7402 0.651 -0.751 0.109 69 48 24 0 0
0.3095 -0.1188 -1.7500 0.517 -0.850 0.103 108 92 53 0 0
0.3171 -0.1279 -1.7752 0.713 -0.595 0.370 83 62 33 0 0
0.3203 -0.1318 -1.8050 0.829 -0.420 0.369 97 72 33 0 0
0.3196 -0.1309 -1.8113 0.708 -0.666 -0.235 95 74 38 0 0
0.3237 -0.1359 -1.8347 0.677 -0.736 0.028 88 63 32 0 0
0.3515 -0.1693 -1.9275 0.646 -0.643 0.410 75 54 27 0 0
0.3891 -0.2145 -2.1009 0.568 -0.781 0.260 83 59 23 0 0
0.4469 -0.2841 -2.2181 0.627 -0.450 0.635 128 101 56 0 0
0.1088 0.1154 -0.8986 0.108 -0.984 0.139 179 176 175 0 0
0.1536 0.0616 -0.9331 0.655 -0.653 0.379 155 127 86 0 0
0.1546 0.0603 -0.9373 0.516 -0.773 0.369 138 107 66 0 0
0.1551 0.0598 -0.9464 0.667 -0.707 0.236 105 80 43 0 0
0.1776 0.0326 -1.2088 0.731 -0.416 0.541 129 111 78 0 0
0.1794 0.0304 -1.2126 0.746 -0.491 0.450 114 90 53 0 0
0.1677 0.0445 -1.3583 0.366 -0.729 0.579 76 60 44 0 0
0.2246 -0.0239 -1.4290 0.790 -0.607 0.086 171 144 97 0 0
0.2556 -0.0612 -1.5181 0.691 -0.557 0.460 90 70 34 0 0
0.3042 -0.1197 -1.7354 0.591 -0.691 0.417 66 46 22 0 0
0.3050 -0.1207 -1.7400 0.637 -0.740 0.216 74 53 27 0 0
0.3128 -0.1301 -1.7814 0.672 -0.664 0.327 81 62 33 0 0
0.3161 -0.1340 -1.8057 0.520 -0.301 0.800 92 69 32 0 0
0.3735 -0.2031 -2.0114 0.801 -0.444 0.400 119 94 53 0 0
0.3734 -0.2029 -2.0579 0.640 -0.556 0.531 77 53 24 0 0
0.3849 -0.2167 -2.0959 0.463 -0.723 0.513 99 72 35 0 0
0.3856 -0.2177 -2.1008 0.701 -0.656 0.279 84 60 22 0 0
0.4442 -0.2881 -2.2169 0.748 -0.448 0.490 124 95 51 0 0
0.4529 -0.2985 -2.2884 0.449 -0.827 0.339 165 160 158 0 0
0.0709 0.1537 -0.9004 0.198 0.075 0.977 179 179 182 0 0
0.1434 0.0668 -0.9178 0.677 -0.468 0.567 127 108 80 0 0
0.1469 0.0626 -0.9254 0.677 -0.468 0.567 204 178 139 0 0
0.1670 0.0381 -1.1885 0.621 -0.534 0.574 50 31 10 0 0
0.1458 0.0635 -1.2886 0.817 -0.327 0.474 65 47 23 0 0
0.1564 0.0506 -1.3482 0.673 -0.306 0.673 101 86 63 0 0
0.1635 0.0421 -1.3586 0.366 -0.729 0.579 78 61 44 0 0
0.2253 -0.0320 -1.4516 0.862 -0.329 0.385 174 143 94 0 0
0.2266 -0.0336 -1.4557 0.892 -0.354 0.279 155 123 77 0 0
0.2520 -0.0641 -1.5129 0.582 -0.620 0.526 95 73 36 0 0
0.2668 -0.0818 -1.5421 0.918 -0.266 0.293 87 66 32 0 0
0.2692 -0.0847 -1.5558 0.662 -0.527 0.533 65 48 21 0 0
0.2999 -0.1218 -1.7306 0.631 -0.750 0.200 74 54 30 0 0
0.3020 -0.1243 -1.7504 0.620 -0.768 0.160 110 91 57 0 0
0.3340 -0.1628 -1.8605 0.529 -0.840 0.120 74 53 25 0 0
0.3726 -0.2093 -2.0544 0.830 -0.505 0.238 75 51 23 0 0
0.3766 -0.2141 -2.0727 0.463 -0.842 0.277 75 54 21 0 0
0.3982 -0.2400 -2.1210 0.539 -0.673 0.506 80 58 21 0 0
0.4347 -0.2840 -2.2074 0.684 -0.198 0.702 126 98 51 0 0
0.4510 -0.3035 -2.2321 0.427 -0.767 0.478 123 98 56 0 0
0.4525 -0.3054 -2.2959 0.381 -0.640 0.668 192 192 194 0 0
0.0689 0.1488 -0.8997 0.198 0.075 0.977 179 179 181 0 0
0.1565 0.0438 -1.0994 0.476 -0.865 0.161 88 67 36 0 0
0.1565 0.0437 -1.1043 0.553 -0.833 -0.011 83 62 32 0 0
0.1892 0.0040 -1.3887 0.675 -0.399 0.621 157 129 84 0 0
0.2504 -0.0694 -1.5165 0.556 -0.629 0.544 75 55 24 0 0
0.3135 -0.1450 -1.6016 0.076 -0.522 0.849 146 118 77 0 0
0.2947 -0.1228 -1.7159 0.640 -0.699 0.320 80 61 30 0 0
0.2936 -0.1215 -1.7225 0.640 -0.550 0.537 63 43 15 0 0
0.2955 -0.1237 -1.7261 0.630 -0.577 0.521 63 43 19 0 0
0.2969 -0.1255 -1.7301 0.663 -0.622 0.415 63 45 21 0 0
0.3309 -0.1663 -1.8377 0.853 -0.520 0.042 77 56 28 0 0
0.3301 -0.1654 -1.8441 0.945 -0.301 0.126 75 55 26 0 0
0.3607 -0.2023 -2.0069 0.582 -0.659 0.476 61 41 15 0 0
0.3711 -0.2148 -2.0344 0.482 -0.798 0.360 79 58 27 0 0
0.1439 0.0521 -0.9515 0.731 -0.553 0.399 69 48 22 0 0
0.1468 0.0484 -1.0258 0.809 -0.499 0.310 74 52 29 0 0
0.1472 0.0480 -1.0303 0.503 -0.793 0.344 67 45 21 0 0
0.1481 0.0469 -1.0346 0.514 -0.779 0.359 79 58 30 0 0
0.1492 0.0456 -1.0388 0.459 -0.829 0.319 74 53 24 0 0
0.1498 0.0448 -1.0433 0.558 -0.813 0.168 73 52 21 0 0
0.1574 0.0353 -1.1852 0.546 -0.698 0.464 66 46 20 0 0
0.1478 0.0465 -1.2976 0.787 -0.437 0.435 80 64 35 0 0
0.1491 0.0448 -1.3018 0.787 -0.437 0.435 87 69 44 0 0
0.1485 0.0455 -1.3125 0.894 -0.440 0.082 80 64 37 0 0
0.1495 0.0443 -1.3169 0.934 -0.326 0.149 74 59 37 0 0
0.1814 0.0061 -1.3764 0.549 -0.677 0.490 80 59 31 0 0
0.1856 0.0011 -1.3835 0.607 -0.669 0.428 153 127 86 0 0
0.1890 -0.0030 -1.3913 0.453 -0.774 0.442 181 153 102 0 0
0.2343 -0.0572 -1.4644 0.742 -0.503 0.443 122 99 57 0 0
0.2411 -0.0653 -1.4692 0.570 -0.776 0.270 120 94 56 0 0
0.3148 -0.1536 -1.6076 0.450 -0.801 0.395 147 117 73 0 0
0.3347 -0.1774 -1.6200 0.568 -0.771 0.288 77 55 30 0 0
0.2936 -0.1288 -1.7298 0.663 -0.622 0.415 72 53 30 0 0
0.3318 -0.1748 -1.8999 0.555 -0.696 0.455 62 45 19 0 0
0.3555 -0.2034 -1.9916 0.702 -0.599 0.385 64 42 19 0 0
0.3575 -0.2057 -2.0008 0.613 -0.558 0.559 59 38 15 0 0
0.3652 -0.2149 -2.0144 0.753 -0.404 0.520 107 82 44 0 0
0.3676 -0.2179 -2.0345 0.713 -0.684 0.156 76 57 27 0 0
0.4098 -0.2686 -2.1667 0.451 -0.789 0.417 91 69 32 0 0
0.4111 -0.2701 -2.1710 0.592 -0.702 0.397 93 70 30 0 0
0.1394 0.0505 -0.9520 0.653 -0.671 0.350 70 49 23 0 0
0.1425 0.0466 -1.0262 0.498 -0.819 0.284 71 49 25 0 0
0.1433 0.0456 -1.0305 0.498 -0.819 0.284 72 51 25 0 0
0.1441 0.0447 -1.0349 0.502 -0.845 0.185 76 55 28 0 0
0.1451 0.0434 -1.0392 0.629 -0.724 0.283 67 45 20 0 0
0.1459 0.0425 -1.0435 0.629 -0.724 0.283 66 44 18 0 0
0.1500 0.0370 -1.1827 0.498 -0.676 0.543 79 59 29 0 0
0.1538 0.0324 -1.1852 0.546 -0.698 0.464 70 49 22 0 0
0.1696 0.0135 -1.2347 0.886 -0.462 -0.027 107 87 55 0 0
0.1416 0.0466 -1.2840 0.649 -0.509 0.566 89 74 45 0 0
0.1425 0.0454 -1.2885 0.775 -0.497 0.389 103 87 60 0 0
0.1465 0.0407 -1.3011 0.787 -0.437 0.435 61 41 16 0 0
0.1480 0.0388 -1.3206 0.865 -0.466 -0.186 51 36 21 0 0
0.1475 0.0393 -1.3261 0.882 -0.452 -0.136 43 29 19 0 0
0.1443 0.0431 -1.3336 0.710 -0.595 0.375 47 35 25 0 0
0.1579 0.0269 -1.3548 0.751 -0.322 0.577 110 94 65 0 0
0.1789 0.0018 -1.3755 0.457 -0.643 0.614 99 76 41 0 0
0.1808 -0.0004 -1.3793 0.457 -0.643 0.614 91 69 36 0 0
0.1815 -0.0012 -1.3840 0.686 -0.682 0.254 147 123 80 0 0
0.1830 -0.0030 -1.3880 0.515 -0.819 0.254 170 142 97 0 0
0.2188 -0.0458 -1.4378 0.577 -0.635 0.513 132 106 63 0 0
0.2489 -0.0819 -1.5171 0.825 -0.373 0.425 76 55 29 0 0
0.2733 -0.1112 -1.5848 0.706 -0.606 0.368 119 101 75 0 0
0.3314 -0.1805 -1.6357 0.526 -0.831 0.183 83 64 39 0 0
0.3251 -0.1740 -1.8866 0.542 -0.788 0.292 62 45 20 0 0
0.3260 -0.1751 -1.8912 0.542 -0.788 0.292 61 44 18 0 0
0.3780 -0.2377 -2.0866 0.643 -0.728 0.236 130 101 57 0 0
0.4094 -0.2753 -2.1625 0.537 -0.748 0.391 91 69 32 0 0
0.4439 -0.3166 -2.2332 0.570 -0.680 0.462 119 92 47 0 0
0.4525 -0.3269 -2.2447 0.739 -0.564 0.370 81 68 40 0 0
0.4536 -0.3282 -2.2491 0.739 -0.564 0.370 78 67 44 0 0
0.1338 0.0503 -0.9484 0.693 -0.646 0.321 76 55 28 0 0
0.1358 0.0478 -0.9567 0.507 -0.666 0.547 59 38 12 0 0
0.1384 0.0444 -1.0265 0.386 -0.864 0.323 68 47 22 0 0
0.1422 0.0399 -1.0340 0.669 -0.608 0.428 70 48 25 0 0
0.1439 0.0378 -1.0378 0.728 -0.343 0.594 63 41 18 0 0
0.1449 0.0366 -1.0421 0.825 -0.120 0.552 78 58 30 0 0
0.1463 0.0342 -1.1828 0.498 -0.676 0.543 75 53 21 0 0
0.1693 0.0067 -1.2325 0.443 -0.744 0.501 114 95 62 0 0
0.1520 0.0267 -1.3514 0.830 -0.492 0.262 113 97 70 0 0
0.1765 -0.0025 -1.3747 0.692 -0.593 0.411 140 113 77 0 0
0.1781 -0.0045 -1.3838 0.686 -0.682 0.254 148 122 80 0 0
0.1794 -0.0060 -1.3880 0.622 -0.721 0.307 164 135 91 0 0
0.2352 -0.0727 -1.4734 0.679 -0.422 0.600 104 84 47 0 0
0.2408 -0.0792 -1.4844 0.644 -0.499 0.580 107 80 39 0 0
0.2712 -0.1158 -1.5836 0.567 -0.718 0.405 105 87 58 0 0
0.2725 -0.1174 -1.5877 0.570 -0.705 0.422 150 130 95 0 0
0.3278 -0.1831 -1.6254 0.622 -0.703 0.344 85 64 38 0 0
0.3142 -0.1672 -1.6755 0.680 -0.368 -0.634 89 68 38 0 0
0.2945 -0.1441 -1.7057 0.704 -0.685 0.186 76 57 29 0 0
0.2966 -0.1467 -1.7361 0.691 -0.654 0.308 62 44 20 0 0
0.3034 -0.1551 -1.8004 0.844 -0.301 0.444 112 89 54 0 0
0.3205 -0.1758 -1.8878 0.617 -0.689 0.381 64 47 21 0 0
0.3537 -0.2158 -2.0082 0.736 -0.532 0.420 70 46 22 0 0
0.3648 -0.2289 -2.0120 0.914 -0.151 0.378 134 106 53 0 0
0.3665 -0.2313 -2.0733 0.457 -0.525 0.718 79 55 22 0 0
0.3743 -0.2405 -2.0868 0.429 -0.780 0.456 149 120 75 0 0
0.3838 -0.2519 -2.1037 0.699 -0.406 0.589 73 50 17 0 0
0.3855 -0.2540 -2.1190 0.522 -0.668 0.530 78 56 19 0 0
0.4069 -0.2796 -2.1671 0.593 -0.701 0.396 91 68 29 0 0
0.4079 -0.2808 -2.1716 0.452 -0.823 0.345 95 72 31 0 0
0.4081 -0.2810 -2.1773 0.608 -0.608 0.511 100 76 33 0 0
0.4286 -0.3055 -2.2142 0.380 -0.652 0.656 114 87 42 0 0
0.4352 -0.3135 -2.2286 0.410 -0.729 0.548 119 91 50 0 0
0.4403 -0.3195 -2.2334 0.680 -0.478 0.556 127 100 55 0 0
0.4419 -0.3214 -2.2370 0.535 -0.583 0.611 124 99 55 0 0
0.1134 0.0676 -0.9051 0.551 -0.759 0.347 114 92 59 0 0
0.1298 0.0480 -0.9486 0.594 -0.785 0.176 73 52 26 0 0
0.1339 0.0429 -0.9985 0.777 -0.601 0.186 76 55 29 0 0
0.1350 0.0415 -1.0122 0.655 -0.738 0.160 76 54 30 0 0
0.1428 0.0312 -1.1827 0.432 -0.714 0.552 81 61 32 0 0
0.1469 0.0263 -1.1950 0.515 -0.649 0.559 63 45 25 0 0
0.1590 0.0117 -1.2471 0.825 -0.307 -0.475 90 71 38 0 0
0.1959 -0.0329 -1.3985 0.687 -0.594 0.418 204 173 111 0 0
0.2158 -0.0566 -1.4397 0.736 -0.616 0.281 125 101 61 0 0
0.2674 -0.1184 -1.5839 0.639 -0.632 0.437 98 81 52 0 0
0.2690 -0.1203 -1.5877 0.570 -0.705 0.422 126 106 72 0 0
0.3162 -0.1766 -1.6649 0.603 -0.426 -0.675 123 102 67 0 0
0.3133 -0.1732 -1.6730 0.680 -0.368 -0.634 89 68 38 0 0
0.3459 -0.2136 -1.9905 0.548 -0.759 0.352 69 45 21 0 0
0.3658 -0.2377 -2.0697 0.463 -0.842 0.278 78 54 20 0 0
0.3669 -0.2389 -2.0742 0.437 -0.873 0.215 104 76 33 0 0
0.3676 -0.2398 -2.0791 0.429 -0.780 0.456 122 93 42 0 0
0.3689 -0.2414 -2.0832 0.429 -0.780 0.456 169 135 83 0 0
0.3703 -0.2431 -2.0873 0.429 -0.780 0.456 165 135 88 0 0
0.3805 -0.2552 -2.1035 0.429 -0.619 0.658 73 50 18 0 0
0.3876 -0.2638 -2.1410 0.817 -0.497 0.294 82 60 23 0 0
0.4208 -0.3035 -2.2023 0.679 -0.508 0.530 115 88 40 0 0
0.4224 -0.3053 -2.2061 0.679 -0.508 0.530 113 87 37 0 0
0.4334 -0.3185 -2.2263 0.642 -0.597 0.481 121 94 50 0 0
0.4356 -0.3211 -2.2291 0.632 -0.551 0.545 117 90 45 0 0
0.4372 -0.3230 -2.2327 0.680 -0.478 0.556 126 99 55 0 0
0.1073 0.0679 -0.9017 0.519 -0.610 0.599 183 161 128 0 0
0.1087 0.0662 -0.9057 0.584 -0.729 0.358 128 111 78 0 0
0.1097 0.0650 -0.9099 0.584 -0.729 0.358 61 44 18 0 0
0.1120 0.0623 -0.9135 0.534 -0.646 0.546 77 59 30 0 0
0.1308 0.0395 -0.9982 0.753 -0.642 0.141 74 54 28 0 0
0.1314 0.0388 -1.0027 0.676 -0.737 0.014 82 63 37 0 0
0.1333 0.0355 -1.1666 0.354 -0.870 0.343 65 44 19 0 0
0.1928 -0.0363 -1.3982 0.687 -0.594 0.418 214 183 122 0 0
0.1971 -0.0415 -1.4052 0.725 -0.559 0.403 195 161 107 0 0
0.1999 -0.0448 -1.4082 0.626 -0.675 0.391 190 157 106 0 0
0.2120 -0.0590 -1.4194 0.798 -0.416 0.436 156 123 79 0 0
0.2167 -0.0649 -1.4517 0.422 -0.860 0.286 111 86 48 0 0
0.2204 -0.0693 -1.4591 0.669 -0.574 0.472 104 80 44 0 0
0.2648 -0.1225 -1.5830 0.661 -0.598 0.453 111 94 63 0 0
0.2646 -0.1222 -1.5885 0.516 -0.674 0.529 128 107 73 0 0
0.2737 -0.1330 -1.5961 0.812 -0.062 0.581 107 86 56 0 0
0.2895 -0.1524 -1.7037 0.864 -0.362 0.350 86 66 35 0 0
0.3467 -0.2218 -1.9910 0.708 -0.548 0.446 70 46 22 0 0
0.3740 -0.2547 -2.1015 0.484 -0.865 0.131 73 51 18 0 0
0.3776 -0.2590 -2.1026 0.679 -0.540 0.498 74 51 18 0 0
0.3791 -0.2608 -2.1065 0.679 -0.540 0.498 74 51 18 0 0
0.3793 -0.2611 -2.1121 0.641 -0.662 0.387 72 49 16 0 0
0.3804 -0.2625 -2.1164 0.641 -0.662 0.387 79 56 22 0 0
0.3832 -0.2658 -2.1245 0.485 -0.811 0.328 80 58 23 0 0
0.3852 -0.2682 -2.1277 0.379 -0.841 0.387 80 57 22 0 0
0.4174 -0.3066 -2.2022 0.614 -0.644 0.457 114 89 40 0 0
0.4191 -0.3086 -2.2117 0.380 -0.652 0.656 118 92 43 0 0
0.4209 -0.3109 -2.2151 0.380 -0.652 0.656 118 92 43 0 0
0.4228 -0.3131 -2.2184 0.380 -0.652 0.656 114 89 39 0 0
0.4440 -0.3383 -2.2478 0.523 -0.506 0.686 81 68 42 0 0
0.4384 -0.3318 -2.2678 0.833 -0.554 0.019 97 89 72 0 0
0.1050 0.0636 -0.9058 0.533 -0.718 0.447 108 91 57 0 0
0.1062 0.0621 -0.9099 0.664 -0.646 0.377 67 48 19 0 0
0.1083 0.0597 -0.9136 0.708 -0.502 0.496 96 77 47 0 0
0.1240 0.0405 -1.0000 0.160 -0.987 0.024 75 55 29 0 0
0.1202 0.0449 -1.0259 0.049 -0.998 -0.039 72 51 24 0 0
0.1174 0.0480 -1.0322 0.321 -0.929 0.186 89 69 45 0 0
0.1627 -0.0068 -1.2299 0.519 -0.633 0.574 95 71 36 0 0
0.1857 -0.0351 -1.3957 0.541 -0.325 0.776 212 181 125 0 0
0.2112 -0.0655 -1.4429 0.674 -0.671 0.309 150 126 86 0 0
0.2173 -0.0727 -1.4588 0.669 -0.574 0.472 107 81 45 0 0
0.2501 -0.1118 -1.5248 0.942 0.093 0.323 74 56 27 0 0
0.2539 -0.1163 -1.5320 0.995 -0.030 0.100 68 49 19 0 0
0.2604 -0.1244 -1.5838 0.684 -0.372 0.627 105 88 55 0 0
0.2610 -0.1251 -1.5886 0.476 -0.653 0.589 119 97 64 0 0
0.2609 -0.1251 -1.5939 0.439 -0.861 0.256 120 97 60 0 0
0.3246 -0.2004 -1.6447 0.849 -0.491 0.194 111 92 63 0 0
0.3280 -0.2044 -1.6466 0.865 -0.501 -0.023 118 96 62 0 0
0.3133 -0.1872 -1.6662 0.721 -0.319 -0.616 94 73 41 0 0
0.2879 -0.1577 -1.7018 0.919 -0.393 -0.003 87 68 36 0 0
0.2962 -0.1686 -1.8578 0.413 -0.711 0.569 59 39 17 0 0
0.3257 -0.2040 -1.9431 0.799 -0.514 0.310 66 44 20 0 0
0.3340 -0.2139 -1.9733 0.654 -0.594 0.469 71 48 24 0 0
0.3761 -0.2644 -2.1059 0.533 -0.668 0.520 75 52 18 0 0
0.3810 -0.2705 -2.1286 0.510 -0.712 0.483 79 57 21 0 0
0.3812 -0.2706 -2.1343 0.568 -0.704 0.427 79 57 20 0 0
0.3828 -0.2726 -2.1380 0.737 -0.473 0.484 81 59 22 0 0
0.3909 -0.2822 -2.1508 0.507 -0.708 0.492 93 71 32 0 0
0.3918 -0.2833 -2.1555 0.512 -0.728 0.457 87 65 26 0 0
0.4146 -0.3105 -2.2131 0.388 -0.679 0.624 119 93 44 0 0
0.4163 -0.3126 -2.2166 0.453 -0.620 0.641 117 91 42 0 0
0.4390 -0.3394 -2.2441 0.494 -0.681 0.541 86 71 40 0 0
0.4396 -0.3403 -2.2550 0.742 -0.664 0.094 80 69 48 0 0
0.1012 0.0612 -0.9060 0.522 -0.648 0.555 88 67 34 0 0
0.1028 0.0592 -0.9098 0.522 -0.648 0.555 99 78 41 0 0
0.1146 0.0443 -1.0270 0.014 -1.000 0.012 83 66 42 0 0
0.1133 0.0459 -1.0326 0.421 -0.905 0.065 90 75 58 0 0
0.1129 0.0462 -1.0472 0.966 -0.168 -0.196 163 160 155 0 0
0.1511 -0.0005 -1.2553 0.717 -0.484 -0.503 78 57 26 0 0
0.2051 -0.0651 -1.4141 0.623 -0.673 0.400 122 99 57 0 0
0.2597 -0.1306 -1.5866 0.592 -0.520 0.616 85 68 35 0 0
0.2925 -0.1692 -1.5986 0.372 -0.154 0.915 170 139 86 0 0
0.2977 -0.1753 -1.5990 0.189 -0.193 0.963 165 134 83 0 0
0.3038 -0.1824 -1.5986 0.098 -0.402 0.911 158 126 82 0 0
0.3221 -0.2043 -1.6438 0.849 -0.491 0.194 110 91 60 0 0
0.2860 -0.1625 -1.7002 0.929 -0.368 0.039 88 69 37 0 0
0.2833 -0.1596 -1.7353 0.619 -0.603 0.503 75 58 38 0 0
0.3560 -0.2479 -2.0802 0.746 -0.389 0.540 84 60 19 0 0
0.3789 -0.2752 -2.1384 0.680 -0.489 0.546 79 57 20 0 0
0.4283 -0.3340 -2.2305 0.571 -0.497 0.653 119 92 45 0 0
0.0933 0.0635 -0.8986 0.196 -0.675 0.711 156 132 99 0 0
0.1113 0.0418 -0.9650 0.305 -0.904 0.300 59 39 15 0 0
0.1073 0.0459 -1.0291 0.777 0.026 0.629 118 110 100 0 0
0.1104 0.0422 -1.0322 0.818 0.060 0.571 146 143 138 0 0
0.1117 0.0406 -1.0363 0.837 -0.477 0.270 171 170 168 0 0
0.0637 0.0958 -1.1371 -0.404 -0.909 -0.099 191 191 193 0 0
0.1525 -0.0088 -1.2220 0.648 -0.286 0.706 128 101 64 0 0
0.1581 -0.0155 -1.2283 0.678 -0.556 0.480 86 62 27 0 0
0.1348 0.0111 -1.2943 0.835 -0.486 0.260 89 72 43 0 0
0.2480 -0.1238 -1.5623 0.725 -0.584 0.366 102 80 43 0 0
0.2895 -0.1727 -1.5982 0.375 -0.182 0.909 166 139 88 0 0
0.2935 -0.1774 -1.5997 0.265 -0.252 0.931 158 131 80 0 0
0.3202 -0.2089 -1.6424 0.670 -0.733 0.120 102 84 53 0 0
0.2824 -0.1653 -1.7004 0.860 -0.491 -0.141 87 68 36 0 0
0.2827 -0.1661 -1.7433 0.640 -0.742 0.199 42 29 12 0 0
0.3180 -0.2092 -1.9326 0.521 -0.642 0.563 65 43 19 0 0
0.3352 -0.2299 -1.9863 0.593 -0.669 0.449 69 45 21 0 0
0.3364 -0.2312 -1.9906 0.621 -0.721 0.306 68 44 19 0 0
0.3289 -0.2227 -2.0110 0.601 -0.663 0.446 69 45 19 0 0
0.3703 -0.2722 -2.1217 0.724 -0.602 0.337 72 49 16 0 0
0.3741 -0.2767 -2.1284 0.679 -0.569 0.464 81 59 23 0 0
0.3826 -0.2869 -2.1583 0.416 -0.757 0.504 88 66 27 0 0
0.3870 -0.2922 -2.1759 0.656 -0.751 0.073 87 65 24 0 0
0.3873 -0.2926 -2.1815 0.656 -0.751 0.073 94 71 30 0 0
0.4014 -0.3093 -2.2037 0.830 -0.369 0.418 113 86 38 0 0
0.4042 -0.3127 -2.2117 0.615 -0.526 0.588 115 90 41 0 0
0.4087 -0.3180 -2.2174 0.449 -0.690 0.568 117 91 41 0 0
0.4210 -0.3325 -2.2299 0.823 -0.546 0.157 117 93 50 0 0
0.1067 0.0402 -0.9608 0.542 -0.819 0.187 69 49 25 0 0
0.1077 0.0390 -0.9651 0.587 -0.754 0.294 54 34 12 0 0
0.1087 0.0379 -0.9693 0.538 -0.800 0.265 64 44 20 0 0
0.1095 0.0368 -0.9736 0.694 -0.714 0.088 65 45 20 0 0
0.0534 0.1006 -1.1410 -0.403 -0.908 -0.114 190 191 193 0 0
0.1492 -0.0124 -1.2518 0.553 -0.798 -0.238 79 59 27 0 0
0.1418 -0.0048 -1.3534 0.651 -0.682 0.334 96 81 49 0 0
0.1447 -0.0082 -1.3565 0.676 -0.624 0.393 114 94 64 0 0
0.2308 -0.1106 -1.5428 0.832 -0.545 -0.100 68 48 23 0 0
0.2458 -0.1282 -1.5559 0.506 -0.303 0.808 84 64 30 0 0
0.2466 -0.1292 -1.5605 0.772 -0.266 0.578 96 75 39 0 0
0.2866 -0.1762 -1.5977 0.343 -0.218 0.914 157 134 79 0 0
0.3093 -0.2029 -1.6129 0.477 -0.463 0.747 156 129 93 0 0
0.3093 -0.2033 -1.6495 0.906 -0.358 -0.224 94 74 43 0 0
