ply
format ascii 1.0
element vertex 859
property float x
property float y
property float z
property float nx
property float ny
property float nz
property uchar diffuse_red
property uchar diffuse_green
property uchar diffuse_blue
property uchar class
property uchar detection
end_header
0.4278 -0.2405 -2.1683 0.584 -0.689 0.430 79 56 24 0 0
0.4302 -0.2425 -2.1715 0.586 -0.726 0.359 79 56 23 0 0
0.0882 0.0464 -0.9133 0.715 -0.404 0.570 147 118 76 0 0
0.0972 0.0387 -0.9329 0.347 -0.861 0.372 70 48 24 0 0
0.1009 0.0353 -0.9782 0.361 -0.930 0.065 74 54 27 0 0
0.0974 0.0381 -0.9844 0.309 -0.948 0.080 77 57 31 0 0
0.0968 0.0386 -0.9894 0.423 -0.883 -0.203 78 59 35 0 0
0.1119 0.0243 -1.1855 0.240 -0.671 0.702 65 43 14 0 0
0.1293 0.0097 -1.2060 0.509 -0.421 0.750 99 85 48 0 0
0.1321 0.0074 -1.2095 0.552 -0.389 0.738 109 91 52 0 0
0.1682 -0.0241 -1.3852 0.725 -0.672 0.154 197 172 117 0 0
0.1899 -0.0422 -1.3971 0.748 -0.448 0.490 221 190 138 0 0
0.2110 -0.0601 -1.4295 0.690 -0.556 0.464 108 81 44 0 0
0.2126 -0.0615 -1.4335 0.690 -0.556 0.464 79 54 25 0 0
0.2179 -0.0659 -1.4455 0.759 -0.469 0.451 85 63 30 0 0
0.2328 -0.0787 -1.4868 0.810 -0.541 0.224 118 93 55 0 0
0.2617 -0.1034 -1.5755 0.803 -0.410 0.432 65 45 19 0 0
0.3362 -0.1659 -1.6541 0.797 -0.395 -0.457 107 85 52 0 0
0.2969 -0.1339 -1.7181 0.754 -0.466 0.464 70 50 29 0 0
0.3044 -0.1405 -1.7551 0.750 -0.486 0.448 77 55 25 0 0
0.3060 -0.1418 -1.7592 0.750 -0.486 0.448 55 34 14 0 0
0.3071 -0.1428 -1.7637 0.836 -0.385 0.390 57 38 19 0 0
0.3524 -0.1821 -1.9612 0.750 -0.522 0.406 66 42 19 0 0
0.4034 -0.2259 -2.1215 0.666 -0.588 0.459 78 58 25 0 0
0.4282 -0.2469 -2.1703 0.686 -0.628 0.367 80 57 25 0 0
0.4433 -0.2596 -2.1945 0.634 -0.675 0.378 103 81 35 0 0
0.4595 -0.2733 -2.2230 0.838 -0.343 0.425 117 90 47 0 0
0.4611 -0.2746 -2.2272 0.838 -0.343 0.425 116 89 46 0 0
0.0675 0.0578 -0.9016 0.324 -0.523 0.788 126 106 75 0 0
0.0921 0.0371 -0.9385 0.397 -0.893 0.211 67 50 26 0 0
0.0912 0.0374 -0.9858 0.442 -0.896 0.042 78 60 37 0 0
0.0912 0.0373 -0.9905 0.440 -0.898 0.023 80 61 37 0 0
0.0903 0.0380 -1.0004 0.224 -0.905 -0.363 87 70 48 0 0
0.1075 0.0220 -1.1862 0.240 -0.671 0.702 79 56 27 0 0
0.1105 0.0195 -1.1896 0.240 -0.671 0.702 77 54 27 0 0
0.1245 0.0077 -1.2070 0.151 -0.632 0.760 86 72 37 0 0
0.1308 0.0024 -1.2086 0.684 -0.176 0.708 92 73 37 0 0
0.1299 0.0020 -1.3400 0.697 -0.675 0.243 100 88 74 0 0
0.1599 -0.0231 -1.3628 0.665 -0.425 0.614 108 89 64 0 0
0.1615 -0.0245 -1.3669 0.687 -0.704 0.183 130 108 76 0 0
0.1670 -0.0292 -1.3840 0.799 -0.537 0.270 205 176 126 0 0
0.1881 -0.0468 -1.3963 0.859 -0.441 0.261 200 171 117 0 0
0.1891 -0.0476 -1.4008 0.859 -0.441 0.261 204 175 125 0 0
0.1935 -0.0513 -1.4031 0.521 -0.597 0.611 188 156 106 0 0
0.2081 -0.0636 -1.4294 0.690 -0.556 0.464 111 85 46 0 0
0.2097 -0.0650 -1.4335 0.690 -0.556 0.464 88 64 31 0 0
0.2175 -0.0716 -1.4489 0.721 -0.387 0.575 107 82 47 0 0
0.2247 -0.0777 -1.4646 0.718 -0.479 0.505 94 71 35 0 0
0.2265 -0.0792 -1.4685 0.718 -0.479 0.505 79 58 25 0 0
0.2370 -0.0882 -1.4974 0.731 -0.330 0.597 75 54 26 0 0
0.2526 -0.1015 -1.5382 0.907 -0.361 0.218 65 45 21 0 0
0.2603 -0.1082 -1.5743 0.781 -0.427 0.455 67 47 21 0 0
0.3367 -0.1721 -1.6409 0.924 -0.373 0.081 69 47 26 0 0
0.3355 -0.1711 -1.6471 0.822 -0.508 -0.256 73 52 29 0 0
0.3326 -0.1688 -1.6547 0.958 -0.244 -0.150 101 79 45 0 0
0.3047 -0.1468 -1.7687 0.708 -0.496 0.502 65 47 27 0 0
0.3053 -0.1474 -1.7791 0.830 -0.526 0.185 63 45 25 0 0
0.3122 -0.1535 -1.8224 0.852 -0.385 0.355 75 49 24 0 0
0.3405 -0.1775 -1.8799 0.601 -0.304 0.739 57 34 13 0 0
0.3443 -0.1810 -1.9154 0.804 -0.417 0.424 66 41 19 0 0
0.3483 -0.1847 -1.9566 0.742 -0.537 0.402 74 49 24 0 0
0.3491 -0.1854 -1.9615 0.680 -0.680 0.274 72 47 24 0 0
0.3507 -0.1868 -1.9655 0.775 -0.476 0.415 69 43 20 0 0
0.3522 -0.1881 -1.9698 0.775 -0.476 0.415 67 41 18 0 0
0.3652 -0.1993 -2.0196 0.821 -0.490 0.295 116 90 48 0 0
0.3660 -0.2000 -2.0245 0.644 -0.340 0.685 138 109 61 0 0
0.3784 -0.2107 -2.0751 0.673 -0.612 0.416 83 57 27 0 0
0.3830 -0.2146 -2.0877 0.681 -0.508 0.528 134 108 62 0 0
0.4204 -0.2464 -2.1640 0.662 -0.445 0.603 78 55 24 0 0
0.4267 -0.2517 -2.1746 0.669 -0.617 0.414 88 66 31 0 0
0.4282 -0.2530 -2.1788 0.669 -0.617 0.414 96 74 37 0 0
0.4560 -0.2764 -2.2178 0.639 -0.509 0.577 119 92 49 0 0
0.4579 -0.2779 -2.2215 0.768 -0.450 0.456 117 90 47 0 0
0.4595 -0.2793 -2.2256 0.768 -0.450 0.456 117 90 47 0 0
0.4740 -0.2915 -2.2500 0.639 -0.705 0.307 95 81 55 0 0
0.4754 -0.2928 -2.2542 0.704 -0.590 0.394 82 73 57 0 0
0.4750 -0.2925 -2.2606 0.760 -0.544 0.354 96 87 74 0 0
0.0704 0.0495 -0.9086 0.274 -0.750 0.602 116 94 63 0 0
0.0711 0.0489 -0.9130 0.211 -0.833 0.511 118 95 63 0 0
0.0801 0.0413 -0.9234 0.179 -0.553 0.814 104 82 48 0 0
0.0843 0.0372 -0.9875 0.206 -0.974 0.097 77 59 35 0 0
0.0845 0.0370 -0.9921 0.258 -0.961 0.094 92 72 50 0 0
0.0875 0.0345 -0.9956 0.090 -0.929 -0.360 104 88 67 0 0
0.1292 -0.0022 -1.2078 0.661 -0.149 0.735 87 68 32 0 0
0.1530 -0.0234 -1.3652 0.626 -0.486 0.610 106 84 57 0 0
0.1641 -0.0329 -1.3891 0.654 -0.600 0.461 198 165 108 0 0
0.1832 -0.0487 -1.3924 0.577 -0.541 0.612 232 204 139 0 0
0.1861 -0.0511 -1.3957 0.738 -0.615 0.278 156 127 72 0 0
0.1877 -0.0524 -1.3998 0.486 -0.653 0.582 165 136 86 0 0
0.1898 -0.0542 -1.4035 0.486 -0.653 0.582 196 163 115 0 0
0.2036 -0.0658 -1.4253 0.690 -0.556 0.464 120 97 57 0 0
0.2052 -0.0672 -1.4294 0.690 -0.556 0.464 116 93 51 0 0
0.2068 -0.0686 -1.4334 0.690 -0.556 0.464 98 75 35 0 0
0.2084 -0.0699 -1.4376 0.644 -0.591 0.485 111 88 53 0 0
0.2128 -0.0736 -1.4449 0.764 -0.419 0.491 92 68 31 0 0
0.2147 -0.0752 -1.4487 0.674 -0.466 0.573 97 72 37 0 0
0.2238 -0.0829 -1.4683 0.582 -0.620 0.526 84 62 31 0 0
0.2332 -0.0909 -1.4876 0.753 -0.602 0.266 75 51 20 0 0
0.2365 -0.0938 -1.5008 0.732 -0.489 0.474 77 56 25 0 0
0.2382 -0.0952 -1.5048 0.732 -0.489 0.474 77 56 29 0 0
0.3340 -0.1756 -1.6356 0.755 -0.573 0.319 63 41 20 0 0
0.3345 -0.1762 -1.6456 0.973 -0.231 0.025 66 45 24 0 0
0.3315 -0.1738 -1.6532 0.958 -0.244 -0.150 91 70 37 0 0
0.2923 -0.1420 -1.7170 0.882 -0.377 0.285 60 40 17 0 0
0.2925 -0.1422 -1.7222 0.768 -0.551 0.327 69 50 29 0 0
0.3002 -0.1490 -1.7645 0.708 -0.496 0.502 60 42 19 0 0
0.3020 -0.1505 -1.7685 0.708 -0.496 0.502 59 41 21 0 0
0.3036 -0.1520 -1.7725 0.642 -0.611 0.464 55 37 17 0 0
0.3182 -0.1644 -1.8090 0.201 -0.427 0.882 70 44 19 0 0
0.3391 -0.1824 -1.8840 0.596 -0.443 0.670 62 37 16 0 0
0.4010 -0.2359 -2.1177 0.802 -0.499 0.329 76 56 23 0 0
0.4338 -0.2637 -2.1927 0.614 -0.541 0.575 99 78 35 0 0
-0.0193 0.1176 -0.8991 -0.270 -0.319 0.909 177 178 182 0 0
0.0661 0.0471 -0.9138 0.266 -0.900 0.344 107 84 51 0 0
0.0800 0.0349 -0.9880 0.099 -0.988 0.122 78 58 35 0 0
0.0788 0.0358 -0.9933 0.137 -0.990 -0.035 99 81 64 0 0
0.0831 0.0301 -1.1908 0.265 -0.569 0.778 78 58 24 0 0
0.1225 -0.0036 -1.3000 0.637 -0.338 0.693 79 63 43 0 0
0.1853 -0.0564 -1.4045 0.743 -0.524 0.416 210 178 129 0 0
0.2020 -0.0705 -1.4296 0.627 -0.637 0.448 117 94 53 0 0
0.2039 -0.0721 -1.4334 0.690 -0.556 0.464 108 85 42 0 0
0.2213 -0.0868 -1.4680 0.707 -0.409 0.577 86 62 31 0 0
0.2287 -0.0930 -1.4784 0.820 -0.044 0.571 113 87 50 0 0
0.2609 -0.1206 -1.5800 0.644 -0.441 0.625 76 59 38 0 0
0.2902 -0.1450 -1.5996 0.540 -0.257 0.802 141 113 73 0 0
0.3267 -0.1752 -1.6182 0.724 -0.577 0.378 78 52 23 0 0
0.2897 -0.1459 -1.7221 0.768 -0.551 0.327 69 50 28 0 0
0.2964 -0.1517 -1.7435 0.777 -0.609 0.160 87 68 41 0 0
0.2975 -0.1528 -1.7643 0.765 -0.577 0.286 80 62 40 0 0
0.3390 -0.1888 -1.9316 0.699 -0.514 0.497 71 45 23 0 0
0.3414 -0.1909 -1.9405 0.709 -0.651 0.272 71 45 22 0 0
0.3424 -0.1918 -1.9452 0.709 -0.651 0.272 68 42 18 0 0
0.3626 -0.2094 -2.0334 0.671 -0.676 0.306 117 92 50 0 0
0.3982 -0.2396 -2.1176 0.829 -0.491 0.268 78 57 25 0 0
0.4215 -0.2595 -2.1796 0.759 -0.502 0.415 92 70 30 0 0
0.4283 -0.2652 -2.1896 0.752 -0.528 0.395 108 85 42 0 0
0.4450 -0.2793 -2.2177 0.527 -0.477 0.703 125 99 56 0 0
0.0711 0.0362 -0.9953 0.481 -0.494 0.724 126 116 106 0 0
0.1467 -0.0288 -1.2396 0.689 -0.671 0.275 100 78 47 0 0
0.1307 -0.0165 -1.3138 0.821 -0.460 0.338 115 97 68 0 0
0.1562 -0.0383 -1.3851 0.626 -0.599 0.499 216 183 130 0 0
0.1770 -0.0555 -1.3926 0.577 -0.541 0.612 200 171 111 0 0
0.1988 -0.0737 -1.4297 0.627 -0.637 0.448 107 82 43 0 0
0.2010 -0.0757 -1.4333 0.690 -0.556 0.464 118 95 53 0 0
0.2092 -0.0826 -1.4484 0.752 -0.467 0.465 101 78 43 0 0
0.2153 -0.0876 -1.4495 0.791 -0.444 0.421 99 76 41 0 0
0.2441 -0.1124 -1.5483 0.752 -0.599 0.275 60 42 18 0 0
0.2576 -0.1238 -1.5750 0.683 -0.478 0.553 62 40 19 0 0
0.2594 -0.1253 -1.5788 0.624 -0.547 0.558 77 59 36 0 0
0.2754 -0.1387 -1.5930 0.307 -0.204 0.930 112 90 55 0 0
0.2846 -0.1462 -1.5965 0.208 -0.272 0.939 134 111 69 0 0
0.3315 -0.1853 -1.6433 0.837 -0.496 0.232 87 65 42 0 0
0.3292 -0.1835 -1.6557 0.997 -0.051 -0.058 120 99 55 0 0
0.2893 -0.1517 -1.7307 0.604 -0.510 0.612 57 39 21 0 0
0.2935 -0.1553 -1.7434 0.777 -0.609 0.160 68 50 29 0 0
0.2947 -0.1565 -1.7641 0.652 -0.646 0.398 63 46 27 0 0
0.3265 -0.1841 -1.8901 0.726 -0.565 0.392 70 42 18 0 0
0.3352 -0.1919 -1.9436 0.766 -0.411 0.494 71 45 23 0 0
0.3718 -0.2235 -2.0726 0.741 -0.225 0.633 78 52 22 0 0
0.3802 -0.2305 -2.0871 0.535 -0.750 0.390 151 122 76 0 0
0.3868 -0.2360 -2.0917 0.776 -0.513 0.367 79 56 21 0 0
0.3910 -0.2395 -2.0988 0.759 -0.523 0.388 69 46 15 0 0
0.4053 -0.2519 -2.1532 0.714 -0.530 0.457 90 67 35 0 0
0.4159 -0.2608 -2.1709 0.811 -0.459 0.363 87 64 31 0 0
0.4188 -0.2633 -2.1793 0.827 -0.484 0.285 93 70 31 0 0
0.4339 -0.2760 -2.1975 0.706 -0.480 0.520 114 89 44 0 0
0.4420 -0.2828 -2.2178 0.527 -0.477 0.703 122 98 54 0 0
0.4669 -0.3038 -2.2597 0.553 -0.738 0.387 87 78 63 0 0
0.0550 0.0445 -0.9158 0.092 -0.840 0.535 81 63 38 0 0
0.0574 0.0425 -0.9196 0.111 -0.860 0.498 102 82 49 0 0
0.0645 0.0357 -0.9921 0.389 -0.801 0.454 119 110 96 0 0
0.1776 -0.0620 -1.3954 0.761 -0.539 0.360 206 178 122 0 0
0.1796 -0.0636 -1.3993 0.719 -0.581 0.381 211 180 129 0 0
0.1951 -0.0766 -1.4251 0.745 -0.504 0.437 112 87 47 0 0
0.1966 -0.0779 -1.4292 0.745 -0.504 0.437 109 85 45 0 0
0.2085 -0.0878 -1.4419 0.773 -0.536 0.339 93 69 34 0 0
0.2100 -0.0891 -1.4460 0.697 -0.568 0.438 97 74 39 0 0
0.2138 -0.0924 -1.4588 0.670 -0.675 0.307 85 62 28 0 0
0.2149 -0.0933 -1.4632 0.670 -0.675 0.307 84 61 29 0 0
0.2167 -0.0948 -1.4671 0.728 -0.631 0.270 80 57 26 0 0
0.2217 -0.0990 -1.4740 0.952 -0.175 0.251 85 63 31 0 0
0.2216 -0.0990 -1.4844 0.600 -0.553 0.578 120 95 60 0 0
0.2237 -0.1009 -1.4881 0.656 -0.496 0.568 73 52 25 0 0
0.2257 -0.1025 -1.4918 0.656 -0.496 0.568 71 50 24 0 0
0.2308 -0.1068 -1.5038 0.743 -0.545 0.389 66 46 18 0 0
0.2321 -0.1080 -1.5080 0.743 -0.545 0.389 65 45 20 0 0
0.2449 -0.1191 -1.5560 0.716 -0.398 0.574 72 53 28 0 0
0.3309 -0.1906 -1.6415 0.932 -0.300 0.202 90 68 45 0 0
0.2907 -0.1589 -1.7434 0.777 -0.609 0.160 77 60 41 0 0
0.3051 -0.1715 -1.8072 0.368 -0.494 0.788 75 46 22 0 0
0.3023 -0.1694 -1.8207 0.789 -0.257 0.558 76 50 25 0 0
0.3036 -0.1705 -1.8250 0.720 -0.536 0.440 76 50 25 0 0
0.3414 -0.2033 -1.9687 0.696 -0.459 0.552 74 48 21 0 0
0.3476 -0.2085 -1.9796 0.804 -0.475 0.356 79 52 25 0 0
0.3493 -0.2100 -1.9893 0.787 -0.552 0.277 74 47 22 0 0
0.3687 -0.2270 -2.0786 0.500 -0.734 0.459 105 76 42 0 0
0.3749 -0.2321 -2.0778 0.753 -0.515 0.409 124 96 49 0 0
0.4137 -0.2650 -2.1699 0.826 -0.426 0.369 85 62 29 0 0
-0.0477 0.1227 -0.9014 -0.079 0.055 0.995 177 178 181 0 0
0.1450 -0.0390 -1.2324 0.604 -0.530 0.595 76 51 26 0 0
0.1266 -0.0256 -1.3483 0.805 -0.430 0.410 73 59 36 0 0
0.1721 -0.0633 -1.3919 0.558 -0.592 0.582 214 182 124 0 0
0.1751 -0.0658 -1.3951 0.731 -0.398 0.554 214 184 130 0 0
0.2056 -0.0913 -1.4418 0.697 -0.568 0.438 64 39 16 0 0
0.2072 -0.0928 -1.4458 0.616 -0.614 0.493 93 70 38 0 0
0.2107 -0.0957 -1.4538 0.616 -0.614 0.493 85 61 25 0 0
0.2246 -0.1074 -1.4803 0.873 -0.424 0.238 119 94 59 0 0
0.2265 -0.1092 -1.4995 0.786 -0.542 0.297 79 60 28 0 0
0.2279 -0.1104 -1.5037 0.745 -0.515 0.424 68 49 18 0 0
0.2294 -0.1117 -1.5079 0.745 -0.515 0.424 65 46 19 0 0
0.2451 -0.1253 -1.5694 0.808 -0.459 0.370 99 79 44 0 0
0.2827 -0.1582 -1.7313 0.572 -0.629 0.526 56 39 24 0 0
0.2879 -0.1626 -1.7432 0.879 -0.450 0.157 66 49 33 0 0
0.2901 -0.1651 -1.8012 0.623 -0.782 -0.034 86 66 40 0 0
0.2985 -0.1722 -1.8158 0.478 -0.425 0.769 75 47 23 0 0
0.3466 -0.2141 -2.0060 0.724 -0.476 0.499 70 45 15 0 0
0.3649 -0.2296 -2.0506 0.649 -0.747 0.147 79 53 25 0 0
0.3664 -0.2308 -2.0548 0.516 -0.838 0.176 79 54 24 0 0
0.3856 -0.2471 -2.0983 0.674 -0.664 0.324 77 54 23 0 0
0.3867 -0.2481 -2.1028 0.710 -0.656 0.257 75 52 21 0 0
0.4289 -0.2839 -2.1965 0.729 -0.424 0.537 109 84 40 0 0
0.4508 -0.3021 -2.2244 0.701 -0.393 0.595 114 90 46 0 0
0.0555 0.0314 -0.9886 0.367 -0.166 0.915 157 155 154 0 0
0.1421 -0.0426 -1.2323 0.603 -0.533 0.594 74 50 21 0 0
0.1220 -0.0269 -1.2834 0.867 -0.498 0.002 61 45 23 0 0
0.1960 -0.0893 -1.4308 0.552 -0.598 0.581 94 71 33 0 0
0.2035 -0.0956 -1.4464 0.505 -0.729 0.462 96 73 39 0 0
0.2075 -0.0990 -1.4539 0.511 -0.698 0.502 87 64 28 0 0
0.2232 -0.1123 -1.4895 0.834 -0.550 0.053 71 51 24 0 0
0.2239 -0.1130 -1.4993 0.786 -0.542 0.297 72 52 19 0 0
0.2252 -0.1141 -1.5035 0.745 -0.515 0.424 68 48 16 0 0
0.2267 -0.1154 -1.5077 0.745 -0.515 0.424 70 50 22 0 0
0.2382 -0.1254 -1.5513 0.633 -0.645 0.428 62 42 17 0 0
0.2410 -0.1276 -1.5546 0.802 -0.510 0.311 71 52 25 0 0
0.2419 -0.1286 -1.5643 0.819 -0.366 0.441 93 70 34 0 0
0.2443 -0.1306 -1.5730 0.861 -0.371 0.348 81 60 30 0 0
0.2619 -0.1452 -1.5913 0.540 -0.336 0.771 133 108 68 0 0
0.3119 -0.1862 -1.6052 0.303 -0.079 0.950 206 184 150 0 0
0.2858 -0.1672 -1.7641 0.659 -0.550 0.512 58 38 18 0 0
0.2856 -0.1675 -1.8025 0.842 -0.535 -0.068 83 60 35 0 0
0.3126 -0.1903 -1.8613 0.524 -0.724 0.449 74 46 23 0 0
0.3135 -0.1911 -1.8661 0.732 -0.668 0.134 75 47 23 0 0
0.3140 -0.1916 -1.8711 0.779 -0.627 0.017 74 46 22 0 0
0.3150 -0.1925 -1.8758 0.753 -0.622 0.216 74 47 21 0 0
0.3184 -0.1953 -1.8782 0.700 -0.572 0.428 75 48 21 0 0
0.3314 -0.2069 -1.9499 0.595 -0.625 0.505 74 46 22 0 0
0.3325 -0.2079 -1.9545 0.709 -0.625 0.327 73 46 21 0 0
0.3330 -0.2084 -1.9597 0.818 -0.482 0.312 73 45 21 0 0
0.3435 -0.2172 -1.9835 0.597 -0.751 0.282 77 50 24 0 0
0.3591 -0.2307 -2.0362 0.651 -0.738 0.179 67 42 12 0 0
0.3605 -0.2320 -2.0462 0.645 -0.763 0.051 70 43 16 0 0
0.3608 -0.2323 -2.0517 0.631 -0.769 0.104 79 53 25 0 0
0.4244 -0.2861 -2.1924 0.584 -0.476 0.657 96 74 32 0 0
0.4413 -0.3001 -2.2143 0.755 -0.380 0.534 120 96 49 0 0
0.4480 -0.3057 -2.2243 0.825 -0.356 0.439 116 92 48 0 0
0.4491 -0.3068 -2.2347 0.620 -0.565 0.544 116 92 50 0 0
0.0291 0.0466 -1.0129 -0.043 -0.909 -0.414 181 182 186 0 0
0.1422 -0.0485 -1.2356 0.568 -0.685 0.456 85 61 30 0 0
0.1164 -0.0286 -1.2999 0.761 -0.406 0.506 64 48 25 0 0
0.2043 -0.1024 -1.4644 0.739 -0.588 0.331 81 62 28 0 0
0.2212 -0.1167 -1.4991 0.786 -0.542 0.297 70 49 20 0 0
0.2225 -0.1178 -1.5034 0.743 -0.545 0.389 69 48 19 0 0
0.2770 -0.1650 -1.7042 0.769 -0.639 -0.033 90 69 39 0 0
0.2819 -0.1696 -1.7432 0.672 -0.705 0.225 56 39 20 0 0
0.3127 -0.1966 -1.8752 0.529 -0.820 0.219 74 46 21 0 0
0.3143 -0.1979 -1.8793 0.501 -0.830 0.246 75 48 21 0 0
0.3120 -0.1962 -1.8869 0.638 -0.361 0.681 76 49 22 0 0
0.3255 -0.2079 -1.9358 0.823 -0.444 0.355 72 46 21 0 0
0.3294 -0.2114 -1.9546 0.709 -0.625 0.327 64 36 12 0 0
0.3310 -0.2127 -1.9587 0.696 -0.618 0.366 68 40 16 0 0
0.3411 -0.2214 -1.9942 0.769 -0.540 0.341 75 49 22 0 0
0.3569 -0.2349 -2.0412 0.678 -0.733 0.059 66 40 13 0 0
0.3571 -0.2352 -2.0467 0.678 -0.733 0.059 73 47 20 0 0
0.3579 -0.2359 -2.0516 0.649 -0.747 0.147 78 53 24 0 0
0.3574 -0.2356 -2.0578 0.607 -0.791 0.069 78 52 22 0 0
0.3591 -0.2371 -2.0619 0.730 -0.602 0.322 77 51 21 0 0
0.3668 -0.2436 -2.0828 0.821 -0.341 0.459 157 125 72 0 0
0.3759 -0.2512 -2.0964 0.634 -0.567 0.526 71 49 18 0 0
0.4042 -0.2752 -2.1648 0.733 -0.523 0.434 86 64 32 0 0
0.4305 -0.2974 -2.2174 0.773 -0.315 0.551 120 96 48 0 0
0.0419 0.0312 -0.9538 0.475 -0.879 -0.033 75 58 30 0 0
0.0424 0.0306 -0.9678 0.665 -0.716 0.214 89 70 38 0 0
0.1741 -0.0831 -1.4156 0.501 -0.796 0.339 155 124 77 0 0
0.2014 -0.1060 -1.4643 0.739 -0.588 0.331 81 63 27 0 0
0.2034 -0.1077 -1.4681 0.637 -0.620 0.457 73 51 19 0 0
0.2164 -0.1184 -1.4850 0.698 -0.552 0.457 69 46 19 0 0
0.2184 -0.1201 -1.4887 0.730 -0.580 0.360 64 43 18 0 0
0.2240 -0.1251 -1.5157 0.751 -0.620 0.228 53 35 15 0 0
0.2367 -0.1358 -1.5482 0.777 -0.513 0.365 65 45 17 0 0
0.2352 -0.1348 -1.5597 0.882 -0.390 0.265 83 62 37 0 0
0.2779 -0.1719 -1.7171 0.770 -0.402 0.494 61 40 21 0 0
0.2801 -0.1737 -1.7207 0.651 -0.670 0.358 66 48 29 0 0
0.2735 -0.1685 -1.7315 0.761 -0.611 0.218 53 35 18 0 0
0.2743 -0.1692 -1.7363 0.761 -0.611 0.218 37 22 6 0 0
0.2811 -0.1750 -1.7522 0.737 -0.604 0.303 66 44 21 0 0
0.2820 -0.1759 -1.7569 0.799 -0.513 0.313 52 32 16 0 0
0.2971 -0.1899 -1.8699 -0.393 -0.647 0.653 73 45 21 0 0
0.3175 -0.2073 -1.9293 0.823 -0.565 -0.059 73 47 22 0 0
0.3230 -0.2119 -1.9410 0.721 -0.426 0.546 72 44 20 0 0
0.3319 -0.2195 -1.9663 0.631 -0.602 0.490 68 40 16 0 0
0.3333 -0.2207 -1.9706 0.683 -0.651 0.333 72 44 20 0 0
0.3376 -0.2244 -1.9834 0.803 -0.538 0.256 74 48 23 0 0
0.3371 -0.2242 -1.9952 0.655 -0.691 0.305 74 48 21 0 0
0.3550 -0.2398 -2.0630 0.531 -0.812 0.241 77 53 22 0 0
0.3651 -0.2483 -2.0872 0.792 -0.460 0.401 175 145 98 0 0
0.3830 -0.2636 -2.1379 0.761 -0.584 0.282 77 54 23 0 0
0.3845 -0.2649 -2.1421 0.816 -0.486 0.313 79 56 25 0 0
0.3904 -0.2699 -2.1532 0.679 -0.506 0.531 85 62 28 0 0
0.3917 -0.2710 -2.1576 0.672 -0.509 0.538 85 62 28 0 0
0.3988 -0.2768 -2.1615 0.639 -0.611 0.468 92 69 35 0 0
0.4005 -0.2782 -2.1655 0.639 -0.611 0.468 92 70 37 0 0
0.4031 -0.2803 -2.1686 0.612 -0.716 0.335 84 63 31 0 0
0.4213 -0.2957 -2.2009 0.797 -0.521 0.304 112 88 39 0 0
0.4223 -0.2965 -2.2057 0.813 -0.513 0.273 111 88 39 0 0
0.4282 -0.3015 -2.2166 0.773 -0.315 0.551 104 80 32 0 0
0.1116 -0.0366 -1.2992 0.834 -0.346 0.430 56 40 17 0 0
0.1135 -0.0382 -1.3032 0.790 -0.316 0.526 78 61 38 0 0
0.1141 -0.0392 -1.3332 0.714 -0.689 0.125 32 23 14 0 0
0.1445 -0.0645 -1.3812 0.497 -0.757 0.424 159 132 91 0 0
0.1690 -0.0848 -1.4118 0.743 -0.576 0.341 198 167 116 0 0
0.1705 -0.0861 -1.4160 0.738 -0.549 0.392 166 135 90 0 0
0.1884 -0.1009 -1.4351 0.674 -0.594 0.440 103 80 41 0 0
0.1918 -0.1037 -1.4431 0.682 -0.582 0.444 90 66 28 0 0
0.1951 -0.1065 -1.4511 0.685 -0.585 0.435 69 46 17 0 0
0.1988 -0.1096 -1.4589 0.674 -0.537 0.507 79 59 23 0 0
0.2006 -0.1111 -1.4629 0.674 -0.537 0.507 79 60 23 0 0
0.2003 -0.1110 -1.4682 0.637 -0.620 0.457 71 50 17 0 0
0.2038 -0.1139 -1.4710 0.400 -0.892 0.211 74 53 22 0 0
0.2237 -0.1309 -1.5294 0.839 -0.296 0.456 57 36 10 0 0
0.2319 -0.1377 -1.5391 0.544 -0.044 0.838 70 49 23 0 0
0.2308 -0.1369 -1.5451 0.712 -0.344 0.612 69 48 23 0 0
0.2692 -0.1687 -1.5949 0.109 -0.388 0.915 166 136 84 0 0
0.3032 -0.1964 -1.6052 0.507 -0.361 0.783 202 179 139 0 0
0.3060 -0.1987 -1.6082 0.537 -0.380 0.754 194 170 128 0 0
0.2702 -0.1717 -1.7210 0.813 -0.517 0.266 63 42 23 0 0
0.3298 -0.2239 -1.9710 0.587 -0.701 0.404 75 48 24 0 0
0.3315 -0.2253 -1.9751 0.811 -0.324 0.487 73 47 22 0 0
0.3878 -0.2737 -2.1528 0.725 -0.512 0.461 88 65 31 0 0
0.3955 -0.2801 -2.1618 0.576 -0.714 0.398 86 63 29 0 0
0.3981 -0.2822 -2.1649 0.469 -0.604 0.644 92 70 37 0 0
0.4104 -0.2925 -2.1805 0.792 -0.549 0.267 96 74 37 0 0
0.4487 -0.3243 -2.2367 0.702 -0.640 0.313 109 89 49 0 0
0.4498 -0.3253 -2.2413 0.702 -0.640 0.313 90 75 43 0 0
0.0146 0.0423 -0.9104 0.313 -0.707 0.634 112 95 69 0 0
0.0107 0.0439 -0.9976 -0.107 -0.867 0.487 183 182 183 0 0
0.0461 0.0117 -1.2123 -0.111 -0.374 0.921 72 51 20 0 0
0.0515 0.0073 -1.2145 -0.036 -0.537 0.843 98 76 40 0 0
0.1292 -0.0556 -1.2378 0.577 -0.723 0.380 91 68 36 0 0
0.1111 -0.0422 -1.3028 0.731 -0.503 0.461 50 34 15 0 0
0.1127 -0.0435 -1.3070 0.742 -0.519 0.424 61 44 25 0 0
0.1113 -0.0430 -1.3382 0.714 -0.689 0.125 42 32 17 0 0
0.1227 -0.0526 -1.3620 0.394 -0.532 0.749 207 182 142 0 0
0.1390 -0.0660 -1.3777 0.600 -0.646 0.472 171 146 114 0 0
0.1407 -0.0674 -1.3817 0.600 -0.646 0.472 194 169 124 0 0
0.1659 -0.0882 -1.4119 0.680 -0.594 0.430 193 162 114 0 0
0.1794 -0.0994 -1.4288 0.658 -0.745 0.110 128 102 62 0 0
0.1904 -0.1086 -1.4472 0.713 -0.553 0.430 96 73 36 0 0
0.1922 -0.1101 -1.4511 0.737 -0.522 0.429 92 71 34 0 0
0.1940 -0.1116 -1.4550 0.771 -0.445 0.456 87 67 32 0 0
0.1972 -0.1143 -1.4631 0.771 -0.445 0.456 78 58 23 0 0
0.1987 -0.1156 -1.4673 0.748 -0.428 0.508 77 56 24 0 0
0.2284 -0.1409 -1.5447 0.712 -0.344 0.612 77 56 28 0 0
0.2748 -0.1808 -1.6935 0.875 -0.029 -0.483 96 73 44 0 0
0.3198 -0.2213 -1.9440 0.810 -0.422 0.408 71 45 20 0 0
0.3210 -0.2224 -1.9484 0.818 -0.523 0.239 78 52 27 0 0
0.3263 -0.2271 -1.9715 0.602 -0.715 0.354 77 51 26 0 0
0.3293 -0.2295 -1.9743 0.811 -0.324 0.487 73 47 22 0 0
0.3312 -0.2311 -1.9781 0.816 -0.270 0.510 72 46 21 0 0
0.3368 -0.2363 -2.0180 0.888 -0.014 0.460 108 85 45 0 0
0.3388 -0.2380 -2.0217 0.864 -0.048 0.501 113 90 45 0 0
0.4154 -0.3028 -2.2009 0.621 -0.623 0.477 109 86 36 0 0
0.4485 -0.3303 -2.2512 0.583 -0.564 0.585 78 64 39 0 0
-0.0067 0.0537 -0.9032 0.326 -0.134 0.936 109 92 63 0 0
0.0033 0.0439 -0.9994 0.091 -0.987 0.131 183 182 182 0 0
0.0027 0.0443 -1.0045 0.155 -0.984 -0.089 181 181 184 0 0
0.0480 0.0041 -1.2147 -0.048 -0.523 0.851 96 74 36 0 0
0.1137 -0.0487 -1.2199 0.275 -0.651 0.708 152 123 92 0 0
0.1168 -0.0513 -1.2232 0.298 -0.739 0.604 139 109 82 0 0
0.1234 -0.0571 -1.2542 0.696 -0.497 -0.518 65 47 25 0 0
0.1086 -0.0467 -1.3329 0.811 -0.575 0.113 34 24 14 0 0
0.1166 -0.0535 -1.3536 0.646 -0.387 0.658 131 105 81 0 0
0.1195 -0.0559 -1.3570 0.811 -0.378 0.446 172 146 121 0 0
0.1665 -0.0945 -1.4045 0.440 -0.701 0.561 180 150 109 0 0
0.1721 -0.0992 -1.4162 0.775 -0.437 0.456 150 122 77 0 0
0.1741 -0.1009 -1.4201 0.599 -0.561 0.572 165 137 94 0 0
0.1857 -0.1105 -1.4381 0.597 -0.721 0.351 100 75 37 0 0
0.1915 -0.1155 -1.4547 0.771 -0.445 0.456 81 58 25 0 0
0.1932 -0.1169 -1.4587 0.771 -0.445 0.456 90 67 33 0 0
0.1948 -0.1182 -1.4628 0.771 -0.445 0.456 89 66 32 0 0
0.1962 -0.1195 -1.4669 0.748 -0.428 0.508 83 62 29 0 0
0.1979 -0.1210 -1.4760 0.786 -0.499 0.364 79 56 25 0 0
0.3098 -0.2134 -1.6163 0.800 -0.441 0.407 92 70 41 0 0
0.2703 -0.1840 -1.7430 0.643 -0.651 0.404 54 36 18 0 0
0.2821 -0.1945 -1.8036 0.952 -0.148 -0.267 75 47 22 0 0
0.3084 -0.2175 -1.9071 0.649 -0.619 0.442 72 44 20 0 0
0.3107 -0.2194 -1.9105 0.598 -0.754 0.271 71 43 19 0 0
0.3131 -0.2216 -1.9251 0.724 -0.646 0.241 71 43 19 0 0
0.3139 -0.2224 -1.9299 0.724 -0.646 0.241 72 44 20 0 0
0.3153 -0.2236 -1.9341 0.741 -0.548 0.388 73 45 21 0 0
0.3187 -0.2265 -1.9478 0.796 -0.510 0.325 74 48 23 0 0
0.3236 -0.2308 -1.9713 0.634 -0.730 0.257 73 47 22 0 0
0.3479 -0.2521 -2.0668 0.757 -0.457 0.467 77 51 24 0 0
0.3729 -0.2733 -2.1274 0.702 -0.576 0.418 82 59 27 0 0
0.3822 -0.2812 -2.1523 0.725 -0.512 0.461 87 64 30 0 0
0.4340 -0.3242 -2.2292 0.740 -0.067 0.669 114 90 45 0 0
0.4353 -0.3253 -2.2336 0.685 -0.281 0.672 118 95 53 0 0
0.4413 -0.3302 -2.2384 0.527 -0.752 0.395 104 86 45 0 0
-0.0300 0.0665 -0.9012 -0.079 -0.243 0.967 115 100 78 0 0
-0.0089 0.0495 -0.9028 -0.002 -0.594 0.805 113 95 67 0 0
-0.0046 0.0443 -0.9966 -0.062 -0.975 -0.214 140 133 125 0 0
-0.0034 0.0433 -1.0009 0.166 -0.958 0.236 184 182 184 0 0
-0.0025 0.0425 -1.0054 0.300 -0.916 0.267 180 181 184 0 0
-0.0089 0.0441 -1.1966 0.417 -0.497 0.761 79 63 29 0 0
0.1096 -0.0522 -1.2702 0.713 -0.536 -0.451 46 30 10 0 0
0.1047 -0.0485 -1.2779 0.497 -0.857 -0.136 49 33 15 0 0
0.1123 -0.0559 -1.3493 0.728 -0.385 0.567 133 112 92 0 0
0.1371 -0.0764 -1.3854 0.678 -0.397 0.618 184 153 100 0 0
0.1697 -0.1031 -1.4159 0.775 -0.437 0.456 152 125 77 0 0
0.1716 -0.1047 -1.4198 0.655 -0.493 0.572 161 135 86 0 0
0.1756 -0.1081 -1.4274 0.695 -0.649 0.311 122 96 55 0 0
0.1940 -0.1237 -1.4716 0.770 -0.626 0.122 70 48 20 0 0
0.2076 -0.1352 -1.5086 0.714 -0.642 0.279 61 41 16 0 0
0.2094 -0.1368 -1.5125 0.653 -0.667 0.358 70 50 24 0 0
0.2156 -0.1417 -1.5134 0.704 -0.589 0.396 54 33 12 0 0
0.2170 -0.1429 -1.5176 0.704 -0.589 0.396 54 33 12 0 0
0.2191 -0.1448 -1.5264 0.820 -0.498 0.281 68 45 20 0 0
0.2206 -0.1462 -1.5357 0.697 -0.715 0.060 69 45 18 0 0
0.2215 -0.1470 -1.5402 0.789 -0.572 0.225 75 54 26 0 0
0.2230 -0.1482 -1.5444 0.620 -0.714 0.325 71 49 24 0 0
0.2859 -0.1997 -1.6015 0.650 -0.340 0.679 156 126 76 0 0
0.3093 -0.2187 -1.6144 0.565 -0.627 0.536 91 69 43 0 0
0.2625 -0.1829 -1.7039 0.695 -0.319 0.644 89 70 39 0 0
0.2637 -0.1839 -1.7084 0.837 -0.507 0.206 63 43 19 0 0
0.3053 -0.2210 -1.9072 0.649 -0.619 0.442 72 44 20 0 0
0.3081 -0.2233 -1.9102 0.708 -0.682 0.183 71 43 19 0 0
0.3100 -0.2251 -1.9252 0.724 -0.646 0.241 79 51 27 0 0
0.3109 -0.2258 -1.9300 0.724 -0.646 0.241 72 44 20 0 0
0.3125 -0.2273 -1.9340 0.741 -0.548 0.388 69 41 17 0 0
0.3160 -0.2303 -1.9475 0.796 -0.510 0.325 74 48 23 0 0
0.3213 -0.2348 -1.9650 0.728 -0.515 0.452 64 38 13 0 0
0.4080 -0.3088 -2.2025 0.395 -0.776 0.491 112 88 37 0 0
0.4236 -0.3217 -2.2260 0.584 -0.703 0.405 110 86 40 0 0
0.4431 -0.3379 -2.2564 0.589 -0.573 0.570 78 67 42 0 0
-0.0122 0.0445 -0.9936 -0.048 -0.927 -0.373 127 111 93 0 0
-0.0099 0.0426 -1.0023 0.467 -0.849 0.249 174 173 171 0 0
0.1005 -0.0509 -1.2736 0.378 -0.905 -0.197 42 27 9 0 0
0.0980 -0.0491 -1.2800 0.482 -0.876 0.002 45 30 14 0 0
0.1674 -0.1072 -1.4154 0.572 -0.708 0.415 152 124 75 0 0
0.1689 -0.1084 -1.4196 0.572 -0.708 0.415 156 130 80 0 0
0.1727 -0.1115 -1.4223 0.863 -0.392 0.320 122 96 49 0 0
0.1862 -0.1227 -1.4441 0.600 -0.611 0.517 99 75 39 0 0
0.1918 -0.1274 -1.4557 0.571 -0.623 0.534 83 60 26 0 0
0.1935 -0.1289 -1.4596 0.626 -0.626 0.465 86 63 29 0 0
0.2026 -0.1369 -1.4997 0.714 -0.642 0.279 74 53 27 0 0
0.2049 -0.1389 -1.5084 0.653 -0.667 0.358 56 37 15 0 0
0.2062 -0.1400 -1.5127 0.653 -0.667 0.358 64 44 19 0 0
0.2127 -0.1452 -1.5134 0.704 -0.589 0.396 58 38 15 0 0
0.2158 -0.1480 -1.5266 0.691 -0.682 0.240 72 52 25 0 0
0.2177 -0.1497 -1.5357 0.735 -0.598 0.319 69 48 22 0 0
0.2198 -0.1515 -1.5393 0.862 -0.397 0.314 72 51 24 0 0
0.2425 -0.1706 -1.5904 0.829 -0.459 0.319 145 121 84 0 0
0.2704 -0.1930 -1.5955 0.092 -0.759 0.644 154 121 72 0 0
0.2835 -0.2035 -1.6011 0.650 -0.340 0.679 158 129 79 0 0
0.3062 -0.2219 -1.6146 0.576 -0.561 0.595 93 70 43 0 0
0.3080 -0.2234 -1.6183 0.673 -0.561 0.483 70 46 23 0 0
0.2603 -0.1870 -1.7034 0.692 -0.695 0.192 81 62 31 0 0
0.2680 -0.1942 -1.7561 0.776 -0.475 0.415 59 37 21 0 0
0.3033 -0.2254 -1.9118 0.711 -0.593 0.378 70 42 18 0 0
0.3069 -0.2285 -1.9253 0.724 -0.646 0.241 73 45 21 0 0
0.3103 -0.2314 -1.9333 0.712 -0.491 0.502 63 35 11 0 0
0.3115 -0.2324 -1.9378 0.795 -0.455 0.402 64 36 12 0 0
0.3181 -0.2383 -1.9651 0.692 -0.479 0.540 72 46 22 0 0
0.3245 -0.2437 -1.9816 0.749 -0.620 0.236 76 50 25 0 0
0.3423 -0.2591 -2.0435 0.840 -0.398 0.368 73 47 22 0 0
0.3463 -0.2627 -2.0623 0.807 -0.444 0.388 78 52 25 0 0
0.4058 -0.3131 -2.2075 0.395 -0.776 0.491 107 85 37 0 0
0.4202 -0.3249 -2.2265 0.584 -0.703 0.405 116 92 45 0 0
0.4349 -0.3370 -2.2389 0.572 -0.642 0.510 103 84 46 0 0
0.4366 -0.3383 -2.2429 0.682 -0.562 0.467 91 75 42 0 0
-0.0245 0.0483 -0.9974 0.234 -0.683 -0.692 120 105 91 0 0
-0.0330 0.0549 -1.0058 0.316 -0.682 -0.659 67 57 48 0 0
-0.0282 0.0511 -1.0087 -0.053 -0.998 0.029 139 138 136 0 0
-0.1073 0.1110 -1.1640 0.551 0.690 0.468 188 189 190 0 0
0.1062 -0.0605 -1.2290 0.646 -0.317 0.695 135 112 78 0 0
0.1037 -0.0608 -1.3458 0.514 -0.687 0.514 105 88 62 0 0
0.1056 -0.0624 -1.3497 0.514 -0.687 0.514 129 113 90 0 0
0.1104 -0.0665 -1.3622 0.563 -0.366 0.741 134 113 89 0 0
0.1265 -0.0796 -1.3728 0.659 -0.578 0.480 120 99 75 0 0
0.1280 -0.0808 -1.3770 0.825 -0.505 0.253 178 149 121 0 0
0.1605 -0.1076 -1.4179 0.869 -0.427 0.251 145 113 67 0 0
0.1843 -0.1271 -1.4485 0.504 -0.620 0.602 89 66 32 0 0
0.1988 -0.1394 -1.4849 0.673 -0.479 0.564 68 48 23 0 0
0.1999 -0.1406 -1.4995 0.683 -0.626 0.376 69 48 22 0 0
0.2005 -0.1412 -1.5042 0.714 -0.642 0.279 61 40 16 0 0
0.2019 -0.1424 -1.5084 0.619 -0.680 0.393 46 28 7 0 0
0.2029 -0.1433 -1.5129 0.653 -0.667 0.358 60 39 17 0 0
0.2027 -0.1432 -1.5183 0.751 -0.657 0.070 60 40 16 0 0
0.2048 -0.1450 -1.5272 0.679 -0.726 0.110 74 52 28 0 0
0.2031 -0.1439 -1.5335 0.466 -0.301 0.832 84 61 30 0 0
0.2070 -0.1470 -1.5359 0.605 -0.575 0.551 132 109 76 0 0
0.2294 -0.1658 -1.5822 0.742 -0.526 0.415 92 67 35 0 0
0.2379 -0.1727 -1.5917 0.769 -0.539 0.345 139 115 78 0 0
0.2398 -0.1743 -1.5955 0.555 -0.078 0.828 122 102 71 0 0
0.2682 -0.1970 -1.5949 0.682 -0.215 0.699 142 112 68 0 0
0.2811 -0.2074 -1.6007 0.718 -0.318 0.620 153 123 75 0 0
0.2989 -0.2277 -1.9076 0.598 -0.754 0.271 71 43 19 0 0
0.2999 -0.2286 -1.9123 0.598 -0.754 0.271 70 42 18 0 0
0.3046 -0.2327 -1.9246 0.812 -0.458 0.361 71 43 19 0 0
0.3059 -0.2338 -1.9290 0.812 -0.458 0.361 71 43 19 0 0
0.3078 -0.2353 -1.9328 0.809 -0.425 0.406 69 41 17 0 0
0.3118 -0.2390 -1.9571 0.715 -0.572 0.401 74 48 24 0 0
0.3138 -0.2407 -1.9608 0.697 -0.465 0.546 73 47 24 0 0
0.3156 -0.2423 -1.9647 0.655 -0.435 0.618 74 48 25 0 0
0.3215 -0.2473 -1.9816 0.749 -0.620 0.236 75 49 24 0 0
0.3407 -0.2648 -2.0938 0.873 -0.414 0.257 138 112 69 0 0
0.3520 -0.2738 -2.0937 0.645 -0.618 0.449 78 56 23 0 0
0.3910 -0.3068 -2.1855 0.582 -0.702 0.410 91 69 32 0 0
0.3949 -0.3099 -2.1870 0.754 -0.583 0.303 91 69 32 0 0
0.3943 -0.3096 -2.1935 0.791 -0.487 0.371 96 74 37 0 0
0.4168 -0.3282 -2.2269 0.734 -0.524 0.432 122 97 52 0 0
0.4322 -0.3407 -2.2387 0.714 -0.542 0.444 96 76 39 0 0
0.4323 -0.3409 -2.2444 0.870 -0.309 0.384 86 69 34 0 0
-0.0330 0.0511 -0.9037 0.197 -0.126 0.972 115 99 74 0 0
0.0020 0.0226 -0.9377 0.520 -0.813 0.263 82 64 37 0 0
-0.0411 0.0554 -1.0079 0.112 -0.883 -0.456 54 43 33 0 0
-0.0438 0.0543 -1.1583 0.525 -0.715 0.462 31 28 21 0 0
0.1103 -0.0698 -1.2400 0.634 -0.710 0.308 76 51 22 0 0
0.1099 -0.0696 -1.2452 0.602 -0.799 -0.005 84 62 31 0 0
0.0901 -0.0547 -1.2810 0.393 -0.864 -0.314 37 22 9 0 0
0.1252 -0.0846 -1.3769 0.629 -0.666 0.401 168 138 108 0 0
0.1494 -0.1044 -1.4078 0.505 -0.650 0.568 205 178 139 0 0
0.1585 -0.1120 -1.4224 0.802 -0.496 0.334 158 127 87 0 0
0.1826 -0.1317 -1.4528 0.745 -0.625 0.234 81 58 26 0 0
0.1832 -0.1324 -1.4626 0.715 -0.555 0.426 87 64 30 0 0
0.1987 -0.1456 -1.5035 0.769 -0.631 0.104 56 38 14 0 0
0.2439 -0.1834 -1.5954 0.455 0.008 0.891 122 101 70 0 0
0.2533 -0.1938 -1.7310 0.810 -0.491 0.321 36 22 10 0 0
0.3087 -0.2425 -1.9572 0.840 -0.414 0.351 72 46 23 0 0
0.3113 -0.2447 -1.9603 0.799 -0.454 0.394 72 46 23 0 0
0.3349 -0.2649 -2.0336 0.629 -0.771 0.102 74 48 20 0 0
0.3333 -0.2638 -2.0408 0.774 -0.623 0.112 74 48 20 0 0
0.3384 -0.2690 -2.0930 0.855 -0.477 0.202 135 110 69 0 0
0.3403 -0.2706 -2.0969 0.802 -0.513 0.307 88 67 30 0 0
0.3609 -0.2877 -2.1333 0.781 -0.521 0.345 77 54 23 0 0
0.3862 -0.3088 -2.1817 0.744 -0.434 0.509 93 71 34 0 0
0.3889 -0.3110 -2.1845 0.482 -0.753 0.448 91 69 32 0 0
0.4053 -0.3245 -2.2073 0.401 -0.738 0.543 107 85 36 0 0
0.4215 -0.3379 -2.2299 0.511 -0.281 0.812 111 89 41 0 0
0.4244 -0.3402 -2.2325 0.610 -0.389 0.690 116 93 49 0 0
0.4289 -0.3440 -2.2391 0.605 -0.592 0.533 96 76 37 0 0
0.4307 -0.3455 -2.2428 0.605 -0.592 0.533 90 74 34 0 0
0.4339 -0.3482 -2.2509 0.477 -0.784 0.398 80 69 41 0 0
0.4270 -0.3439 -2.3063 0.649 -0.759 0.041 203 204 207 0 0
-0.0041 0.0217 -0.9342 0.193 -0.878 0.438 81 60 31 0 0
-0.0479 0.0547 -1.0094 0.138 -0.875 -0.463 70 57 44 0 0
-0.0522 0.0547 -1.1659 0.414 -0.518 0.749 30 29 28 0 0
0.0261 -0.0085 -1.2181 0.219 -0.270 0.938 102 80 44 0 0
0.0328 -0.0137 -1.2197 0.131 -0.237 0.963 107 84 46 0 0
0.1029 -0.0697 -1.2325 0.726 -0.557 0.403 131 107 71 0 0
0.1069 -0.0730 -1.2402 0.634 -0.710 0.308 80 55 27 0 0
0.1075 -0.0735 -1.2449 0.602 -0.766 0.228 93 70 39 0 0
0.1233 -0.0889 -1.3762 0.565 -0.552 0.613 187 162 128 0 0
0.1286 -0.0934 -1.3883 0.628 -0.518 0.580 211 185 143 0 0
0.1336 -0.0974 -1.3903 0.587 -0.473 0.657 162 135 96 0 0
0.1552 -0.1151 -1.4175 0.673 -0.611 0.416 145 114 74 0 0
0.3004 -0.2349 -1.6382 0.385 -0.634 -0.670 76 52 26 0 0
0.2913 -0.2280 -1.6505 0.422 -0.574 -0.702 91 70 40 0 0
0.2494 -0.1963 -1.7210 0.705 -0.537 0.462 47 31 14 0 0
0.3059 -0.2458 -1.9402 0.797 -0.514 0.317 71 43 19 0 0
0.3074 -0.2473 -1.9500 0.800 -0.545 0.251 72 46 22 0 0
0.3089 -0.2485 -1.9542 0.854 -0.478 0.204 71 45 22 0 0
0.3100 -0.2496 -1.9587 0.894 -0.406 0.188 71 45 22 0 0
0.3162 -0.2550 -1.9866 0.662 -0.744 0.086 72 46 21 0 0
0.3128 -0.2528 -2.0069 0.544 -0.395 0.740 71 45 20 0 0
0.3282 -0.2658 -2.0429 0.887 -0.456 0.079 75 50 20 0 0
0.3839 -0.3129 -2.1809 0.483 -0.808 0.338 94 72 35 0 0
0.4015 -0.3274 -2.2082 0.343 -0.718 0.605 109 87 39 0 0
0.4103 -0.3348 -2.2217 0.847 -0.356 0.394 110 88 44 0 0
0.4215 -0.3439 -2.2324 0.577 -0.541 0.612 112 90 44 0 0
0.4236 -0.3456 -2.2359 0.577 -0.541 0.612 119 97 56 0 0
0.4258 -0.3474 -2.2393 0.605 -0.592 0.533 102 82 43 0 0
0.4276 -0.3489 -2.2430 0.605 -0.592 0.533 99 84 40 0 0
0.4244 -0.3465 -2.2526 0.388 -0.830 0.400 84 71 37 0 0
0.4250 -0.3472 -2.2578 0.720 -0.686 0.106 82 71 42 0 0
0.4232 -0.3459 -2.2658 0.629 -0.775 -0.067 74 62 40 0 0
-0.0565 0.0555 -1.0117 0.068 -0.913 -0.403 77 64 48 0 0
-0.0566 0.0553 -1.0265 -0.022 -0.979 -0.201 151 144 140 0 0
-0.0557 0.0544 -1.0310 -0.117 -0.963 -0.244 184 181 182 0 0
-0.0618 0.0591 -1.0385 -0.087 -0.938 -0.335 182 183 185 0 0
0.0237 -0.0125 -1.2178 0.307 -0.204 0.929 89 67 29 0 0
0.1017 -0.0746 -1.2365 0.395 -0.788 0.473 99 73 40 0 0
0.1036 -0.0762 -1.2404 0.446 -0.811 0.378 86 61 34 0 0
0.1038 -0.0765 -1.2452 0.602 -0.766 0.228 90 69 38 0 0
0.1241 -0.0956 -1.3841 0.746 -0.442 0.498 193 165 117 0 0
0.1257 -0.0969 -1.3882 0.628 -0.518 0.580 185 156 114 0 0
0.1316 -0.1016 -1.3897 0.473 -0.614 0.632 180 151 109 0 0
0.1524 -0.1186 -1.4124 0.658 -0.475 0.584 148 119 74 0 0
0.1609 -0.1257 -1.4273 0.631 -0.617 0.470 108 81 48 0 0
0.2084 -0.1659 -1.5494 0.582 -0.628 0.516 72 55 29 0 0
0.2284 -0.1827 -1.5922 0.563 -0.629 0.536 148 123 84 0 0
0.2423 -0.1937 -1.5923 0.290 -0.715 0.636 129 109 75 0 0
0.2447 -0.1957 -1.5956 0.290 -0.715 0.636 131 107 65 0 0
0.2584 -0.2066 -1.6009 0.367 -0.158 0.917 179 149 97 0 0
0.3129 -0.2581 -1.9757 0.776 -0.449 0.443 72 46 21 0 0
0.3143 -0.2593 -1.9800 0.784 -0.535 0.315 72 45 21 0 0
0.3122 -0.2578 -1.9876 0.633 -0.774 -0.010 72 44 20 0 0
0.3119 -0.2579 -1.9992 0.659 -0.696 0.285 71 43 19 0 0
0.3318 -0.2751 -2.0649 0.771 -0.528 0.355 76 49 20 0 0
0.3588 -0.2981 -2.1408 0.493 -0.655 0.573 74 54 21 0 0
0.3735 -0.3103 -2.1657 0.740 -0.504 0.445 82 59 25 0 0
0.3851 -0.3198 -2.1822 0.790 -0.561 0.248 87 65 28 0 0
0.3903 -0.3242 -2.1939 0.452 -0.771 0.448 93 70 33 0 0
0.3909 -0.3248 -2.1991 0.592 -0.615 0.520 98 76 32 0 0
0.4058 -0.3370 -2.2176 0.764 -0.547 0.342 115 91 43 0 0
0.4071 -0.3381 -2.2220 0.764 -0.547 0.342 118 94 47 0 0
0.4083 -0.3391 -2.2265 0.764 -0.547 0.342 116 92 48 0 0
0.4229 -0.3510 -2.2392 0.618 -0.585 0.525 102 83 43 0 0
0.4247 -0.3525 -2.2430 0.618 -0.585 0.525 96 80 37 0 0
0.4282 -0.3556 -2.2566 0.646 -0.751 0.133 77 66 43 0 0
-0.0653 0.0562 -1.0239 0.419 -0.856 -0.302 60 45 26 0 0
-0.0667 0.0570 -1.0343 0.139 -0.915 -0.379 117 111 103 0 0
-0.0534 0.0434 -1.1685 0.545 -0.496 0.676 9 9 8 0 0
0.0227 -0.0177 -1.2167 0.291 -0.141 0.946 99 77 41 0 0
0.1285 -0.1051 -1.3898 0.551 -0.545 0.632 194 160 105 0 0
0.1308 -0.1070 -1.3934 0.551 -0.545 0.632 182 148 95 0 0
0.1474 -0.1205 -1.4136 0.770 -0.270 0.579 154 130 77 0 0
0.1509 -0.1234 -1.4165 0.705 -0.566 0.427 159 133 84 0 0
0.1520 -0.1243 -1.4209 0.769 -0.417 0.484 132 104 61 0 0
0.1920 -0.1583 -1.5278 0.814 -0.562 0.146 72 47 20 0 0
0.1904 -0.1572 -1.5341 0.604 -0.772 0.198 110 86 51 0 0
0.2377 -0.1959 -1.5935 0.367 -0.639 0.676 125 102 69 0 0
0.2836 -0.2328 -1.6261 0.645 -0.658 0.389 72 48 23 0 0
0.3125 -0.2637 -1.9732 0.807 -0.560 0.189 71 45 20 0 0
0.3127 -0.2639 -1.9786 0.722 -0.690 0.062 71 44 20 0 0
0.3087 -0.2613 -1.9994 0.848 -0.325 0.419 72 44 20 0 0
0.3140 -0.2654 -1.9999 0.954 -0.295 -0.051 69 41 17 0 0
0.3233 -0.2738 -2.0419 0.803 -0.183 0.567 77 52 22 0 0
0.3269 -0.2768 -2.0496 0.685 -0.561 0.464 76 51 21 0 0
0.3283 -0.2782 -2.0597 0.783 -0.395 0.481 71 46 16 0 0
0.3291 -0.2789 -2.0646 0.771 -0.528 0.355 74 47 18 0 0
0.4244 -0.3583 -2.2517 0.724 -0.632 0.276 83 69 41 0 0
0.4254 -0.3592 -2.2564 0.724 -0.632 0.276 81 70 47 0 0
0.4273 -0.3608 -2.2601 0.664 -0.736 0.133 82 74 58 0 0
-0.1119 0.0896 -0.9041 -0.139 -0.255 0.957 175 178 181 0 0
-0.0323 0.0267 -0.9226 0.213 -0.575 0.790 99 80 55 0 0
-0.0193 0.0159 -0.9460 0.406 -0.783 0.471 74 55 31 0 0
-0.0581 0.0449 -1.0049 0.789 0.557 0.260 77 62 41 0 0
-0.0552 0.0426 -1.0086 0.789 0.557 0.260 65 49 29 0 0
-0.0544 0.0419 -1.0132 0.977 0.215 -0.015 62 46 25 0 0
-0.0488 0.0374 -1.0157 0.963 -0.271 0.014 64 47 26 0 0
-0.0690 0.0529 -1.0290 0.606 -0.612 -0.509 67 51 29 0 0
-0.0540 0.0411 -1.0276 0.895 -0.287 -0.342 67 54 35 0 0
-0.0582 0.0443 -1.0343 0.797 -0.508 -0.326 85 74 60 0 0
-0.0567 0.0401 -1.1585 0.756 -0.520 0.398 7 6 6 0 0
-0.0278 0.0164 -1.2054 0.749 -0.567 0.343 111 91 47 0 0
0.0196 -0.0212 -1.2168 0.222 -0.202 0.954 105 82 47 0 0
0.0773 -0.0690 -1.3167 0.415 -0.856 0.308 58 43 26 0 0
0.0758 -0.0684 -1.3430 0.627 -0.608 0.487 62 48 33 0 0
0.0852 -0.0760 -1.3529 0.590 -0.459 0.665 117 97 70 0 0
0.1456 -0.1249 -1.4129 0.664 -0.503 0.554 150 124 79 0 0
0.1546 -0.1323 -1.4275 0.598 -0.608 0.522 93 71 37 0 0
0.1564 -0.1339 -1.4315 0.598 -0.608 0.522 86 61 30 0 0
0.2746 -0.2311 -1.6101 0.268 -0.699 0.663 193 169 131 0 0
0.2791 -0.2349 -1.6221 0.549 -0.781 0.298 83 64 36 0 0
0.2789 -0.2348 -1.6275 0.810 -0.336 0.481 70 46 21 0 0
0.2800 -0.2358 -1.6318 0.689 -0.358 0.631 74 50 26 0 0
0.2361 -0.2031 -1.7085 0.538 -0.751 0.382 49 31 14 0 0
0.2391 -0.2061 -1.7329 0.833 -0.397 0.385 32 17 5 0 0
0.2549 -0.2192 -1.7631 0.703 -0.673 0.228 60 35 17 0 0
0.2963 -0.2561 -1.9408 0.487 -0.782 0.390 67 39 15 0 0
0.3094 -0.2673 -1.9789 0.755 -0.655 -0.024 71 44 19 0 0
0.3118 -0.2696 -1.9992 0.933 -0.357 0.032 71 43 19 0 0
0.3251 -0.2815 -2.0599 0.771 -0.528 0.355 77 52 22 0 0
0.3233 -0.2804 -2.0732 0.796 -0.404 0.450 86 60 30 0 0
0.3430 -0.2967 -2.1048 0.673 -0.536 0.509 72 51 20 0 0
0.3580 -0.3096 -2.1527 0.700 -0.543 0.464 84 60 28 0 0
0.3598 -0.3111 -2.1566 0.829 -0.527 0.185 83 60 28 0 0
0.3777 -0.3259 -2.1838 0.530 -0.723 0.443 87 65 28 0 0
0.3823 -0.3298 -2.1962 0.705 -0.573 0.418 86 64 28 0 0
0.3838 -0.3310 -2.2004 0.705 -0.573 0.418 94 73 32 0 0
0.4214 -0.3618 -2.2517 0.724 -0.632 0.276 83 68 39 0 0
0.4224 -0.3627 -2.2565 0.724 -0.632 0.276 84 73 50 0 0
0.4237 -0.3638 -2.2608 0.626 -0.745 0.231 83 76 60 0 0
0.4245 -0.3646 -2.2657 0.626 -0.745 0.231 107 100 89 0 0
-0.0264 0.0148 -0.9763 0.453 -0.725 0.518 89 71 47 0 0
-0.0548 0.0362 -1.0120 0.973 0.163 -0.161 69 53 30 0 0
-0.0557 0.0368 -1.0173 0.748 -0.663 0.016 63 48 24 0 0
-0.0526 0.0343 -1.0209 0.853 -0.447 -0.270 66 50 26 0 0
-0.0590 0.0389 -1.0334 0.671 -0.679 -0.297 67 49 26 0 0
-0.0613 0.0406 -1.0393 0.704 -0.663 -0.256 65 49 28 0 0
-0.0554 0.0336 -1.1362 0.858 -0.503 -0.108 10 8 7 0 0
-0.0615 0.0378 -1.1593 0.511 -0.732 0.450 6 4 5 0 0
-0.0580 0.0350 -1.1627 0.756 -0.520 0.398 6 4 4 0 0
-0.0300 0.0120 -1.2049 0.628 -0.375 0.682 90 69 23 0 0
0.0160 -0.0243 -1.2170 0.198 -0.278 0.940 97 76 40 0 0
0.0694 -0.0679 -1.2841 0.233 -0.960 0.155 59 43 25 0 0
0.0707 -0.0695 -1.3087 0.610 -0.718 0.335 65 50 31 0 0
0.0719 -0.0705 -1.3130 0.647 -0.684 0.335 58 44 23 0 0
0.0721 -0.0708 -1.3180 0.568 -0.787 0.239 62 49 31 0 0
0.1300 -0.1182 -1.4004 0.471 -0.634 0.614 183 157 118 0 0
0.1638 -0.1466 -1.4759 0.490 -0.820 0.295 72 49 17 0 0
0.1762 -0.1568 -1.4932 0.370 -0.858 0.355 70 50 24 0 0
0.2377 -0.2102 -1.7048 0.580 -0.698 0.420 54 37 22 0 0
0.2374 -0.2102 -1.7158 0.794 -0.579 0.187 51 29 9 0 0
0.2387 -0.2114 -1.7200 0.726 -0.648 0.230 56 37 16 0 0
0.2382 -0.2112 -1.7312 0.730 -0.584 0.354 34 18 5 0 0
0.3036 -0.2680 -1.9536 0.801 -0.586 0.122 68 42 18 0 0
0.3047 -0.2689 -1.9581 0.701 -0.557 0.444 70 44 20 0 0
0.3062 -0.2702 -1.9623 0.674 -0.510 0.535 74 46 23 0 0
0.3067 -0.2708 -1.9674 0.754 -0.599 0.270 73 45 21 0 0
0.3066 -0.2708 -1.9731 0.755 -0.655 -0.024 71 44 19 0 0
0.3061 -0.2705 -1.9792 0.702 -0.710 -0.051 70 43 19 0 0
0.3181 -0.2815 -2.0411 0.742 -0.607 0.284 73 48 18 0 0
0.3212 -0.2843 -2.0551 0.799 -0.547 0.250 75 50 21 0 0
0.3398 -0.3001 -2.1050 0.705 -0.665 0.246 71 50 20 0 0
0.3799 -0.3337 -2.1897 0.744 -0.482 0.462 96 73 38 0 0
0.4022 -0.3520 -2.2233 0.677 -0.454 0.579 115 90 43 0 0
0.4180 -0.3650 -2.2522 0.527 -0.791 0.310 84 71 43 0 0
0.4192 -0.3661 -2.2568 0.527 -0.791 0.310 90 78 55 0 0
-0.0308 0.0124 -0.9768 0.360 -0.741 0.567 76 58 34 0 0
-0.0609 0.0349 -1.0182 0.995 -0.096 -0.026 66 51 24 0 0
-0.0587 0.0331 -1.0222 0.789 -0.482 -0.381 58 42 17 0 0
-0.0658 0.0380 -1.0448 0.808 -0.453 -0.376 70 53 31 0 0
-0.0592 0.0311 -1.1164 0.937 0.134 0.324 33 30 25 0 0
-0.0595 0.0307 -1.1366 0.645 -0.684 -0.341 9 8 6 0 0
-0.0631 0.0331 -1.1535 0.618 -0.751 0.232 7 5 6 0 0
-0.0621 0.0321 -1.1631 0.723 -0.566 0.396 13 9 8 0 0
0.0125 -0.0276 -1.2173 0.198 -0.278 0.940 94 75 41 0 0
0.0829 -0.0832 -1.2402 0.696 -0.651 0.305 86 64 33 0 0
0.0835 -0.0838 -1.2448 0.668 -0.731 0.137 78 57 29 0 0
0.0685 -0.0738 -1.3132 0.647 -0.684 0.335 57 43 22 0 0
0.0696 -0.0754 -1.3431 0.704 -0.408 0.582 57 42 24 0 0
0.0720 -0.0774 -1.3468 0.618 -0.408 0.672 86 70 49 0 0
0.1102 -0.1081 -1.3802 0.712 -0.616 0.337 138 115 84 0 0
0.1116 -0.1093 -1.3844 0.672 -0.706 0.224 154 129 91 0 0
0.1140 -0.1112 -1.3881 0.496 -0.636 0.592 180 153 114 0 0
0.1778 -0.1633 -1.4749 0.908 -0.145 0.394 104 78 43 0 0
0.1775 -0.1632 -1.4801 0.906 -0.375 0.196 67 45 18 0 0
0.1716 -0.1590 -1.4944 0.642 -0.744 0.185 91 71 45 0 0
0.1927 -0.1774 -1.5677 0.351 -0.901 0.253 76 55 22 0 0
0.2667 -0.2362 -1.6065 0.738 -0.418 0.530 204 183 140 0 0
0.2685 -0.2377 -1.6103 0.787 -0.502 0.357 209 185 146 0 0
0.2334 -0.2127 -1.7059 0.793 -0.555 0.250 49 32 14 0 0
0.2345 -0.2136 -1.7104 0.833 -0.543 0.102 56 38 15 0 0
0.2346 -0.2139 -1.7156 0.698 -0.686 0.205 60 38 16 0 0
0.2443 -0.2235 -1.7940 0.623 -0.705 0.338 79 58 31 0 0
0.3009 -0.2717 -1.9533 0.728 -0.662 0.176 68 42 17 0 0
0.3025 -0.2731 -1.9574 0.890 -0.422 0.174 72 46 21 0 0
0.3039 -0.2744 -1.9672 0.739 -0.537 0.407 75 47 23 0 0
0.3083 -0.2786 -1.9968 0.909 -0.414 0.037 67 40 15 0 0
0.3020 -0.2741 -2.0142 0.331 -0.886 0.326 81 55 20 0 0
0.3162 -0.2861 -2.0457 0.742 -0.607 0.284 74 49 19 0 0
0.3184 -0.2882 -2.0606 0.591 -0.553 0.588 73 47 20 0 0
0.3380 -0.3050 -2.1211 0.550 -0.725 0.415 67 46 15 0 0
0.3877 -0.3461 -2.2070 0.810 -0.466 0.355 98 75 30 0 0
0.4026 -0.3583 -2.2312 0.772 -0.461 0.438 107 84 36 0 0
0.4101 -0.3644 -2.2403 0.564 -0.616 0.550 103 83 41 0 0
0.4172 -0.3705 -2.2615 0.459 -0.695 0.554 84 75 57 0 0
0.4193 -0.3723 -2.2649 0.630 -0.563 0.535 110 107 94 0 0
-0.0607 0.0287 -1.0217 0.820 -0.271 -0.504 58 41 15 0 0
-0.0651 0.0284 -1.1631 0.723 -0.566 0.396 29 23 18 0 0
-0.0636 0.0271 -1.1674 0.723 -0.566 0.396 39 32 24 0 0
0.0139 -0.0347 -1.2200 0.289 -0.086 0.953 97 77 40 0 0
0.0629 -0.0751 -1.3045 0.367 -0.662 0.653 53 38 18 0 0
0.1082 -0.1125 -1.3846 0.640 -0.675 0.368 180 152 111 0 0
0.1104 -0.1143 -1.3884 0.496 -0.636 0.592 178 151 115 0 0
0.1675 -0.1609 -1.4643 0.522 -0.484 0.702 77 55 24 0 0
0.1672 -0.1607 -1.4697 0.442 -0.376 0.814 76 52 21 0 0
0.1734 -0.1657 -1.4758 0.753 -0.377 0.539 106 80 45 0 0
0.1741 -0.1664 -1.4804 0.703 -0.647 0.295 75 51 23 0 0
0.1774 -0.1690 -1.4834 0.828 -0.560 -0.017 70 47 20 0 0
0.1745 -0.1670 -1.4904 0.722 -0.519 0.457 80 59 32 0 0
0.2457 -0.2253 -1.5995 0.383 0.031 0.923 161 132 83 0 0
0.2693 -0.2442 -1.6179 0.787 -0.533 0.310 93 70 38 0 0
0.2703 -0.2451 -1.6222 0.787 -0.533 0.310 80 56 29 0 0
0.2709 -0.2457 -1.6269 0.801 -0.464 0.378 68 42 17 0 0
0.2340 -0.2197 -1.7352 0.650 -0.652 0.390 28 13 2 0 0
0.2928 -0.2714 -1.9581 0.534 -0.844 0.051 69 43 18 0 0
0.2931 -0.2721 -1.9747 0.743 -0.557 0.370 75 47 23 0 0
0.3003 -0.2783 -1.9960 0.697 -0.660 0.279 69 43 17 0 0
0.3049 -0.2819 -1.9971 0.952 0.004 0.307 69 42 15 0 0
0.3852 -0.3500 -2.2065 0.810 -0.466 0.355 96 73 30 0 0
0.4002 -0.3623 -2.2306 0.497 -0.729 0.471 110 87 42 0 0
0.4142 -0.3741 -2.2615 0.590 -0.565 0.577 86 77 61 0 0
0.4168 -0.3761 -2.2645 0.787 -0.390 0.479 113 109 97 0 0
-0.1240 0.0749 -0.9087 -0.348 -0.467 0.813 176 176 179 0 0
-0.0639 0.0250 -1.0266 0.417 -0.887 -0.197 51 34 14 0 0
-0.0701 0.0297 -1.0341 0.981 -0.137 -0.140 49 34 12 0 0
-0.0783 0.0343 -1.0972 0.502 -0.350 0.791 12 9 6 0 0
-0.0663 0.0246 -1.1118 0.838 -0.215 0.502 10 9 7 0 0
-0.0757 0.0312 -1.1362 0.611 -0.713 0.343 9 8 6 0 0
-0.0735 0.0294 -1.1402 0.495 -0.697 0.518 15 14 12 0 0
-0.0599 0.0180 -1.1743 0.670 -0.437 0.601 40 28 14 0 0
0.0115 -0.0388 -1.2196 0.286 -0.059 0.956 90 69 32 0 0
0.0613 -0.0803 -1.3240 0.585 -0.804 -0.103 39 27 13 0 0
0.1049 -0.1158 -1.3848 0.640 -0.675 0.368 159 132 94 0 0
0.1139 -0.1231 -1.3946 0.481 -0.548 0.684 168 146 117 0 0
0.1686 -0.1680 -1.4821 0.355 -0.877 0.325 70 46 18 0 0
0.1717 -0.1705 -1.4852 0.510 -0.852 0.117 78 54 25 0 0
0.1761 -0.1742 -1.4976 0.634 -0.622 0.461 70 48 25 0 0
0.1788 -0.1765 -1.5061 0.581 -0.713 0.391 59 41 18 0 0
0.1823 -0.1802 -1.5397 -0.130 -0.833 0.537 75 53 26 0 0
0.2614 -0.2433 -1.6010 0.731 -0.586 0.349 186 159 123 0 0
0.2623 -0.2441 -1.6055 0.792 -0.429 0.435 178 151 114 0 0
0.2638 -0.2454 -1.6095 0.792 -0.429 0.435 144 113 74 0 0
0.2652 -0.2466 -1.6136 0.800 -0.438 0.410 164 135 96 0 0
0.2886 -0.2741 -1.9592 0.534 -0.844 0.051 69 43 18 0 0
0.2964 -0.2811 -1.9968 0.741 -0.561 0.370 71 45 18 0 0
0.3242 -0.3056 -2.1003 0.754 -0.600 0.266 66 46 17 0 0
0.3341 -0.3141 -2.1305 0.622 -0.672 0.401 65 44 16 0 0
0.3798 -0.3517 -2.2092 0.508 -0.654 0.561 94 71 28 0 0
0.3975 -0.3660 -2.2303 0.516 -0.647 0.562 112 89 46 0 0
0.3994 -0.3676 -2.2340 0.516 -0.647 0.562 114 89 43 0 0
0.4102 -0.3768 -2.2627 0.685 -0.631 0.364 85 76 61 0 0
-0.0701 0.0269 -0.9215 -0.003 -0.776 0.630 107 89 62 0 0
-0.0391 0.0010 -0.9861 0.167 -0.986 -0.025 79 62 36 0 0
-0.0697 0.0235 -1.0327 0.769 -0.572 -0.285 50 35 12 0 0
-0.0711 0.0244 -1.0381 0.769 -0.572 -0.285 47 32 13 0 0
-0.0832 0.0322 -1.0929 0.801 -0.425 0.421 18 13 7 0 0
-0.0818 0.0310 -1.0973 0.548 -0.372 0.750 8 5 1 0 0
-0.0804 0.0298 -1.1017 0.481 -0.258 0.838 7 6 2 0 0
-0.0057 -0.0311 -1.2118 0.329 -0.242 0.913 98 79 49 0 0
0.0204 -0.0517 -1.2236 0.309 -0.248 0.918 108 87 43 0 0
0.0487 -0.0739 -1.2337 0.214 -0.388 0.897 118 97 68 0 0
0.0558 -0.0815 -1.3102 0.601 -0.748 0.281 54 39 18 0 0
0.0572 -0.0830 -1.3246 0.380 -0.925 0.030 41 29 13 0 0
0.0881 -0.1083 -1.3728 0.419 -0.735 0.534 117 94 63 0 0
0.1111 -0.1267 -1.3945 0.710 -0.435 0.554 172 145 115 0 0
0.1447 -0.1543 -1.4499 0.663 -0.583 0.470 99 75 38 0 0
0.1700 -0.1749 -1.4843 0.542 -0.540 0.644 78 57 28 0 0
0.2208 -0.2171 -1.5878 0.178 -0.654 0.736 132 105 73 0 0
0.2612 -0.2490 -1.6093 0.631 -0.732 0.255 157 130 94 0 0
0.2630 -0.2505 -1.6131 0.792 -0.429 0.435 137 109 75 0 0
0.2175 -0.2177 -1.7007 0.544 -0.748 0.380 70 48 19 0 0
0.2806 -0.2745 -1.9864 0.717 -0.600 0.354 72 46 21 0 0
0.2847 -0.2778 -1.9882 0.756 -0.477 0.448 71 45 20 0 0
0.3010 -0.2915 -2.0291 0.718 -0.386 0.580 87 64 33 0 0
0.3073 -0.2977 -2.0742 0.524 -0.846 -0.094 78 53 20 0 0
0.3069 -0.2975 -2.0803 0.282 -0.617 0.735 110 84 44 0 0
0.3092 -0.2994 -2.0837 0.346 -0.701 0.624 129 99 54 0 0
0.3117 -0.3014 -2.0870 0.308 -0.627 0.716 127 102 60 0 0
0.3217 -0.3095 -2.0998 0.823 -0.506 0.257 67 48 18 0 0
0.3775 -0.3558 -2.2084 0.711 -0.566 0.418 94 73 30 0 0
0.3828 -0.3602 -2.2201 0.593 -0.637 0.492 107 85 36 0 0
0.3953 -0.3705 -2.2412 0.406 -0.876 0.259 108 84 42 0 0
0.4052 -0.3782 -2.2417 0.763 -0.471 0.442 81 65 36 0 0
-0.1492 0.0823 -0.9155 -0.352 -0.468 0.810 177 177 181 0 0
-0.0607 0.0131 -0.9407 0.240 -0.963 0.124 59 40 22 0 0
-0.0833 0.0262 -1.0966 0.709 -0.460 0.535 12 9 3 0 0
-0.0890 0.0300 -1.1192 0.683 -0.469 0.560 9 8 4 0 0
-0.0840 0.0257 -1.1321 0.378 -0.892 0.248 17 16 12 0 0
-0.0821 0.0239 -1.1464 0.673 -0.343 0.655 15 10 6 0 0
-0.0725 0.0160 -1.1621 0.753 -0.621 0.217 46 35 23 0 0
0.0103 -0.0497 -1.2222 0.324 -0.160 0.933 106 83 48 0 0
0.0153 -0.0537 -1.2246 0.324 -0.160 0.933 124 104 58 0 0
0.0227 -0.0594 -1.2258 0.280 -0.232 0.931 103 81 35 0 0
0.0606 -0.0892 -1.2407 0.521 -0.727 0.448 116 94 63 0 0
0.0495 -0.0824 -1.3070 0.290 -0.692 0.661 64 47 27 0 0
0.0534 -0.0860 -1.3251 0.505 -0.852 0.139 37 25 9 0 0
