ply
format ascii 1.0
element vertex 837
property float x
property float y
property float z
property float nx
property float ny
property float nz
property uchar diffuse_red
property uchar diffuse_green
property uchar diffuse_blue
property uchar class
property uchar detection
end_header
0.1474 -0.2831 -1.7455 0.254 -0.831 0.495 120 98 61 0 0
0.1455 -0.2870 -1.7483 -0.173 -0.859 0.482 127 104 64 0 0
0.1451 -0.2886 -1.7640 0.241 -0.934 0.262 120 97 57 0 0
0.1458 -0.2874 -1.7705 -0.020 -0.718 0.696 119 95 57 0 0
0.1215 -0.3414 -1.8889 -0.326 -0.834 0.444 106 84 47 0 0
0.1207 -0.3431 -1.8933 -0.322 -0.816 0.479 104 82 45 0 0
0.1189 -0.3474 -1.9129 0.146 -0.948 0.281 99 77 40 0 0
0.1181 -0.3492 -1.9172 0.242 -0.924 0.297 100 77 42 0 0
0.1144 -0.3575 -1.9337 -0.070 -0.781 0.621 114 91 57 0 0
0.1050 -0.3787 -1.9919 -0.036 -0.910 0.412 106 83 49 0 0
0.1027 -0.3834 -1.9937 -0.196 -0.973 0.118 101 78 44 0 0
0.1021 -0.3849 -1.9984 -0.119 -0.832 0.541 100 77 43 0 0
0.0682 -0.4592 -2.1396 -0.483 -0.780 0.397 116 91 50 0 0
0.0413 -0.5161 -2.2053 0.267 -0.891 0.366 144 116 69 0 0
0.1719 -0.2164 -1.5793 0.142 -0.569 0.810 99 78 44 0 0
0.1337 -0.2944 -1.5892 -0.053 -0.145 0.988 126 104 65 0 0
0.1282 -0.3057 -1.5926 0.007 -0.426 0.905 125 102 69 0 0
0.1259 -0.3104 -1.5948 0.007 -0.426 0.905 131 108 73 0 0
0.1328 -0.2996 -1.6775 0.159 -0.812 -0.561 116 100 67 0 0
0.1469 -0.2726 -1.7181 0.220 -0.902 0.372 94 77 49 0 0
0.1442 -0.2782 -1.7253 -0.254 -0.830 0.497 95 81 61 0 0
0.1387 -0.2911 -1.7720 0.193 -0.772 0.606 120 96 57 0 0
0.1242 -0.3226 -1.8222 -0.267 -0.963 0.041 107 85 48 0 0
0.1117 -0.3511 -1.9028 0.028 -0.990 0.141 95 73 36 0 0
0.1132 -0.3484 -1.9107 -0.162 -0.912 0.376 97 75 38 0 0
0.1116 -0.3516 -1.9139 0.249 -0.886 0.390 100 78 42 0 0
0.1062 -0.3644 -1.9613 0.158 -0.981 0.116 107 84 51 0 0
0.0769 -0.4298 -2.1112 -0.125 -0.967 0.221 107 85 44 0 0
0.0759 -0.4320 -2.1152 -0.362 -0.784 0.505 112 90 49 0 0
0.0645 -0.4558 -2.1351 -0.339 -0.845 0.415 102 80 39 0 0
0.0633 -0.4585 -2.1386 -0.323 -0.824 0.465 108 84 43 0 0
0.0289 -0.5315 -2.2245 -0.050 -0.791 0.609 132 109 65 0 0
0.0274 -0.5347 -2.2274 -0.306 -0.681 0.665 125 105 62 0 0
0.1230 -0.3059 -1.5913 -0.571 -0.316 0.758 136 114 75 0 0
0.1214 -0.3093 -1.5944 -0.594 -0.391 0.703 139 116 80 0 0
0.1364 -0.2837 -1.7313 -0.095 -0.971 0.220 70 54 31 0 0
0.1348 -0.2874 -1.7454 0.117 -0.920 0.373 121 102 63 0 0
0.1221 -0.3158 -1.8146 0.004 -0.878 0.479 108 86 49 0 0
0.0936 -0.3797 -1.9705 -0.010 -0.962 0.274 103 80 46 0 0
0.0935 -0.3802 -1.9759 -0.127 -0.988 0.093 98 75 41 0 0
0.0629 -0.4482 -2.1286 -0.160 -0.788 0.594 92 68 35 0 0
0.0449 -0.4866 -2.1764 -0.504 -0.729 0.464 140 112 65 0 0
0.0208 -0.5380 -2.2404 -0.533 -0.661 0.528 110 95 53 0 0
0.1693 -0.1992 -1.5497 0.250 -0.944 0.217 118 95 58 0 0
0.1677 -0.2027 -1.5584 0.191 -0.957 0.220 117 94 57 0 0
0.1655 -0.2074 -1.5609 0.238 -0.889 0.390 118 96 59 0 0
0.1395 -0.2614 -1.5812 0.177 -0.771 0.612 121 97 62 0 0
0.1331 -0.2794 -1.7219 -0.184 -0.977 0.104 107 91 58 0 0
0.1171 -0.3154 -1.8135 0.044 -0.871 0.490 111 88 53 0 0
0.1156 -0.3185 -1.8168 -0.286 -0.957 0.052 111 89 52 0 0
0.1088 -0.3340 -1.8618 0.023 -0.868 0.496 107 84 49 0 0
0.1065 -0.3390 -1.8693 -0.415 -0.814 0.406 102 78 42 0 0
0.0892 -0.3784 -1.9817 -0.140 -0.920 0.367 99 76 42 0 0
0.0885 -0.3801 -1.9861 -0.140 -0.920 0.367 95 72 38 0 0
0.0731 -0.4141 -2.0566 0.036 -0.783 0.621 99 79 42 0 0
0.0737 -0.4130 -2.0635 -0.274 -0.918 0.286 98 78 41 0 0
0.0729 -0.4149 -2.0677 -0.277 -0.862 0.424 103 80 45 0 0
0.0713 -0.4182 -2.0708 -0.094 -0.933 0.346 102 80 47 0 0
0.0592 -0.4449 -2.1239 -0.147 -0.827 0.543 81 59 31 0 0
0.0581 -0.4472 -2.1277 -0.306 -0.761 0.572 81 57 29 0 0
0.0568 -0.4500 -2.1312 -0.436 -0.657 0.616 85 63 30 0 0
0.0442 -0.4772 -2.1716 -0.268 -0.798 0.540 146 117 68 0 0
0.0322 -0.5029 -2.2010 -0.443 -0.155 0.883 144 116 69 0 0
0.0159 -0.5377 -2.2450 -0.533 -0.661 0.528 112 97 56 0 0
0.1638 -0.1996 -1.5483 -0.075 -0.977 0.202 119 97 60 0 0
0.1643 -0.1989 -1.5541 0.164 -0.959 0.230 119 97 60 0 0
0.1621 -0.2034 -1.5567 0.191 -0.957 0.220 118 96 59 0 0
0.1163 -0.2987 -1.5935 -0.591 -0.038 0.806 134 111 78 0 0
0.1151 -0.3014 -1.5972 -0.765 -0.215 0.607 127 104 68 0 0
0.1154 -0.3068 -1.7735 -0.003 -0.961 -0.275 114 90 52 0 0
0.1034 -0.3343 -1.8601 -0.009 -0.860 0.511 108 85 51 0 0
0.0885 -0.3678 -1.9425 -0.113 -0.955 0.275 104 81 47 0 0
0.0880 -0.3691 -1.9530 -0.166 -0.984 0.064 104 81 47 0 0
0.0879 -0.3694 -1.9585 -0.166 -0.984 0.064 106 83 49 0 0
0.0873 -0.3710 -1.9630 0.005 -0.938 0.347 107 84 50 0 0
0.0860 -0.3738 -1.9665 -0.225 -0.826 0.516 106 83 49 0 0
0.0784 -0.3912 -2.0219 -0.374 -0.904 0.206 117 96 58 0 0
0.0731 -0.4020 -2.0185 -0.069 -0.951 0.300 108 86 52 0 0
0.0693 -0.4112 -2.0634 -0.556 -0.819 0.145 99 79 42 0 0
0.0571 -0.4379 -2.1107 -0.482 -0.785 0.388 84 64 37 0 0
0.0564 -0.4395 -2.1153 -0.486 -0.810 0.327 78 57 29 0 0
0.0556 -0.4413 -2.1195 -0.482 -0.785 0.388 79 58 30 0 0
0.0117 -0.5357 -2.2452 -0.304 -0.783 0.542 111 96 55 0 0
0.1759 -0.1617 -1.4783 0.311 -0.945 0.105 110 89 60 0 0
0.1255 -0.2690 -1.5847 -0.013 -0.295 0.956 138 113 74 0 0
0.1012 -0.3266 -1.8137 -0.379 -0.539 0.752 104 82 45 0 0
0.0788 -0.3785 -1.9902 0.085 -0.872 0.482 103 80 46 0 0
0.0743 -0.3887 -2.0166 -0.362 -0.919 0.158 98 76 42 0 0
0.0740 -0.3895 -2.0218 -0.362 -0.919 0.158 130 108 68 0 0
0.0737 -0.3903 -2.0270 -0.362 -0.919 0.158 114 92 55 0 0
0.0731 -0.3917 -2.0375 -0.432 -0.880 0.197 102 79 45 0 0
0.0683 -0.4020 -2.0463 -0.661 -0.648 0.377 96 74 37 0 0
0.0609 -0.4184 -2.0850 0.065 -0.970 0.233 124 102 66 0 0
0.0551 -0.4310 -2.1034 -0.391 -0.722 0.571 97 77 43 0 0
0.0540 -0.4334 -2.1072 -0.391 -0.722 0.571 91 71 40 0 0
0.0521 -0.4376 -2.1153 -0.511 -0.803 0.307 87 63 32 0 0
0.0515 -0.4390 -2.1200 -0.511 -0.803 0.307 90 67 36 0 0
0.0506 -0.4409 -2.1242 -0.392 -0.870 0.300 95 71 41 0 0
0.0474 -0.4480 -2.1415 -0.370 -0.895 0.250 111 86 44 0 0
0.0004 -0.5489 -2.2663 -0.247 -0.948 -0.202 108 101 86 0 0
0.1418 -0.2232 -1.5371 -0.488 -0.837 0.247 118 94 58 0 0
0.1207 -0.2682 -1.5840 0.150 -0.379 0.913 141 116 77 0 0
0.1142 -0.2855 -1.7028 0.211 -0.874 0.438 118 101 64 0 0
0.0975 -0.3236 -1.8202 -0.293 -0.750 0.593 109 87 50 0 0
0.0836 -0.3549 -1.9039 -0.319 -0.935 0.153 106 83 50 0 0
0.0731 -0.3790 -1.9765 -0.380 -0.903 0.200 103 80 46 0 0
0.0720 -0.3817 -1.9918 -0.017 -0.964 0.264 100 77 43 0 0
0.0459 -0.4399 -2.1235 -0.154 -0.898 0.411 111 88 52 0 0
0.0451 -0.4417 -2.1278 -0.154 -0.898 0.411 106 83 47 0 0
0.0442 -0.4435 -2.1321 -0.154 -0.898 0.411 107 83 45 0 0
0.0429 -0.4468 -2.1470 -0.477 -0.782 0.401 116 89 48 0 0
0.1674 -0.1574 -1.4732 0.273 -0.761 0.589 110 87 57 0 0
0.1597 -0.1736 -1.4800 0.231 -0.896 0.378 112 88 59 0 0
0.0967 -0.3075 -1.5897 -0.199 -0.131 0.971 129 105 73 0 0
0.1083 -0.2869 -1.7005 0.107 -0.982 0.156 119 102 65 0 0
0.1052 -0.2950 -1.7613 0.042 -0.997 -0.060 123 97 55 0 0
0.0791 -0.3535 -1.9036 -0.511 -0.785 0.350 107 84 50 0 0
0.0744 -0.3642 -1.9351 -0.323 -0.764 0.558 91 70 38 0 0
0.0728 -0.3679 -1.9437 -0.370 -0.866 0.338 97 74 43 0 0
0.0721 -0.3694 -1.9483 -0.438 -0.830 0.345 104 81 47 0 0
0.0709 -0.3720 -1.9519 -0.406 -0.748 0.526 105 82 50 0 0
0.0687 -0.3772 -1.9765 -0.380 -0.903 0.200 101 78 44 0 0
0.0682 -0.3786 -1.9870 -0.329 -0.692 0.643 96 73 39 0 0
0.0677 -0.3797 -1.9919 -0.321 -0.819 0.475 95 72 38 0 0
0.0403 -0.4406 -2.1271 -0.222 -0.870 0.440 110 86 48 0 0
0.0349 -0.4525 -2.1460 -0.094 -0.981 0.172 116 91 48 0 0
0.0182 -0.4878 -2.1725 -0.449 -0.835 0.319 131 104 59 0 0
0.1648 -0.1518 -1.4646 0.215 -0.825 0.523 112 89 57 0 0
0.1501 -0.1829 -1.4841 0.134 -0.783 0.607 113 90 59 0 0
0.1487 -0.1859 -1.4877 0.001 -0.872 0.490 110 87 54 0 0
0.1312 -0.2245 -1.5662 0.098 -0.985 0.144 121 96 55 0 0
0.0929 -0.3049 -1.5901 -0.199 -0.131 0.971 137 114 82 0 0
0.0805 -0.3306 -1.5893 -0.067 -0.550 0.833 151 127 86 0 0
0.0671 -0.3596 -1.6281 0.035 -0.957 0.287 99 76 43 0 0
0.0799 -0.3409 -1.9006 0.015 -0.927 0.374 105 82 48 0 0
0.0741 -0.3530 -1.9025 -0.332 -0.670 0.664 105 82 48 0 0
0.0664 -0.3706 -1.9516 -0.028 -0.944 0.329 105 82 49 0 0
0.0643 -0.3759 -1.9877 -0.046 -0.728 0.684 92 69 35 0 0
0.0577 -0.3898 -1.9935 -0.031 -0.884 0.467 95 72 38 0 0
0.0532 -0.4008 -2.0485 -0.315 -0.912 0.263 99 76 42 0 0
0.0540 -0.3993 -2.0556 -0.488 -0.789 0.374 96 75 40 0 0
0.0531 -0.4012 -2.0599 -0.599 -0.593 0.538 98 78 43 0 0
0.0438 -0.4219 -2.1067 -0.094 -0.820 0.564 105 83 47 0 0
-0.0156 -0.5500 -2.2597 -0.205 -0.978 0.042 91 81 59 0 0
0.1691 -0.1310 -1.4379 -0.327 -0.783 0.530 106 85 56 0 0
0.1449 -0.1828 -1.4831 0.050 -0.941 0.336 112 89 56 0 0
0.1439 -0.1851 -1.4871 0.014 -0.901 0.434 112 89 55 0 0
0.1351 -0.2041 -1.5132 0.412 -0.692 0.593 115 90 52 0 0
0.0885 -0.3034 -1.5899 -0.150 -0.156 0.976 125 103 70 0 0
0.0951 -0.2933 -1.7211 0.237 -0.898 0.370 124 102 61 0 0
0.0940 -0.2958 -1.7248 -0.225 -0.803 0.551 119 97 56 0 0
0.0934 -0.2971 -1.7295 -0.176 -0.973 0.146 119 97 55 0 0
0.0661 -0.3593 -1.9189 -0.090 -0.856 0.510 94 71 39 0 0
0.0636 -0.3650 -1.9316 -0.036 -0.958 0.284 104 80 46 0 0
0.0626 -0.3671 -1.9356 0.221 -0.891 0.397 106 83 47 0 0
0.0621 -0.3684 -1.9461 0.069 -0.973 0.222 103 80 48 0 0
0.0594 -0.3750 -1.9811 -0.540 -0.815 0.209 95 72 38 0 0
0.0596 -0.3748 -1.9871 -0.277 -0.639 0.717 89 66 32 0 0
0.0575 -0.3794 -1.9949 -0.307 -0.741 0.598 98 75 41 0 0
0.0494 -0.3975 -2.0438 -0.100 -0.921 0.377 100 77 43 0 0
0.1277 -0.2086 -1.5094 0.255 -0.934 0.252 117 93 57 0 0
0.1280 -0.2081 -1.5150 0.090 -0.733 0.674 114 88 50 0 0
0.1154 -0.2357 -1.5623 -0.114 -0.960 0.256 128 102 57 0 0
0.1161 -0.2344 -1.5684 -0.326 -0.498 0.804 131 105 60 0 0
0.1035 -0.2616 -1.5942 0.345 -0.409 0.845 135 109 75 0 0
0.0814 -0.3079 -1.5911 0.052 -0.339 0.939 136 115 78 0 0
0.0603 -0.3526 -1.6146 -0.016 -0.848 0.529 102 79 45 0 0
0.0906 -0.2912 -1.6938 -0.102 -0.894 -0.437 85 68 33 0 0
0.0871 -0.2994 -1.7265 0.071 -0.944 0.321 117 94 52 0 0
0.0668 -0.3459 -1.8824 -0.422 -0.905 0.059 100 77 43 0 0
0.0648 -0.3502 -1.8847 -0.182 -0.983 -0.023 102 79 45 0 0
0.0641 -0.3524 -1.9115 -0.697 -0.605 0.386 100 77 43 0 0
0.0519 -0.3793 -1.9587 0.055 -0.940 0.338 102 79 45 0 0
0.0557 -0.3717 -1.9765 -0.393 -0.914 0.098 101 78 44 0 0
0.0556 -0.3721 -1.9878 -0.474 -0.630 0.615 98 75 41 0 0
0.0446 -0.3966 -2.0430 -0.100 -0.921 0.377 99 76 42 0 0
0.0440 -0.3981 -2.0475 -0.054 -0.885 0.462 101 78 44 0 0
0.0428 -0.4009 -2.0569 -0.016 -0.953 0.302 97 75 42 0 0
0.0244 -0.4413 -2.1274 -0.071 -0.871 0.486 108 84 46 0 0
0.0149 -0.4623 -2.1736 -0.188 -0.879 0.439 131 103 60 0 0
-0.0102 -0.5157 -2.2062 -0.386 -0.794 0.469 145 114 68 0 0
0.2329 0.0255 -1.4213 0.655 -0.434 0.618 201 198 199 0 0
0.1420 -0.1665 -1.4585 0.202 -0.905 0.374 118 94 60 0 0
0.1411 -0.1684 -1.4627 0.202 -0.905 0.374 117 93 58 0 0
0.1233 -0.2070 -1.5093 -0.132 -0.987 0.088 103 79 43 0 0
0.1075 -0.2421 -1.5786 0.106 -0.973 0.203 147 116 72 0 0
0.1061 -0.2450 -1.5821 -0.514 -0.792 0.331 147 114 63 0 0
0.1006 -0.2566 -1.5855 0.045 -0.421 0.906 165 136 89 0 0
0.0755 -0.3094 -1.5890 0.234 -0.539 0.809 129 107 72 0 0
0.0854 -0.2916 -1.7032 -0.055 -0.971 0.232 122 102 65 0 0
0.0822 -0.2989 -1.7256 -0.041 -0.994 0.105 116 94 52 0 0
0.0807 -0.3021 -1.7343 -0.348 -0.922 0.172 116 94 53 0 0
0.0801 -0.3035 -1.7389 -0.292 -0.926 0.239 115 94 52 0 0
0.0683 -0.3307 -1.8305 -0.080 -0.931 0.355 103 80 44 0 0
0.0621 -0.3450 -1.8816 -0.241 -0.962 0.125 99 76 42 0 0
0.0609 -0.3481 -1.9077 -0.492 -0.458 0.740 100 77 43 0 0
0.0601 -0.3499 -1.9120 -0.438 -0.820 0.368 100 77 43 0 0
0.0568 -0.3569 -1.9122 -0.226 -0.829 0.511 102 79 45 0 0
0.0537 -0.3637 -1.9297 -0.154 -0.941 0.302 80 57 26 0 0
0.0480 -0.3765 -1.9595 -0.282 -0.918 0.280 101 78 44 0 0
0.0517 -0.3693 -1.9886 -0.590 -0.696 0.410 98 75 41 0 0
-0.0185 -0.5225 -2.2156 0.144 -0.760 0.634 112 90 51 0 0
-0.0278 -0.5439 -2.2848 -0.519 -0.849 0.104 176 176 175 0 0
0.2254 0.0214 -1.4128 0.677 -0.218 0.703 202 200 202 0 0
0.1317 -0.1774 -1.4618 -0.099 -0.932 0.350 116 92 58 0 0
0.1257 -0.1902 -1.4703 0.179 -0.303 0.936 93 72 39 0 0
0.1023 -0.2421 -1.5774 -0.141 -0.960 0.240 147 117 76 0 0
0.0708 -0.3088 -1.5882 -0.016 -0.450 0.893 119 96 64 0 0
0.0506 -0.3517 -1.6023 0.057 -0.807 0.588 109 83 48 0 0
0.0466 -0.3604 -1.6175 -0.170 -0.890 0.423 100 78 42 0 0
0.0666 -0.3231 -1.8235 -0.544 -0.742 0.392 96 74 36 0 0
0.0581 -0.3428 -1.8990 -0.232 -0.919 0.319 100 77 43 0 0
0.0557 -0.3481 -1.9120 -0.333 -0.806 0.489 100 77 43 0 0
0.0538 -0.3523 -1.9144 -0.284 -0.853 0.437 99 76 42 0 0
0.0493 -0.3621 -1.9294 -0.106 -0.845 0.524 86 63 31 0 0
0.0482 -0.3644 -1.9333 -0.106 -0.845 0.524 96 73 40 0 0
0.0156 -0.4378 -2.1273 -0.433 -0.825 0.363 112 88 50 0 0
-0.0237 -0.5227 -2.2137 0.006 -0.723 0.691 112 90 53 0 0
-0.0289 -0.5341 -2.2324 -0.148 -0.800 0.582 115 95 51 0 0
-0.0318 -0.5415 -2.2854 -0.464 -0.720 0.516 172 170 168 0 0
0.1418 -0.1444 -1.4317 -0.324 -0.783 0.530 116 92 58 0 0
0.1380 -0.1526 -1.4377 -0.131 -0.967 0.220 113 90 56 0 0
0.1171 -0.1979 -1.4859 -0.337 -0.784 0.522 121 95 58 0 0
0.1102 -0.2130 -1.5088 -0.033 -0.993 0.115 115 89 48 0 0
0.0974 -0.2409 -1.5503 0.001 -0.878 0.479 140 108 60 0 0
0.0696 -0.3006 -1.5870 0.184 -0.354 0.917 122 98 66 0 0
0.0663 -0.3077 -1.5877 -0.016 -0.450 0.893 123 100 65 0 0
0.0663 -0.3111 -1.7474 -0.177 -0.982 -0.070 128 104 62 0 0
0.0681 -0.3074 -1.7556 0.262 -0.924 0.280 106 82 47 0 0
0.0630 -0.3186 -1.7697 -0.121 -0.629 0.768 115 92 50 0 0
0.0575 -0.3305 -1.7776 -0.452 -0.632 0.629 140 114 76 0 0
0.0617 -0.3225 -1.8225 -0.128 -0.935 0.332 97 75 38 0 0
0.0514 -0.3461 -1.9064 0.011 -0.942 0.335 101 78 44 0 0
0.0516 -0.3459 -1.9123 0.032 -0.996 0.087 99 76 42 0 0
0.0490 -0.3513 -1.9137 -0.278 -0.829 0.485 98 75 41 0 0
0.0198 -0.4174 -2.1084 -0.571 -0.762 0.305 99 77 39 0 0
-0.0224 -0.5087 -2.1957 -0.185 -0.845 0.502 137 108 62 0 0
-0.0327 -0.5312 -2.2275 -0.309 -0.791 0.528 123 101 59 0 0
-0.0337 -0.5334 -2.2313 -0.312 -0.782 0.540 116 95 52 0 0
-0.0351 -0.5364 -2.2343 -0.356 -0.790 0.499 111 92 45 0 0
-0.0345 -0.5364 -2.2888 -0.402 -0.905 0.138 165 163 159 0 0
-0.0470 -0.5625 -2.2740 -0.230 -0.629 0.743 195 195 196 0 0
0.1368 -0.1439 -1.4309 -0.498 -0.699 0.513 118 94 61 0 0
0.1175 -0.1857 -1.4655 -0.214 -0.947 0.239 117 93 58 0 0
0.1163 -0.1884 -1.4745 0.021 -0.865 0.502 91 70 37 0 0
0.1147 -0.1920 -1.4830 0.138 -0.749 0.648 119 92 54 0 0
0.1108 -0.2004 -1.4887 -0.637 -0.728 0.254 118 92 57 0 0
0.1108 -0.2004 -1.4939 -0.270 -0.884 0.381 125 100 60 0 0
0.0396 -0.3539 -1.5984 0.013 -0.975 0.222 119 89 51 0 0
0.0358 -0.3623 -1.6138 -0.190 -0.842 0.504 109 86 53 0 0
0.0541 -0.3243 -1.6608 -0.155 -0.733 -0.663 112 92 58 0 0
0.0672 -0.2977 -1.7226 -0.114 -0.911 0.397 113 91 51 0 0
0.0502 -0.3365 -1.8500 -0.453 -0.884 -0.111 106 83 51 0 0
0.0480 -0.3414 -1.8576 -0.294 -0.947 0.128 101 78 44 0 0
0.0431 -0.3526 -1.9055 0.107 -0.969 0.222 99 76 42 0 0
0.0335 -0.3739 -1.9456 -0.483 -0.866 0.129 101 78 46 0 0
0.0334 -0.3750 -1.9851 0.193 -0.959 0.208 96 73 39 0 0
0.0300 -0.3823 -1.9964 -0.065 -0.673 0.737 93 70 35 0 0
0.0153 -0.4159 -2.1081 -0.139 -0.990 0.010 95 73 33 0 0
0.0155 -0.4156 -2.1143 -0.080 -0.990 0.115 97 74 37 0 0
-0.0270 -0.5075 -2.1952 -0.185 -0.845 0.502 136 105 63 0 0
-0.0289 -0.5119 -2.2088 -0.209 -0.893 0.397 116 93 56 0 0
-0.0297 -0.5136 -2.2131 -0.209 -0.893 0.397 114 92 56 0 0
-0.0393 -0.5346 -2.2343 -0.356 -0.790 0.499 115 94 51 0 0
-0.0455 -0.5479 -2.2510 -0.210 -0.792 0.574 87 74 53 0 0
-0.0388 -0.5345 -2.2888 -0.402 -0.905 0.138 159 156 153 0 0
0.2014 0.0089 -1.2183 0.338 -0.701 0.628 195 196 198 0 0
0.2198 0.0445 -1.4049 0.618 -0.093 0.780 203 203 205 0 0
0.1340 -0.1385 -1.4170 -0.408 -0.800 0.439 116 92 61 0 0
0.1281 -0.1512 -1.4259 -0.412 -0.479 0.775 122 97 65 0 0
0.1107 -0.1892 -1.4624 0.247 -0.819 0.518 121 97 62 0 0
0.1098 -0.1913 -1.4718 0.120 -0.861 0.494 96 75 42 0 0
0.0980 -0.2168 -1.4938 0.080 -0.901 0.426 131 103 63 0 0
0.0880 -0.2388 -1.5334 -0.415 -0.884 0.215 121 93 53 0 0
0.0820 -0.2527 -1.5886 0.328 -0.734 0.594 172 141 87 0 0
0.0524 -0.3158 -1.5907 0.348 -0.374 0.860 149 120 77 0 0
0.0334 -0.3565 -1.6060 -0.155 -0.873 0.461 109 82 44 0 0
0.0301 -0.3637 -1.6169 -0.354 -0.830 0.431 110 87 48 0 0
0.0488 -0.3248 -1.6592 -0.053 -0.761 -0.647 99 79 46 0 0
0.0616 -0.2986 -1.7206 -0.236 -0.844 0.481 112 89 49 0 0
0.0563 -0.3110 -1.7725 -0.236 -0.944 0.230 113 90 48 0 0
0.0559 -0.3120 -1.7773 -0.236 -0.944 0.230 106 85 44 0 0
0.0395 -0.3496 -1.9179 0.058 -0.732 0.679 98 75 41 0 0
0.0294 -0.3716 -1.9460 -0.483 -0.866 0.129 102 79 47 0 0
0.0279 -0.3751 -1.9661 -0.398 -0.768 0.502 100 77 43 0 0
0.0131 -0.4084 -2.0541 -0.086 -0.925 0.370 95 72 38 0 0
0.0107 -0.4147 -2.1135 -0.458 -0.888 0.051 92 68 32 0 0
0.0023 -0.4325 -2.1034 -0.351 -0.796 0.493 95 73 34 0 0
-0.0040 -0.4464 -2.1381 -0.475 -0.851 0.223 102 77 37 0 0
-0.0317 -0.5069 -2.2060 -0.722 -0.668 0.177 119 94 55 0 0
-0.0433 -0.5322 -2.2350 -0.299 -0.839 0.455 118 96 56 0 0
-0.0465 -0.5388 -2.2343 -0.229 -0.812 0.537 110 89 47 0 0
-0.0516 -0.5503 -2.2587 -0.100 -0.905 0.413 94 86 71 0 0
0.1994 0.0161 -1.2102 -0.114 -0.394 0.912 194 195 197 0 0
0.1876 -0.0095 -1.2248 0.010 -0.567 0.824 197 198 200 0 0
0.1855 -0.0140 -1.2279 0.010 -0.567 0.824 195 196 198 0 0
0.2183 0.0531 -1.4027 0.618 -0.093 0.780 203 204 206 0 0
0.1173 -0.1635 -1.4286 -0.045 -0.994 0.101 130 103 69 0 0
0.0929 -0.2167 -1.4928 0.080 -0.901 0.426 128 100 61 0 0
0.0896 -0.2241 -1.5094 -0.011 -0.871 0.492 129 100 58 0 0
0.0846 -0.2350 -1.5188 -0.411 -0.732 0.543 82 58 24 0 0
0.0779 -0.2505 -1.5835 0.328 -0.734 0.594 153 122 70 0 0
0.0764 -0.2538 -1.5868 0.328 -0.734 0.594 173 145 92 0 0
0.0464 -0.3179 -1.5882 0.051 -0.181 0.982 144 117 75 0 0
0.0260 -0.3620 -1.6169 -0.354 -0.830 0.431 131 108 67 0 0
0.0564 -0.2987 -1.7192 0.015 -0.818 0.575 112 89 48 0 0
0.0514 -0.3103 -1.7716 -0.525 -0.781 0.337 112 88 48 0 0
0.0493 -0.3150 -1.7738 0.162 -0.923 0.349 106 83 41 0 0
0.0485 -0.3168 -1.7781 0.162 -0.923 0.349 108 86 46 0 0
0.0477 -0.3185 -1.7824 0.162 -0.923 0.349 92 70 35 0 0
0.0400 -0.3360 -1.8364 0.097 -0.991 0.093 102 80 42 0 0
0.0366 -0.3439 -1.8810 -0.504 -0.835 0.221 92 69 35 0 0
0.0363 -0.3448 -1.8860 -0.328 -0.865 0.380 96 73 39 0 0
0.0284 -0.3618 -1.9010 -0.025 -0.831 0.556 99 76 42 0 0
0.0278 -0.3634 -1.9054 -0.384 -0.897 0.219 97 74 40 0 0
0.0249 -0.3700 -1.9344 -0.326 -0.930 0.171 97 74 40 0 0
0.0239 -0.3721 -1.9383 -0.469 -0.792 0.390 99 76 43 0 0
0.0250 -0.3699 -1.9459 -0.302 -0.924 0.233 101 78 46 0 0
0.0236 -0.3733 -1.9661 -0.089 -0.853 0.515 99 76 42 0 0
0.0125 -0.3978 -2.0150 -0.071 -0.939 0.336 104 80 44 0 0
0.0122 -0.3987 -2.0200 -0.115 -0.948 -0.296 119 95 58 0 0
0.0133 -0.3965 -2.0278 -0.115 -0.948 -0.296 97 74 40 0 0
0.0095 -0.4049 -2.0497 0.097 -0.994 0.056 92 69 35 0 0
0.0072 -0.4099 -2.0571 -0.177 -0.952 0.251 95 72 38 0 0
0.0079 -0.4086 -2.0641 -0.361 -0.624 0.693 95 72 38 0 0
0.0017 -0.4222 -2.0756 0.033 -0.882 0.470 106 85 50 0 0
-0.0025 -0.4315 -2.1026 -0.090 -0.927 0.365 94 72 33 0 0
-0.0436 -0.5215 -2.2138 -0.388 -0.847 0.364 116 93 52 0 0
-0.0443 -0.5230 -2.2183 -0.388 -0.847 0.364 115 92 50 0 0
-0.0509 -0.5374 -2.2339 -0.229 -0.812 0.537 115 94 53 0 0
-0.0547 -0.5458 -2.2494 0.010 -0.884 0.468 74 61 39 0 0
0.2127 0.0578 -1.0938 0.100 -0.993 0.066 182 185 186 0 0
0.2132 0.0588 -1.0992 0.195 -0.973 0.125 183 185 186 0 0
0.2116 0.0547 -1.1383 -0.041 -0.999 -0.007 184 186 188 0 0
0.0973 -0.1958 -1.4618 -0.243 -0.905 0.350 137 109 74 0 0
0.0792 -0.2357 -1.5330 -0.104 -0.966 0.237 138 109 62 0 0
0.0763 -0.2421 -1.5397 -0.213 -0.976 0.045 138 110 63 0 0
0.0725 -0.2510 -1.5820 0.362 -0.800 0.479 159 127 76 0 0
0.0665 -0.2639 -1.5792 -0.525 -0.759 0.385 165 135 84 0 0
0.0667 -0.2636 -1.5847 -0.342 -0.649 0.680 169 138 90 0 0
0.0227 -0.3584 -1.6128 -0.354 -0.830 0.431 97 75 40 0 0
0.0337 -0.3354 -1.6495 -0.155 -0.777 -0.609 91 71 38 0 0
0.0474 -0.3080 -1.7720 -0.388 -0.858 0.336 109 85 46 0 0
0.0462 -0.3107 -1.7756 0.011 -0.763 0.647 111 86 45 0 0
0.0431 -0.3173 -1.7819 -0.158 -0.870 0.466 90 69 34 0 0
0.0349 -0.3357 -1.8351 -0.220 -0.930 0.294 101 79 43 0 0
0.0333 -0.3396 -1.8491 -0.147 -0.984 0.103 101 78 44 0 0
0.0337 -0.3387 -1.8554 -0.394 -0.909 0.133 96 73 39 0 0
0.0191 -0.3718 -1.9658 -0.210 -0.821 0.530 99 76 42 0 0
0.0092 -0.3939 -2.0109 0.081 -0.560 0.825 93 69 37 0 0
0.0073 -0.3980 -2.0133 -0.060 -0.905 0.420 100 75 41 0 0
0.0034 -0.4067 -2.0407 -0.215 -0.963 0.165 90 69 34 0 0
0.0026 -0.4089 -2.0622 0.011 -0.956 0.294 93 70 37 0 0
-0.0006 -0.4158 -2.0737 -0.108 -0.940 0.324 85 64 31 0 0
-0.0012 -0.4173 -2.0783 -0.108 -0.940 0.324 89 66 34 0 0
-0.0014 -0.4178 -2.0837 -0.227 -0.937 0.266 136 113 72 0 0
-0.0164 -0.4509 -2.1365 -0.107 -0.842 0.529 100 77 36 0 0
-0.0492 -0.5224 -2.2171 -0.299 -0.885 0.356 117 93 52 0 0
-0.0499 -0.5242 -2.2214 -0.406 -0.905 0.127 115 90 48 0 0
-0.0553 -0.5359 -2.2336 -0.229 -0.812 0.537 120 99 57 0 0
-0.0563 -0.5381 -2.2374 -0.229 -0.812 0.537 111 92 47 0 0
-0.0613 -0.5490 -2.2564 0.039 -0.956 0.292 86 77 60 0 0
0.2077 0.0585 -1.0882 0.137 -0.979 0.153 184 184 183 0 0
0.2072 0.0573 -1.0928 0.100 -0.993 0.066 183 185 183 0 0
0.2066 0.0560 -1.1024 -0.071 -0.997 0.003 184 185 185 0 0
0.2064 0.0549 -1.1375 -0.041 -0.999 -0.007 186 186 187 0 0
0.0958 -0.1880 -1.4599 -0.495 -0.683 0.537 142 113 74 0 0
0.0917 -0.1968 -1.4602 -0.368 -0.845 0.388 131 104 66 0 0
0.0903 -0.1999 -1.4636 -0.384 -0.799 0.463 133 108 70 0 0
0.0838 -0.2142 -1.4816 -0.321 -0.771 0.550 117 91 54 0 0
0.0712 -0.2421 -1.5386 -0.305 -0.859 0.410 123 94 55 0 0
0.0640 -0.2581 -1.5711 -0.454 -0.656 0.603 145 113 64 0 0
0.0642 -0.2579 -1.5818 -0.377 -0.925 -0.045 159 127 75 0 0
0.0206 -0.3521 -1.6001 -0.487 -0.788 0.376 121 96 60 0 0
0.0404 -0.3113 -1.7298 -0.124 -0.899 0.419 103 80 42 0 0
0.0370 -0.3188 -1.7409 -0.676 -0.587 0.446 127 100 61 0 0
0.0386 -0.3160 -1.7815 -0.413 -0.746 0.523 84 63 27 0 0
0.0301 -0.3349 -1.8176 -0.007 -0.757 0.653 93 70 36 0 0
0.0276 -0.3406 -1.8413 0.036 -0.966 0.257 101 78 44 0 0
0.0168 -0.3647 -1.9015 0.011 -0.988 0.154 95 72 38 0 0
0.0016 -0.3995 -2.0337 0.069 -0.997 -0.021 86 66 31 0 0
-0.0053 -0.4148 -2.0730 0.049 -0.903 0.427 93 75 43 0 0
-0.0062 -0.4168 -2.0772 0.049 -0.903 0.427 99 76 44 0 0
-0.0066 -0.4177 -2.0822 -0.022 -0.893 0.449 119 96 53 0 0
-0.0070 -0.4188 -2.0871 -0.053 -0.989 0.135 127 104 61 0 0
-0.0414 -0.4945 -2.1949 -0.233 -0.851 0.471 123 98 57 0 0
-0.0445 -0.5012 -2.2003 -0.170 -0.877 0.448 121 96 56 0 0
-0.0572 -0.5289 -2.2329 -0.274 -0.886 0.373 125 102 60 0 0
-0.0598 -0.5345 -2.2332 -0.466 -0.791 0.397 123 100 58 0 0
-0.0642 -0.5442 -2.2475 -0.408 -0.762 0.504 99 83 51 0 0
-0.0652 -0.5465 -2.2512 -0.147 -0.888 0.437 97 83 59 0 0
0.2021 0.0579 -1.0872 0.137 -0.979 0.153 183 186 185 0 0
0.2017 0.0568 -1.0918 0.100 -0.993 0.066 184 186 184 0 0
0.1423 -0.0754 -1.3778 0.266 -0.504 0.822 121 100 73 0 0
0.1389 -0.0826 -1.3793 0.185 -0.504 0.844 117 96 69 0 0
0.1021 -0.1629 -1.4258 -0.251 -0.883 0.397 130 101 66 0 0
0.0913 -0.1866 -1.4544 0.221 -0.816 0.534 145 117 78 0 0
0.0733 -0.2260 -1.4945 -0.220 -0.803 0.553 141 111 72 0 0
0.0667 -0.2409 -1.5329 -0.513 -0.809 0.287 124 100 58 0 0
0.0177 -0.3475 -1.5967 -0.335 -0.843 0.422 149 121 87 0 0
-0.0121 -0.4184 -2.0799 0.049 -0.922 0.385 104 81 40 0 0
-0.0186 -0.4329 -2.1024 -0.096 -0.708 0.699 95 73 36 0 0
-0.0480 -0.4977 -2.2019 -0.425 -0.777 0.465 122 97 57 0 0
-0.0497 -0.5015 -2.2043 -0.334 -0.830 0.446 121 96 56 0 0
-0.0650 -0.5348 -2.2371 -0.190 -0.777 0.600 124 102 60 0 0
-0.0681 -0.5416 -2.2423 -0.147 -0.888 0.437 117 100 56 0 0
-0.0689 -0.5435 -2.2464 -0.147 -0.888 0.437 109 92 52 0 0
-0.0714 -0.5490 -2.2588 -0.111 -0.891 0.440 100 92 75 0 0
0.1969 0.0579 -1.0764 0.194 -0.980 0.048 128 119 106 0 0
0.0979 -0.1609 -1.4258 -0.447 -0.837 0.317 146 117 80 0 0
0.0893 -0.1797 -1.4416 -0.133 -0.766 0.629 153 125 86 0 0
0.0895 -0.1793 -1.4470 -0.029 -0.940 0.339 124 100 62 0 0
0.0888 -0.1809 -1.4514 -0.029 -0.940 0.339 130 107 69 0 0
0.0681 -0.2264 -1.4932 -0.438 -0.800 0.410 142 111 71 0 0
0.0605 -0.2432 -1.5304 -0.260 -0.925 0.279 115 93 48 0 0
0.0600 -0.2444 -1.5349 -0.260 -0.925 0.279 110 86 50 0 0
0.0595 -0.2456 -1.5395 -0.260 -0.925 0.279 103 77 48 0 0
0.0581 -0.2487 -1.5534 -0.458 -0.775 0.436 141 107 60 0 0
0.0576 -0.2499 -1.5580 -0.465 -0.742 0.483 140 109 58 0 0
0.0126 -0.3479 -1.6005 -0.176 -0.785 0.593 132 108 72 0 0
0.0308 -0.3100 -1.7336 -0.311 -0.759 0.572 104 86 46 0 0
0.0316 -0.3084 -1.7402 -0.526 -0.843 0.113 109 88 51 0 0
0.0326 -0.3064 -1.7526 -0.222 -0.957 -0.184 108 86 49 0 0
0.0314 -0.3091 -1.7562 -0.421 -0.906 -0.038 105 85 48 0 0
0.0147 -0.3464 -1.8508 -0.160 -0.818 0.553 93 70 36 0 0
0.0142 -0.3476 -1.8556 -0.002 -0.864 0.503 96 73 39 0 0
-0.0594 -0.5114 -2.2107 -0.431 -0.845 0.317 123 98 58 0 0
-0.0606 -0.5141 -2.2140 -0.320 -0.919 0.232 127 102 62 0 0
-0.0722 -0.5396 -2.2426 -0.288 -0.814 0.505 117 98 51 0 0
-0.0728 -0.5409 -2.2472 -0.369 -0.885 0.285 113 95 55 0 0
-0.0737 -0.5428 -2.2513 -0.256 -0.925 0.280 95 78 50 0 0
-0.0758 -0.5475 -2.2585 -0.197 -0.808 0.555 96 86 69 0 0
0.1911 0.0570 -1.0452 0.024 -0.994 0.111 111 99 80 0 0
0.1916 0.0568 -1.1820 -0.312 -0.769 0.558 92 76 47 0 0
0.1822 0.0359 -1.2145 0.086 -0.645 0.760 160 151 142 0 0
0.1803 0.0317 -1.2178 -0.496 -0.378 0.781 159 148 141 0 0
0.1557 -0.0219 -1.2456 0.661 -0.743 0.105 204 202 202 0 0
0.1187 -0.1040 -1.3872 0.143 -0.817 0.558 127 104 71 0 0
0.0622 -0.2280 -1.4912 -0.521 -0.842 0.144 132 103 64 0 0
0.0545 -0.2453 -1.5385 -0.410 -0.719 0.561 90 68 41 0 0
0.0499 -0.2555 -1.5587 -0.121 -0.410 0.904 141 109 59 0 0
0.0474 -0.2613 -1.5868 -0.118 -0.667 0.736 167 138 90 0 0
0.0374 -0.2830 -1.5889 0.172 -0.430 0.886 155 123 75 0 0
0.0030 -0.3581 -1.6135 -0.162 -0.824 0.542 101 77 44 0 0
0.0012 -0.3622 -1.6264 -0.239 -0.935 0.263 89 66 33 0 0
0.0102 -0.3451 -1.8505 -0.216 -0.817 0.534 93 71 34 0 0
0.0099 -0.3457 -1.8612 -0.627 -0.775 0.079 96 73 39 0 0
-0.0101 -0.3907 -1.9902 -0.380 -0.596 0.708 85 62 30 0 0
-0.0114 -0.3936 -1.9935 -0.444 -0.621 0.646 85 62 30 0 0
-0.0285 -0.4320 -2.1057 -0.013 -0.937 0.349 96 71 34 0 0
-0.0311 -0.4377 -2.1124 0.208 -0.728 0.654 98 74 36 0 0
-0.0324 -0.4404 -2.1158 0.178 -0.912 0.369 102 78 40 0 0
-0.0774 -0.5398 -2.2466 -0.404 -0.876 0.264 108 91 50 0 0
0.1822 0.0483 -1.1164 -0.167 -0.985 0.038 105 82 48 0 0
0.1140 -0.1029 -1.3816 -0.024 -0.703 0.711 103 83 51 0 0
0.1125 -0.1063 -1.3851 -0.024 -0.703 0.711 124 100 64 0 0
0.1111 -0.1092 -1.3888 -0.174 -0.742 0.647 127 103 70 0 0
0.0489 -0.2466 -1.5471 -0.722 -0.672 0.164 125 98 57 0 0
0.0367 -0.2737 -1.5884 -0.046 -0.156 0.987 146 110 66 0 0
0.0226 -0.3058 -1.7340 -0.288 -0.871 0.399 108 85 47 0 0
0.0173 -0.3177 -1.7804 -0.141 -0.804 0.577 85 62 28 0 0
0.0074 -0.3398 -1.8419 -0.369 -0.859 0.355 96 73 39 0 0
0.0042 -0.3470 -1.8588 -0.297 -0.945 0.136 95 73 37 0 0
0.0041 -0.3472 -1.8643 -0.153 -0.979 -0.131 92 70 34 0 0
0.0033 -0.3492 -1.8909 0.002 -0.995 0.100 94 71 38 0 0
-0.0114 -0.3822 -1.9900 -0.424 -0.850 0.313 86 63 31 0 0
-0.0128 -0.3856 -2.0102 -0.124 -0.898 0.422 86 65 34 0 0
-0.0182 -0.3975 -2.0233 -0.051 -0.621 0.782 97 73 40 0 0
-0.0199 -0.4012 -2.0376 0.004 -0.941 0.338 88 65 33 0 0
-0.0207 -0.4030 -2.0419 -0.316 -0.743 0.590 83 60 28 0 0
-0.0579 -0.4857 -2.1964 -0.435 -0.660 0.612 115 91 47 0 0
-0.0605 -0.4915 -2.2027 -0.493 -0.742 0.454 117 92 51 0 0
-0.0831 -0.5413 -2.2612 -0.441 -0.871 0.217 90 79 58 0 0
0.1875 0.0727 -0.9703 0.343 -0.768 0.541 181 178 173 0 0
0.1800 0.0553 -1.0781 0.122 -0.989 0.084 112 89 54 0 0
0.1797 0.0546 -1.0828 0.100 -0.987 0.125 109 86 48 0 0
0.1768 0.0481 -1.1054 -0.049 -0.996 0.081 103 79 42 0 0
0.1758 0.0459 -1.1096 0.061 -0.991 0.120 109 85 49 0 0
0.1757 0.0457 -1.1146 0.049 -0.995 0.089 107 84 50 0 0
0.1784 0.0514 -1.1219 -0.060 -0.988 0.143 82 59 25 0 0
0.1379 -0.0381 -1.2365 0.612 -0.763 0.207 136 111 73 0 0
0.1092 -0.1021 -1.3810 -0.024 -0.703 0.711 107 88 57 0 0
0.0856 -0.1541 -1.4056 -0.244 -0.644 0.725 146 116 75 0 0
0.0593 -0.2122 -1.4773 -0.754 -0.561 0.340 149 120 81 0 0
0.0239 -0.2906 -1.5870 0.340 -0.335 0.879 153 124 77 0 0
0.0199 -0.2992 -1.5867 -0.102 -0.094 0.990 131 104 62 0 0
0.0191 -0.3022 -1.7297 -0.032 -0.947 0.318 109 90 50 0 0
0.0182 -0.3042 -1.7338 -0.288 -0.871 0.399 109 89 50 0 0
0.0008 -0.3431 -1.8492 -0.207 -0.598 0.775 90 68 31 0 0
-0.0009 -0.3470 -1.8518 -0.558 -0.701 0.445 89 67 29 0 0
-0.0018 -0.3490 -1.8559 -0.576 -0.741 0.347 92 70 32 0 0
-0.0146 -0.3776 -1.9406 -0.351 -0.729 0.588 88 65 31 0 0
-0.0157 -0.3801 -1.9443 -0.351 -0.729 0.588 90 67 35 0 0
-0.0166 -0.3821 -1.9484 -0.300 -0.818 0.491 82 59 27 0 0
-0.0292 -0.4105 -2.0454 -0.033 -0.863 0.505 84 61 27 0 0
-0.0324 -0.4176 -2.0567 0.151 -0.948 0.279 96 73 41 0 0
-0.0512 -0.4594 -2.1482 -0.001 -0.882 0.471 102 78 41 0 0
-0.0783 -0.5193 -2.2156 -0.383 -0.857 0.345 126 101 60 0 0
-0.0791 -0.5212 -2.2197 -0.130 -0.906 0.402 125 100 59 0 0
-0.0812 -0.5257 -2.2331 -0.469 -0.789 0.397 126 104 61 0 0
0.1859 0.0807 -0.9577 0.252 -0.836 0.487 182 180 178 0 0
0.1843 0.0770 -0.9613 0.327 -0.773 0.544 176 170 161 0 0
0.1831 0.0744 -0.9653 0.351 -0.736 0.579 150 136 121 0 0
0.1753 0.0568 -1.0429 -0.103 -0.991 -0.082 98 77 44 0 0
0.1757 0.0575 -1.0481 0.087 -0.994 -0.067 109 88 50 0 0
0.1737 0.0532 -1.0515 0.147 -0.986 0.081 108 86 47 0 0
0.1733 0.0515 -1.1568 0.004 -0.972 0.235 98 76 39 0 0
0.1715 0.0477 -1.1603 -0.073 -0.973 0.218 95 72 37 0 0
0.1711 0.0467 -1.1650 -0.073 -0.973 0.218 101 79 44 0 0
0.1303 -0.0433 -1.2332 0.600 -0.773 0.204 148 118 78 0 0
0.0566 -0.2069 -1.4688 -0.850 -0.449 0.274 141 114 78 0 0
0.0549 -0.2107 -1.4771 -0.681 -0.602 0.416 158 126 89 0 0
0.0541 -0.2126 -1.4813 -0.681 -0.602 0.416 132 102 67 0 0
0.0538 -0.2132 -1.4861 -0.460 -0.541 0.705 129 99 62 0 0
0.0506 -0.2202 -1.4872 0.117 -0.720 0.685 117 87 49 0 0
0.0479 -0.2263 -1.4993 -0.342 -0.938 0.062 111 85 44 0 0
0.0441 -0.2348 -1.5205 -0.346 -0.750 0.565 112 84 42 0 0
0.0428 -0.2377 -1.5240 -0.466 -0.807 0.363 107 80 43 0 0
0.0421 -0.2392 -1.5283 -0.364 -0.882 0.299 109 82 43 0 0
0.0027 -0.3263 -1.5943 0.168 -0.572 0.803 159 131 83 0 0
0.0138 -0.3027 -1.7336 -0.288 -0.871 0.399 104 84 45 0 0
0.0034 -0.3260 -1.7994 0.239 -0.942 0.235 93 71 35 0 0
-0.0193 -0.3766 -1.9400 -0.100 -0.827 0.553 85 62 29 0 0
-0.0210 -0.3804 -1.9482 -0.300 -0.818 0.491 86 63 31 0 0
-0.0292 -0.3991 -2.0421 -0.376 -0.763 0.525 86 65 32 0 0
-0.0559 -0.4585 -2.1474 -0.285 -0.900 0.331 98 75 38 0 0
-0.0861 -0.5255 -2.2316 -0.413 -0.862 0.295 122 100 57 0 0
-0.0883 -0.5303 -2.2387 -0.179 -0.783 0.596 115 94 48 0 0
0.1796 0.0780 -0.9659 -0.824 -0.548 0.142 122 98 64 0 0
0.1691 0.0545 -1.0562 -0.151 -0.911 0.383 105 83 44 0 0
0.1683 0.0528 -1.0605 -0.151 -0.911 0.383 111 88 51 0 0
0.1679 0.0517 -1.0651 -0.169 -0.928 0.333 108 84 47 0 0
0.1292 -0.0343 -1.2211 0.490 -0.639 0.594 139 115 71 0 0
0.1281 -0.0368 -1.2251 0.279 -0.849 0.449 126 100 64 0 0
0.1247 -0.0444 -1.2319 0.365 -0.931 0.005 127 101 64 0 0
0.0623 -0.1830 -1.4345 -0.015 -0.895 0.446 167 136 92 0 0
0.0584 -0.1917 -1.4504 -0.149 -0.873 0.465 150 120 79 0 0
0.0545 -0.2003 -1.4663 -0.924 -0.347 0.160 143 112 74 0 0
0.0553 -0.1987 -1.4725 -0.701 -0.368 0.611 153 127 89 0 0
0.0546 -0.2002 -1.4769 -0.357 -0.327 0.875 104 79 47 0 0
0.0461 -0.2190 -1.4868 -0.144 -0.688 0.712 132 102 65 0 0
0.0455 -0.2203 -1.4913 -0.545 -0.765 0.343 123 94 55 0 0
0.0436 -0.2246 -1.4940 -0.241 -0.961 0.133 126 100 60 0 0
0.0395 -0.2338 -1.5148 -0.256 -0.914 0.315 116 89 45 0 0
-0.0029 -0.3276 -1.5922 0.010 -0.447 0.895 176 148 102 0 0
-0.0126 -0.3491 -1.6042 -0.355 -0.791 0.499 99 73 36 0 0
-0.0139 -0.3519 -1.6128 -0.286 -0.841 0.459 76 56 22 0 0
0.0089 -0.3021 -1.7327 -0.258 -0.809 0.528 109 88 49 0 0
0.0013 -0.3193 -1.8030 -0.155 -0.979 0.131 92 69 35 0 0
-0.0219 -0.3712 -1.9371 -0.312 -0.883 0.351 87 64 31 0 0
-0.0412 -0.4144 -2.0621 -0.012 -0.866 0.500 93 70 38 0 0
-0.0422 -0.4166 -2.0660 -0.012 -0.866 0.500 90 68 34 0 0
-0.0521 -0.4387 -2.1167 -0.359 -0.933 0.041 99 75 39 0 0
-0.0765 -0.4929 -2.2021 -0.256 -0.814 0.522 120 93 52 0 0
-0.0898 -0.5223 -2.2270 -0.059 -0.862 0.504 116 94 53 0 0
0.1637 0.0541 -1.0404 -0.424 -0.901 -0.091 107 84 46 0 0
0.1646 0.0559 -1.0510 -0.332 -0.918 0.219 106 84 46 0 0
0.1634 0.0534 -1.0600 -0.088 -0.898 0.431 83 60 26 0 0
0.1625 0.0514 -1.0643 -0.088 -0.898 0.431 89 66 31 0 0
0.1624 0.0510 -1.0691 -0.105 -0.934 0.340 96 73 37 0 0
0.1623 0.0508 -1.0740 -0.218 -0.974 0.054 97 74 37 0 0
0.1367 -0.0062 -1.2174 0.048 -0.580 0.813 158 130 81 0 0
0.1345 -0.0114 -1.3029 -0.949 -0.206 -0.238 165 163 160 0 0
0.0478 -0.2040 -1.4788 -0.081 -0.283 0.956 136 110 71 0 0
0.0407 -0.2197 -1.4854 0.213 -0.818 0.535 125 98 61 0 0
-0.0184 -0.3510 -1.6122 -0.026 -0.931 0.365 92 72 40 0 0
-0.0007 -0.3122 -1.7571 -0.321 -0.759 0.567 97 74 40 0 0
-0.0034 -0.3185 -1.8022 -0.155 -0.979 0.131 90 67 33 0 0
-0.0014 -0.3140 -1.8167 -0.418 -0.817 0.398 88 65 31 0 0
-0.0021 -0.3157 -1.8210 -0.418 -0.817 0.398 87 64 31 0 0
-0.0249 -0.3664 -1.9225 -0.209 -0.955 0.211 95 72 39 0 0
-0.0274 -0.3721 -1.9464 -0.464 -0.687 0.560 82 59 27 0 0
-0.0773 -0.4834 -2.1857 -0.213 -0.839 0.501 121 96 55 0 0
-0.0783 -0.4855 -2.1897 -0.213 -0.839 0.501 120 95 55 0 0
-0.0794 -0.4881 -2.1931 -0.174 -0.881 0.441 119 96 54 0 0
0.1599 0.0570 -1.0358 -0.550 -0.830 0.097 103 83 44 0 0
0.1595 0.0562 -1.0404 -0.424 -0.901 -0.091 91 70 34 0 0
0.1597 0.0567 -1.0456 -0.425 -0.905 -0.024 89 67 30 0 0
0.1599 0.0570 -1.0507 -0.467 -0.878 0.105 91 68 32 0 0
0.1597 0.0566 -1.0555 -0.332 -0.918 0.219 103 80 46 0 0
0.1593 0.0556 -1.0601 -0.332 -0.918 0.219 95 72 38 0 0
0.1586 0.0542 -1.0646 -0.232 -0.921 0.313 92 70 33 0 0
0.1580 0.0529 -1.0690 -0.232 -0.921 0.313 89 67 29 0 0
0.1576 0.0519 -1.0737 -0.218 -0.974 0.054 92 70 31 0 0
0.1309 -0.0077 -1.2159 0.114 -0.760 0.639 174 146 92 0 0
0.0691 -0.1454 -1.4062 -0.209 -0.972 0.108 165 131 81 0 0
0.0489 -0.1903 -1.4232 -0.458 -0.804 0.380 169 138 93 0 0
0.0501 -0.1875 -1.4351 -0.069 -0.949 0.309 164 134 89 0 0
0.0480 -0.1922 -1.4532 -0.488 -0.865 0.117 152 123 79 0 0
0.0474 -0.1936 -1.4576 -0.343 -0.896 0.283 166 137 96 0 0
0.0007 -0.2978 -1.6950 -0.568 -0.738 0.364 113 94 60 0 0
-0.0050 -0.3106 -1.7569 -0.168 -0.841 0.515 94 71 37 0 0
-0.0058 -0.3124 -1.7611 -0.127 -0.942 0.310 94 71 37 0 0
-0.0064 -0.3136 -1.7768 -0.287 -0.914 0.287 86 66 29 0 0
-0.0069 -0.3149 -1.7814 -0.287 -0.914 0.287 84 64 27 0 0
-0.0075 -0.3162 -1.8192 -0.261 -0.964 -0.058 86 63 30 0 0
-0.0081 -0.3175 -1.8239 -0.166 -0.898 0.408 83 60 28 0 0
-0.0121 -0.3264 -1.8228 -0.335 -0.817 0.470 82 59 28 0 0
-0.0818 -0.4820 -2.1853 -0.213 -0.839 0.501 120 94 56 0 0
-0.0915 -0.5036 -2.2001 -0.436 -0.862 0.259 122 97 54 0 0
-0.0921 -0.5048 -2.2049 -0.436 -0.862 0.259 129 104 60 0 0
-0.1017 -0.5263 -2.2314 -0.058 -0.920 0.388 109 88 48 0 0
-0.1107 -0.5463 -2.2531 -0.133 -0.802 0.582 91 80 66 0 0
0.1548 0.0572 -1.0351 -0.324 -0.940 -0.105 98 76 38 0 0
0.1543 0.0561 -1.0446 0.070 -0.995 0.066 98 76 39 0 0
0.1493 0.0449 -1.1053 -0.360 -0.932 0.029 102 77 46 0 0
0.1491 0.0445 -1.1101 -0.441 -0.863 0.249 103 79 45 0 0
0.1510 0.0488 -1.1371 -0.329 -0.801 0.500 108 86 52 0 0
0.1504 0.0475 -1.1417 -0.303 -0.871 0.387 106 83 49 0 0
0.0638 -0.1456 -1.4051 -0.007 -0.819 0.574 170 137 84 0 0
0.0467 -0.1840 -1.4205 -0.208 -0.911 0.356 174 143 95 0 0
0.0454 -0.1869 -1.4396 -0.274 -0.860 0.430 172 141 89 0 0
0.0445 -0.1887 -1.4438 -0.274 -0.860 0.430 189 159 104 0 0
-0.0061 -0.3017 -1.5898 0.158 -0.320 0.934 166 137 88 0 0
-0.0249 -0.3436 -1.6043 -0.299 -0.575 0.761 125 100 61 0 0
-0.0099 -0.3102 -1.7559 -0.330 -0.854 0.403 86 64 27 0 0
-0.0108 -0.3122 -1.7765 -0.259 -0.755 0.603 89 66 32 0 0
-0.0170 -0.3260 -1.8273 -0.210 -0.862 0.462 82 59 28 0 0
-0.0241 -0.3419 -1.8655 -0.179 -0.975 0.128 85 62 30 0 0
-0.0265 -0.3471 -1.8727 -0.134 -0.900 0.415 87 65 32 0 0
-0.0306 -0.3564 -1.8880 -0.091 -0.848 0.521 86 66 31 0 0
-0.0317 -0.3588 -1.8918 -0.230 -0.907 0.352 86 66 31 0 0
-0.0685 -0.4409 -2.1097 -0.556 -0.805 0.208 98 74 40 0 0
-0.0741 -0.4534 -2.1454 -0.483 -0.859 0.170 99 77 39 0 0
-0.0856 -0.4790 -2.1864 0.090 -0.817 0.569 118 95 54 0 0
-0.0957 -0.5016 -2.2004 -0.436 -0.862 0.259 125 101 57 0 0
-0.0968 -0.5040 -2.2039 -0.213 -0.859 0.466 131 107 63 0 0
-0.1152 -0.5451 -2.2525 -0.133 -0.802 0.582 90 79 63 0 0
0.1604 0.0813 -0.9205 -0.594 -0.802 -0.068 176 179 182 0 0
0.1606 0.0816 -0.9254 -0.587 -0.805 -0.086 179 180 180 0 0
0.1611 0.0827 -0.9306 -0.265 -0.963 0.048 166 157 141 0 0
0.1440 0.0448 -1.0694 -0.077 -0.993 0.088 114 91 52 0 0
0.1436 0.0438 -1.0990 -0.244 -0.955 0.170 97 74 42 0 0
0.1427 0.0419 -1.1033 -0.091 -0.965 0.247 102 79 47 0 0
0.1440 0.0447 -1.1094 -0.139 -0.813 0.566 101 77 43 0 0
0.1428 0.0421 -1.1134 -0.139 -0.813 0.566 101 77 43 0 0
0.0985 -0.0568 -1.2278 -0.285 -0.613 0.737 124 100 64 0 0
0.0426 -0.1817 -1.4207 -0.085 -0.774 0.627 172 141 96 0 0
0.0440 -0.1786 -1.4276 -0.004 -0.965 0.263 165 134 91 0 0
-0.0115 -0.3026 -1.5880 0.107 -0.203 0.973 141 115 71 0 0
-0.0307 -0.3452 -1.8728 -0.315 -0.879 0.358 82 59 27 0 0
-0.0597 -0.4099 -2.0422 -0.206 -0.921 0.331 84 61 29 0 0
-0.0843 -0.4647 -2.1627 -0.015 -0.924 0.381 114 91 50 0 0
-0.0899 -0.4772 -2.1864 -0.248 -0.911 0.330 112 89 48 0 0
-0.0908 -0.4794 -2.1903 -0.146 -0.921 0.361 110 87 46 0 0
-0.0998 -0.4994 -2.2007 -0.218 -0.971 0.101 123 99 55 0 0
-0.1004 -0.5007 -2.2055 -0.039 -0.976 0.213 127 103 59 0 0
-0.1175 -0.5390 -2.2569 -0.493 -0.653 0.575 89 76 60 0 0
0.1566 0.0842 -0.9207 -0.594 -0.802 -0.068 180 181 180 0 0
0.1370 0.0405 -1.0325 -0.069 -0.893 0.445 96 74 37 0 0
0.1386 0.0441 -1.0635 -0.258 -0.933 0.251 109 85 44 0 0
0.1318 0.0291 -1.1731 -0.377 -0.784 0.494 109 87 55 0 0
0.1307 0.0268 -1.1772 -0.550 -0.781 0.295 92 71 38 0 0
0.0316 -0.1952 -1.4380 -0.003 -0.877 0.481 166 134 90 0 0
0.0342 -0.1891 -1.4518 -0.290 -0.886 0.363 162 129 89 0 0
-0.0388 -0.3526 -1.6221 -0.247 -0.780 0.575 76 55 30 0 0
-0.0194 -0.3087 -1.7599 -0.436 -0.642 0.631 87 65 28 0 0
-0.0459 -0.3676 -1.9384 -0.129 -0.942 0.309 101 78 46 0 0
-0.0461 -0.3681 -1.9437 -0.205 -0.954 0.218 93 70 38 0 0
-0.0578 -0.3942 -2.0369 -0.382 -0.919 -0.100 81 60 28 0 0
-0.0743 -0.4311 -2.0977 -0.082 -0.894 0.440 86 64 29 0 0
-0.0755 -0.4338 -2.1012 -0.115 -0.929 0.352 87 66 32 0 0
-0.0762 -0.4353 -2.1056 -0.115 -0.929 0.352 91 70 35 0 0
-0.0769 -0.4369 -2.1100 -0.115 -0.929 0.352 96 74 40 0 0
-0.0885 -0.4628 -2.1569 -0.029 -0.883 0.469 104 80 42 0 0
-0.0946 -0.4764 -2.1855 -0.418 -0.790 0.449 106 83 42 0 0
-0.0955 -0.4784 -2.1896 -0.146 -0.921 0.361 110 87 46 0 0
-0.1049 -0.4996 -2.2048 -0.306 -0.907 0.289 127 103 59 0 0
-0.1057 -0.5012 -2.2092 -0.344 -0.892 0.294 129 105 61 0 0
-0.1048 -0.4992 -2.2171 -0.338 -0.819 0.463 130 106 62 0 0
0.1383 0.0546 -0.9538 0.194 -0.886 0.421 93 71 34 0 0
0.1258 0.0276 -1.1869 -0.150 -0.857 0.492 109 88 56 0 0
0.0767 -0.0830 -1.2292 0.310 -0.908 0.282 121 96 64 0 0
0.0367 -0.1724 -1.4135 0.084 -0.803 0.591 177 144 98 0 0
0.0331 -0.1804 -1.4142 0.017 -0.994 0.105 175 142 94 0 0
0.0299 -0.1876 -1.4412 0.051 -0.755 0.653 147 115 69 0 0
0.0220 -0.2054 -1.4519 -0.301 -0.867 0.398 137 109 73 0 0
0.0177 -0.2149 -1.4724 0.025 -0.806 0.591 114 87 46 0 0
0.0158 -0.2192 -1.4803 0.057 -0.876 0.479 107 83 49 0 0
-0.0314 -0.3251 -1.5921 0.150 -0.560 0.815 162 132 82 0 0
-0.0406 -0.3458 -1.6097 -0.226 -0.897 0.380 80 60 28 0 0
-0.0415 -0.3477 -1.6137 -0.242 -0.864 0.441 73 52 23 0 0
-0.0286 -0.3178 -1.8237 -0.207 -0.969 0.137 81 58 27 0 0
-0.0348 -0.3316 -1.8412 0.015 -0.884 0.468 76 53 22 0 0
-0.0409 -0.3453 -1.8699 -0.095 -0.698 0.710 81 58 29 0 0
-0.0392 -0.3413 -1.8842 -0.040 -0.710 0.703 81 59 29 0 0
-0.0406 -0.3444 -1.8875 -0.040 -0.710 0.703 82 60 29 0 0
-0.0483 -0.3618 -1.9303 -0.534 -0.782 0.321 86 64 32 0 0
-0.0489 -0.3631 -1.9349 -0.519 -0.725 0.453 96 74 42 0 0
-0.0497 -0.3647 -1.9393 -0.496 -0.849 0.181 105 82 51 0 0
-0.0505 -0.3665 -1.9435 -0.247 -0.905 0.346 87 64 33 0 0
-0.0501 -0.3656 -1.9556 -0.284 -0.860 0.423 84 62 31 0 0
-0.0594 -0.3865 -2.0014 -0.210 -0.963 0.172 82 62 28 0 0
-0.0658 -0.4006 -2.0472 -0.282 -0.835 0.472 84 61 30 0 0
-0.0667 -0.4026 -2.0513 -0.282 -0.835 0.472 83 60 29 0 0
-0.0702 -0.4105 -2.0560 -0.178 -0.960 0.218 89 66 34 0 0
-0.0711 -0.4125 -2.0600 -0.243 -0.890 0.385 87 64 32 0 0
-0.0802 -0.4329 -2.1003 -0.119 -0.900 0.418 84 64 29 0 0
-0.0966 -0.4695 -2.1667 -0.083 -0.847 0.525 117 94 52 0 0
-0.1111 -0.5019 -2.2127 -0.141 -0.892 0.429 126 101 60 0 0
-0.1227 -0.5279 -2.2586 -0.542 -0.783 0.305 98 83 56 0 0
0.1262 0.0392 -1.0256 -0.194 -0.948 0.254 96 73 40 0 0
0.1279 0.0433 -1.0616 0.008 -0.999 0.034 112 88 47 0 0
0.1278 0.0431 -1.0764 0.088 -0.993 0.082 120 93 57 0 0
0.1172 0.0200 -1.2083 -0.587 -0.627 0.512 137 118 78 0 0
0.0837 -0.0558 -1.2307 0.231 -0.721 0.654 137 111 73 0 0
0.0325 -0.1706 -1.4083 0.174 -0.878 0.446 186 154 105 0 0
0.0172 -0.2049 -1.4563 -0.209 -0.767 0.606 129 101 61 0 0
0.0160 -0.2075 -1.4600 -0.059 -0.881 0.469 138 110 71 0 0
0.0129 -0.2145 -1.4715 0.025 -0.806 0.591 110 80 40 0 0
0.0116 -0.2173 -1.4751 0.040 -0.904 0.425 116 89 57 0 0
-0.0453 -0.3452 -1.6090 -0.336 -0.849 0.409 95 77 43 0 0
-0.0462 -0.3473 -1.6128 -0.478 -0.778 0.408 83 62 32 0 0
-0.0543 -0.3636 -1.9387 -0.311 -0.816 0.488 99 78 47 0 0
-0.0549 -0.3651 -1.9431 -0.247 -0.905 0.346 89 68 37 0 0
-0.0560 -0.3674 -1.9469 -0.256 -0.946 0.199 94 74 41 0 0
-0.0597 -0.3757 -1.9630 -0.253 -0.765 0.592 85 65 31 0 0
-0.0748 -0.4095 -2.0553 -0.178 -0.960 0.218 92 69 37 0 0
-0.1176 -0.5051 -2.2257 -0.555 -0.727 0.404 114 91 50 0 0
-0.1275 -0.5276 -2.2332 -0.350 -0.839 0.418 120 98 58 0 0
0.1221 0.0415 -1.0306 0.054 -0.955 0.291 119 93 52 0 0
0.1218 0.0412 -1.0749 0.181 -0.982 0.056 61 36 11 0 0
0.1218 0.0411 -1.0799 0.054 -0.998 0.025 59 37 14 0 0
0.1209 0.0397 -1.1597 -0.089 -0.924 0.371 116 91 51 0 0
0.1194 0.0363 -1.1685 -0.089 -0.924 0.371 124 98 59 0 0
0.1187 0.0349 -1.1730 -0.002 -0.886 0.463 112 88 52 0 0
0.0836 -0.0443 -1.2249 -0.027 -0.218 0.976 136 106 69 0 0
0.0801 -0.0524 -1.2263 -0.054 -0.303 0.951 129 101 61 0 0
0.0760 -0.0612 -1.2730 0.331 -0.917 -0.223 75 58 34 0 0
0.0308 -0.1630 -1.3907 -0.535 -0.656 0.532 164 136 87 0 0
0.0291 -0.1668 -1.3990 -0.302 -0.819 0.489 180 151 103 0 0
0.0256 -0.1747 -1.4101 -0.288 -0.772 0.566 168 135 94 0 0
0.0246 -0.1770 -1.4140 -0.339 -0.797 0.500 188 155 111 0 0
0.0136 -0.2017 -1.4519 -0.126 -0.885 0.449 135 106 67 0 0
0.0110 -0.2075 -1.4590 -0.364 -0.885 0.292 139 111 72 0 0
0.0037 -0.2237 -1.5224 0.261 -0.960 0.101 94 71 29 0 0
0.0034 -0.2242 -1.5273 0.261 -0.960 0.101 103 78 40 0 0
0.0031 -0.2248 -1.5322 0.261 -0.960 0.101 107 82 43 0 0
0.0012 -0.2290 -1.5455 0.592 -0.665 0.456 91 67 33 0 0
-0.0408 -0.3240 -1.5904 -0.077 -0.330 0.941 167 137 87 0 0
-0.0436 -0.3304 -1.5915 0.035 -0.525 0.851 184 154 106 0 0
-0.0501 -0.3450 -1.6079 -0.225 -0.921 0.319 87 65 32 0 0
-0.0496 -0.3440 -1.6138 -0.332 -0.737 0.590 80 59 29 0 0
-0.0324 -0.3037 -1.7595 -0.441 -0.853 0.278 92 72 34 0 0
-0.0384 -0.3170 -1.7883 -0.566 -0.763 0.313 86 66 33 0 0
-0.0395 -0.3194 -1.8254 -0.159 -0.768 0.621 78 55 24 0 0
-0.0439 -0.3292 -1.8403 -0.094 -0.837 0.539 89 66 35 0 0
-0.0572 -0.3587 -1.9298 -0.177 -0.891 0.418 102 82 49 0 0
-0.0599 -0.3648 -1.9476 -0.454 -0.775 0.440 93 73 40 0 0
-0.0647 -0.3754 -1.9732 -0.175 -0.898 0.403 87 67 34 0 0
-0.0706 -0.3886 -2.0139 -0.265 -0.938 0.222 94 71 41 0 0
-0.0794 -0.4081 -2.0549 -0.169 -0.965 0.203 91 68 36 0 0
-0.0799 -0.4092 -2.0597 -0.371 -0.852 0.370 89 66 34 0 0
-0.0878 -0.4270 -2.0965 -0.119 -0.759 0.640 82 62 25 0 0
-0.0940 -0.4408 -2.1192 -0.411 -0.886 0.213 96 74 37 0 0
-0.0968 -0.4471 -2.1251 -0.544 -0.776 0.319 92 70 33 0 0
-0.1027 -0.4605 -2.1540 -0.222 -0.688 0.691 97 73 35 0 0
-0.1043 -0.4640 -2.1567 -0.198 -0.839 0.507 107 84 43 0 0
-0.1146 -0.4870 -2.1999 -0.322 -0.946 0.041 125 98 55 0 0
-0.1169 -0.4922 -2.2008 -0.301 -0.798 0.521 122 98 55 0 0
-0.1179 -0.4946 -2.2044 -0.141 -0.754 0.641 125 101 57 0 0
-0.1175 -0.4936 -2.2173 -0.322 -0.783 0.532 117 93 51 0 0
-0.1207 -0.5008 -2.2222 -0.208 -0.797 0.567 118 95 54 0 0
-0.1318 -0.5258 -2.2332 -0.350 -0.839 0.418 116 94 51 0 0
0.1237 0.0559 -0.9281 0.228 -0.618 0.752 159 129 83 0 0
0.1159 0.0396 -1.0785 0.164 -0.986 0.035 39 25 11 0 0
0.1155 0.0394 -1.1639 -0.349 -0.882 0.318 124 98 56 0 0
0.1136 0.0351 -1.1722 -0.334 -0.809 0.484 125 99 52 0 0
0.0783 -0.0450 -1.2237 0.236 -0.413 0.879 124 95 53 0 0
0.0687 -0.0663 -1.2697 -0.475 -0.759 -0.446 75 59 33 0 0
0.0547 -0.0974 -1.3570 -0.053 -0.496 0.867 110 91 59 0 0
0.0455 -0.1182 -1.3670 -0.311 -0.642 0.701 117 90 49 0 0
0.0250 -0.1647 -1.3991 -0.384 -0.817 0.430 178 150 102 0 0
0.0213 -0.1730 -1.4100 -0.168 -0.798 0.578 160 128 89 0 0
0.0201 -0.1758 -1.4137 -0.155 -0.857 0.491 188 156 114 0 0
0.0194 -0.1774 -1.4180 -0.202 -0.921 0.333 181 150 104 0 0
0.0177 -0.1811 -1.4314 -0.020 -0.961 0.275 157 124 80 0 0
-0.0067 -0.2357 -1.5455 0.397 -0.766 0.505 93 69 32 0 0
-0.0453 -0.3232 -1.5898 -0.216 -0.391 0.895 179 149 99 0 0
-0.0483 -0.3299 -1.5906 -0.172 -0.483 0.858 192 162 114 0 0
-0.0487 -0.3287 -1.8393 -0.298 -0.866 0.402 83 60 29 0 0
-0.0491 -0.3295 -1.8442 -0.185 -0.928 0.324 82 59 28 0 0
-0.0618 -0.3577 -1.9292 -0.287 -0.891 0.353 98 78 44 0 0
-0.0623 -0.3588 -1.9339 -0.287 -0.807 0.517 96 76 44 0 0
-0.0632 -0.3608 -1.9380 -0.232 -0.818 0.526 88 67 36 0 0
-0.0697 -0.3753 -1.9660 -0.211 -0.765 0.608 86 65 34 0 0
-0.0685 -0.3724 -1.9741 -0.360 -0.899 0.248 87 66 35 0 0
-0.0718 -0.3799 -1.9851 -0.484 -0.816 0.317 83 62 32 0 0
-0.0751 -0.3872 -2.0135 -0.265 -0.938 0.222 95 73 40 0 0
-0.0826 -0.4039 -2.0628 -0.259 -0.920 0.293 87 64 32 0 0
-0.1062 -0.4567 -2.1499 -0.349 -0.793 0.500 100 76 40 0 0
-0.1199 -0.4875 -2.2096 -0.512 -0.793 0.329 122 98 54 0 0
-0.1217 -0.4916 -2.2175 -0.476 -0.658 0.583 116 93 50 0 0
-0.1226 -0.4935 -2.2217 -0.415 -0.580 0.701 116 93 51 0 0
0.1449 0.1158 -0.9082 0.432 -0.240 0.869 178 181 179 0 0
0.1189 0.0565 -0.9325 -0.052 -0.936 0.348 185 159 109 0 0
0.1185 0.0557 -0.9370 0.001 -0.991 0.131 139 116 74 0 0
0.1167 0.0516 -0.9501 0.091 -0.943 0.320 94 74 41 0 0
0.1162 0.0506 -0.9594 -0.080 -0.983 0.164 102 80 39 0 0
0.1118 0.0411 -0.9997 0.010 -0.990 0.138 105 85 50 0 0
0.1166 0.0526 -1.0480 -0.598 -0.793 -0.114 60 38 15 0 0
0.0514 -0.0944 -1.2405 0.359 -0.910 0.209 169 143 100 0 0
0.0572 -0.0806 -1.3079 -0.392 -0.917 0.068 129 112 87 0 0
0.0348 -0.1311 -1.3748 0.077 -0.860 0.504 135 112 74 0 0
0.0225 -0.1590 -1.3909 -0.434 -0.807 0.400 188 160 118 0 0
0.0208 -0.1628 -1.3991 -0.384 -0.817 0.430 171 142 93 0 0
0.0172 -0.1709 -1.4102 -0.309 -0.734 0.604 155 124 79 0 0
0.0157 -0.1744 -1.4134 -0.270 -0.859 0.434 196 166 118 0 0
0.0148 -0.1762 -1.4176 -0.202 -0.921 0.333 188 157 110 0 0
0.0138 -0.1785 -1.4215 -0.099 -0.872 0.480 159 126 84 0 0
-0.0094 -0.2303 -1.5372 0.348 -0.935 0.060 86 62 25 0 0
-0.0223 -0.2596 -1.5717 0.222 -0.891 0.397 111 87 44 0 0
-0.0526 -0.3286 -1.5903 -0.086 -0.603 0.793 184 157 106 0 0
-0.0560 -0.3364 -1.5956 -0.301 -0.903 0.305 198 170 123 0 0
-0.0695 -0.3634 -1.9458 -0.114 -0.903 0.415 92 73 40 0 0
-0.0703 -0.3652 -1.9500 -0.114 -0.903 0.415 88 69 36 0 0
-0.0713 -0.3676 -1.9538 -0.242 -0.965 0.097 88 69 36 0 0
-0.0716 -0.3681 -1.9648 -0.066 -0.973 0.219 83 62 31 0 0
-0.0900 -0.4092 -2.0509 0.196 -0.850 0.489 84 61 29 0 0
-0.0871 -0.4026 -2.0624 -0.259 -0.920 0.293 85 62 30 0 0
-0.0994 -0.4302 -2.1079 -0.096 -0.920 0.380 91 69 32 0 0
-0.0987 -0.4284 -2.1155 -0.261 -0.870 0.417 93 71 33 0 0
-0.1218 -0.4805 -2.1790 0.117 -0.889 0.442 111 88 47 0 0
-0.1253 -0.4884 -2.2010 -0.274 -0.919 0.285 122 99 56 0 0
-0.1401 -0.5218 -2.2336 -0.312 -0.830 0.463 124 102 61 0 0
0.1179 0.0657 -0.9109 0.452 -0.562 0.693 108 91 56 0 0
0.1115 0.0525 -1.0324 -0.323 -0.946 -0.031 59 36 9 0 0
0.1129 0.0559 -1.0485 -0.545 -0.823 -0.160 52 33 11 0 0
0.0917 0.0091 -1.2104 0.178 -0.804 0.568 158 131 91 0 0
0.0586 -0.0665 -1.2273 0.226 -0.286 0.931 138 111 74 0 0
0.0623 -0.0572 -1.2925 -0.320 -0.643 0.696 74 57 33 0 0
0.0345 -0.1201 -1.3640 0.293 -0.645 0.705 135 111 70 0 0
0.0314 -0.1273 -1.3706 -0.156 -0.802 0.577 135 114 80 0 0
0.0303 -0.1299 -1.3744 -0.156 -0.802 0.577 157 133 96 0 0
0.0200 -0.1531 -1.3930 -0.391 -0.703 0.595 198 170 132 0 0
0.0130 -0.1691 -1.4102 -0.309 -0.734 0.604 161 130 80 0 0
0.0113 -0.1728 -1.4133 -0.378 -0.803 0.460 192 163 110 0 0
