ply
format ascii 1.0
element vertex 854
property float x
property float y
property float z
property float nx
property float ny
property float nz
property uchar diffuse_red
property uchar diffuse_green
property uchar diffuse_blue
property uchar class
property uchar detection
end_header
0.1918 -0.0900 -1.4261 0.841 -0.304 0.449 117 92 55 0 0
0.2050 -0.0976 -1.4804 0.471 -0.443 0.763 77 54 28 0 0
0.2374 -0.1143 -1.5390 0.761 -0.602 0.243 60 39 14 0 0
0.2384 -0.1148 -1.5436 0.761 -0.602 0.243 58 40 15 0 0
0.2413 -0.1163 -1.5471 0.805 -0.466 0.368 55 37 16 0 0
0.2428 -0.1171 -1.5513 0.583 -0.622 0.522 54 36 16 0 0
0.2572 -0.1243 -1.5684 0.940 -0.101 0.326 68 49 22 0 0
0.3152 -0.1524 -1.6038 0.430 -0.185 0.884 190 159 107 0 0
0.3261 -0.1577 -1.6121 0.593 0.178 0.785 183 160 118 0 0
0.3312 -0.1602 -1.6139 0.746 -0.120 0.655 157 131 95 0 0
0.3392 -0.1641 -1.6189 0.887 -0.302 0.348 87 64 36 0 0
0.3198 -0.1562 -1.6691 0.612 -0.542 -0.576 115 92 58 0 0
0.3108 -0.1522 -1.6807 0.678 -0.481 -0.556 102 79 47 0 0
0.3048 -0.1497 -1.6902 0.678 -0.481 -0.556 86 68 38 0 0
0.3169 -0.1582 -1.8061 0.958 -0.278 0.062 69 41 17 0 0
0.3304 -0.1660 -1.8620 0.977 -0.197 0.078 67 41 18 0 0
0.3320 -0.1669 -1.8719 0.815 -0.282 0.506 65 38 17 0 0
0.3357 -0.1690 -1.8858 0.866 -0.186 0.463 60 35 13 0 0
0.3369 -0.1701 -1.9071 0.770 -0.444 0.458 61 34 13 0 0
0.3909 -0.1997 -2.0781 0.793 -0.514 0.328 88 68 34 0 0
0.3923 -0.2005 -2.0827 0.793 -0.514 0.328 93 72 30 0 0
0.4032 -0.2061 -2.1018 0.900 -0.404 0.165 75 53 20 0 0
0.4629 -0.2368 -2.2096 0.710 -0.583 0.395 105 81 36 0 0
-0.0527 0.0325 -0.9079 0.095 -0.754 0.650 104 84 58 0 0
-0.0376 0.0232 -0.9948 0.648 -0.509 -0.567 53 34 10 0 0
-0.0432 0.0257 -1.0017 0.867 -0.029 -0.497 47 30 10 0 0
-0.0860 0.0443 -1.0574 0.891 -0.240 -0.386 57 37 15 0 0
-0.0851 0.0438 -1.0621 0.977 -0.054 -0.205 58 38 16 0 0
-0.0904 0.0461 -1.0691 0.934 -0.297 -0.197 56 37 15 0 0
-0.0489 0.0239 -1.1744 0.822 -0.246 0.513 72 62 49 0 0
0.1050 -0.0504 -1.2669 0.417 -0.883 -0.218 61 42 16 0 0
0.0996 -0.0486 -1.2949 0.761 -0.526 0.380 34 19 5 0 0
0.1012 -0.0495 -1.2992 0.735 -0.440 0.515 51 35 17 0 0
0.1225 -0.0611 -1.3650 0.849 -0.239 0.471 140 118 89 0 0
0.1269 -0.0632 -1.3679 0.720 -0.188 0.667 157 131 101 0 0
0.1453 -0.0723 -1.3837 0.667 -0.602 0.439 212 182 123 0 0
0.1463 -0.0729 -1.3883 0.715 -0.580 0.392 183 151 96 0 0
0.1517 -0.0754 -1.3906 0.654 -0.515 0.554 204 172 118 0 0
0.2332 -0.1173 -1.5351 0.743 -0.644 0.183 101 81 55 0 0
0.2345 -0.1180 -1.5395 0.799 -0.496 0.340 52 32 8 0 0
0.2359 -0.1188 -1.5438 0.799 -0.496 0.340 53 35 11 0 0
0.2604 -0.1313 -1.5860 0.634 -0.431 0.642 80 61 36 0 0
0.3302 -0.1647 -1.6132 0.814 -0.271 0.514 154 129 93 0 0
0.3372 -0.1681 -1.6189 0.820 -0.320 0.474 80 58 30 0 0
0.3107 -0.1572 -1.6793 0.786 -0.280 -0.552 98 76 44 0 0
0.3050 -0.1548 -1.6885 0.786 -0.280 -0.552 87 68 38 0 0
0.3055 -0.1569 -1.7637 0.832 -0.451 0.324 62 43 24 0 0
0.3098 -0.1593 -1.7769 0.786 -0.437 0.436 64 43 17 0 0
0.3131 -0.1610 -1.7854 0.823 -0.322 0.469 81 63 30 0 0
0.3294 -0.1706 -1.8612 0.977 -0.197 0.078 66 40 16 0 0
0.3308 -0.1714 -1.8656 0.962 -0.228 0.151 66 40 18 0 0
0.3301 -0.1712 -1.8717 0.858 -0.356 0.371 65 38 17 0 0
0.3316 -0.1720 -1.8761 0.858 -0.356 0.371 63 36 15 0 0
0.3778 -0.1975 -2.0301 0.892 -0.450 -0.045 100 73 35 0 0
0.3848 -0.2013 -2.0470 0.876 -0.230 0.425 75 50 20 0 0
0.3824 -0.2006 -2.0664 0.812 -0.343 0.472 75 49 19 0 0
0.3843 -0.2018 -2.0763 0.899 -0.288 0.328 82 59 28 0 0
0.4711 -0.2460 -2.2172 0.870 -0.243 0.430 104 80 36 0 0
0.5657 -0.2913 -2.2562 0.751 -0.396 0.528 212 212 214 0 0
-0.0449 0.0213 -1.0015 0.885 -0.201 -0.421 46 29 9 0 0
-0.0460 0.0217 -1.0068 0.957 0.209 -0.201 56 37 14 0 0
-0.0807 0.0369 -1.0445 0.932 -0.063 -0.356 60 42 18 0 0
-0.0829 0.0377 -1.0503 0.932 -0.063 -0.356 56 38 16 0 0
-0.0918 0.0414 -1.0688 0.934 -0.297 -0.197 52 35 13 0 0
-0.0627 0.0264 -1.1231 0.896 -0.442 -0.048 19 15 13 0 0
-0.0681 0.0286 -1.1355 0.975 -0.081 0.205 10 6 5 0 0
-0.0499 0.0191 -1.1739 0.785 -0.397 0.475 86 76 58 0 0
-0.0482 0.0182 -1.1783 0.795 -0.504 0.339 118 107 90 0 0
0.0986 -0.0526 -1.2690 0.475 -0.849 -0.232 61 42 17 0 0
0.1423 -0.0760 -1.3842 0.667 -0.602 0.439 179 148 90 0 0
0.1635 -0.0864 -1.4035 0.748 -0.397 0.531 222 192 144 0 0
0.1843 -0.0966 -1.4227 0.723 -0.376 0.580 136 109 71 0 0
0.2362 -0.1241 -1.5475 0.705 -0.514 0.489 60 41 20 0 0
0.3265 -0.1678 -1.6091 0.799 -0.167 0.578 171 146 105 0 0
0.3293 -0.1692 -1.6124 0.835 -0.341 0.432 161 135 99 0 0
0.3310 -0.1701 -1.6165 0.835 -0.341 0.432 103 79 44 0 0
0.3326 -0.1709 -1.6206 0.796 -0.440 0.417 81 59 30 0 0
0.3112 -0.1625 -1.6774 0.698 -0.359 -0.620 90 68 36 0 0
0.3045 -0.1618 -1.7738 0.818 -0.526 0.233 57 36 14 0 0
0.3055 -0.1624 -1.7786 0.818 -0.526 0.233 67 47 19 0 0
0.3088 -0.1643 -1.7925 0.903 -0.422 0.082 78 57 29 0 0
0.3231 -0.1724 -1.8478 0.281 -0.739 0.613 66 40 15 0 0
0.3253 -0.1735 -1.8516 0.370 -0.844 0.388 65 39 14 0 0
0.3286 -0.1756 -1.8712 0.861 -0.441 0.254 66 39 18 0 0
0.3363 -0.1799 -1.8986 0.841 -0.341 0.419 64 36 15 0 0
0.3385 -0.1810 -1.9025 0.859 -0.351 0.373 64 36 15 0 0
0.4053 -0.2180 -2.1251 0.780 -0.298 0.550 77 52 24 0 0
0.4462 -0.2386 -2.1804 0.802 -0.258 0.539 81 57 19 0 0
0.4675 -0.2493 -2.2127 0.858 -0.239 0.454 110 85 44 0 0
0.4695 -0.2504 -2.2166 0.870 -0.243 0.430 105 81 37 0 0
0.4738 -0.2526 -2.2241 0.789 -0.527 0.317 106 82 39 0 0
0.4818 -0.2567 -2.2398 0.680 -0.519 0.518 103 81 39 0 0
0.4839 -0.2578 -2.2437 0.680 -0.519 0.518 107 87 41 0 0
0.5654 -0.2961 -2.2544 0.879 -0.178 0.443 212 212 214 0 0
-0.0369 0.0128 -0.9880 0.478 -0.760 -0.441 109 92 64 0 0
-0.0419 0.0149 -0.9947 0.549 -0.659 -0.514 75 58 32 0 0
-0.0932 0.0364 -1.0836 0.995 -0.008 -0.097 35 23 9 0 0
-0.0919 0.0356 -1.0881 0.978 0.058 0.200 30 20 9 0 0
0.0931 -0.0552 -1.2706 0.475 -0.849 -0.232 56 36 13 0 0
0.1613 -0.0905 -1.4035 0.748 -0.397 0.531 171 140 101 0 0
0.1827 -0.1009 -1.4224 0.666 -0.541 0.513 134 107 68 0 0
0.3260 -0.1725 -1.6080 0.835 -0.333 0.438 164 133 94 0 0
0.3278 -0.1734 -1.6120 0.705 -0.381 0.598 143 114 77 0 0
0.3320 -0.1756 -1.6195 0.781 -0.398 0.481 66 43 19 0 0
0.3366 -0.1782 -1.6373 0.852 -0.504 0.142 62 40 19 0 0
0.3093 -0.1666 -1.6773 0.743 -0.239 -0.625 84 63 30 0 0
0.2885 -0.1589 -1.7512 0.755 -0.374 0.538 88 68 43 0 0
0.3073 -0.1690 -1.8030 0.898 0.039 0.438 69 43 18 0 0
0.3359 -0.1850 -1.9028 0.842 -0.412 0.348 64 39 16 0 0
0.3374 -0.1858 -1.9072 0.842 -0.412 0.348 67 41 18 0 0
0.3387 -0.1865 -1.9118 0.769 -0.554 0.320 68 42 19 0 0
0.3832 -0.2106 -2.0389 0.855 -0.317 0.411 72 47 17 0 0
0.3849 -0.2128 -2.0893 0.649 -0.588 0.483 127 105 57 0 0
0.3937 -0.2171 -2.0988 0.826 -0.201 0.527 77 52 22 0 0
0.4453 -0.2432 -2.1792 0.838 -0.242 0.489 84 60 21 0 0
0.4693 -0.2555 -2.2206 0.865 -0.416 0.279 103 79 35 0 0
0.4712 -0.2566 -2.2306 0.914 -0.248 0.322 99 74 31 0 0
0.4785 -0.2602 -2.2351 0.629 -0.592 0.503 111 88 47 0 0
0.5655 -0.3010 -2.2522 0.885 -0.349 0.309 211 211 213 0 0
-0.0946 0.0316 -1.0883 0.936 0.248 0.248 37 27 13 0 0
-0.0685 0.0177 -1.1542 0.806 -0.447 0.389 22 16 7 0 0
-0.0669 0.0168 -1.1586 0.806 -0.447 0.389 58 48 34 0 0
-0.0652 0.0159 -1.1631 0.806 -0.447 0.389 52 41 28 0 0
-0.0535 0.0101 -1.1786 0.672 -0.538 0.509 80 65 35 0 0
-0.0513 0.0090 -1.1828 0.657 -0.545 0.522 75 62 38 0 0
-0.0444 0.0056 -1.1901 0.800 -0.060 0.597 120 95 55 0 0
0.1102 -0.0672 -1.2313 0.778 -0.403 0.481 165 137 96 0 0
0.1091 -0.0668 -1.2368 0.877 -0.477 -0.063 85 57 25 0 0
0.0868 -0.0583 -1.3031 0.747 -0.433 0.504 60 44 25 0 0
0.0931 -0.0619 -1.3255 0.726 -0.688 0.010 39 30 20 0 0
0.3140 -0.1718 -1.6042 0.496 -0.018 0.868 158 127 79 0 0
0.3235 -0.1763 -1.6083 0.970 -0.069 0.232 166 136 96 0 0
0.2829 -0.1610 -1.7374 0.661 -0.498 0.561 57 39 24 0 0
0.2861 -0.1630 -1.7568 0.828 -0.483 0.283 51 30 11 0 0
0.2875 -0.1638 -1.7613 0.856 -0.361 0.371 59 40 23 0 0
0.3043 -0.1738 -1.8423 0.720 -0.277 0.637 69 41 18 0 0
0.3213 -0.1824 -1.8680 0.840 -0.541 0.036 66 40 18 0 0
0.3271 -0.1860 -1.9025 0.923 -0.352 0.156 65 41 15 0 0
0.3279 -0.1865 -1.9075 0.873 -0.486 0.046 66 42 16 0 0
0.3433 -0.1952 -1.9627 0.690 -0.701 0.178 72 46 23 0 0
0.3601 -0.2044 -2.0169 0.436 -0.623 0.649 90 67 32 0 0
0.3877 -0.2194 -2.0965 0.733 -0.429 0.528 78 57 23 0 0
0.4010 -0.2262 -2.1193 0.842 -0.480 0.245 78 55 24 0 0
0.4105 -0.2312 -2.1397 0.780 -0.298 0.550 77 54 23 0 0
0.4124 -0.2322 -2.1438 0.807 -0.327 0.492 70 48 16 0 0
0.4144 -0.2332 -2.1478 0.807 -0.327 0.492 66 46 13 0 0
0.4169 -0.2345 -2.1513 0.877 -0.319 0.360 63 43 10 0 0
0.4447 -0.2485 -2.1954 0.886 -0.348 0.306 88 64 26 0 0
0.4698 -0.2611 -2.2299 0.867 -0.313 0.387 103 79 36 0 0
0.4750 -0.2637 -2.2365 0.613 -0.423 0.667 113 90 49 0 0
0.4772 -0.2648 -2.2403 0.648 -0.519 0.557 106 86 45 0 0
0.5636 -0.3051 -2.2520 0.847 -0.464 0.260 211 211 213 0 0
-0.0669 0.0151 -1.0318 0.880 -0.322 -0.348 65 46 20 0 0
-0.0689 0.0158 -1.0375 0.880 -0.322 -0.348 60 43 18 0 0
-0.0946 0.0262 -1.0925 0.903 -0.320 0.288 33 25 12 0 0
-0.0817 0.0189 -1.1382 0.956 -0.257 0.141 20 16 11 0 0
-0.0654 0.0107 -1.1622 0.827 -0.457 0.327 57 43 25 0 0
-0.0271 -0.0082 -1.2072 0.681 -0.481 0.553 64 46 19 0 0
0.0764 -0.0565 -1.2261 0.288 -0.243 0.926 126 98 61 0 0
0.0862 -0.0636 -1.3176 0.818 -0.554 -0.152 76 61 40 0 0
0.0881 -0.0649 -1.3320 0.647 -0.759 0.078 35 25 15 0 0
0.1495 -0.0952 -1.4025 0.763 -0.259 0.593 100 76 49 0 0
0.2317 -0.1374 -1.5568 0.798 -0.259 0.544 64 45 21 0 0
0.2367 -0.1401 -1.5694 0.565 -0.680 0.468 107 86 55 0 0
0.2441 -0.1440 -1.5857 0.835 -0.245 0.493 79 59 34 0 0
0.3110 -0.1754 -1.6048 0.245 -0.339 0.909 161 131 86 0 0
0.3164 -0.1779 -1.6064 0.369 -0.447 0.815 160 131 91 0 0
0.2829 -0.1666 -1.7521 0.900 -0.407 0.159 85 66 42 0 0
0.2840 -0.1672 -1.7568 0.838 -0.475 0.270 53 34 15 0 0
0.3763 -0.2186 -2.0699 0.819 -0.461 0.342 73 48 17 0 0
0.3751 -0.2182 -2.0768 0.794 -0.430 0.429 95 71 31 0 0
0.3957 -0.2285 -2.1048 0.865 -0.345 0.364 70 47 16 0 0
0.4177 -0.2401 -2.1544 0.771 -0.223 0.596 71 50 18 0 0
0.4726 -0.2677 -2.2368 0.637 -0.429 0.640 107 86 45 0 0
0.4754 -0.2691 -2.2399 0.777 -0.376 0.506 100 81 42 0 0
-0.0558 0.0060 -0.9875 0.500 -0.865 0.025 83 67 42 0 0
-0.0558 0.0059 -0.9924 0.500 -0.865 0.025 84 67 44 0 0
-0.0558 0.0058 -0.9973 0.500 -0.865 0.025 91 71 46 0 0
-0.0559 0.0057 -1.0022 0.399 -0.916 0.038 92 71 44 0 0
-0.0557 0.0054 -1.0071 0.429 -0.899 -0.094 96 75 47 0 0
-0.0634 0.0085 -1.0247 0.667 -0.605 -0.435 54 33 8 0 0
-0.0910 0.0188 -1.1054 0.816 -0.566 0.118 18 13 7 0 0
0.0735 -0.0603 -1.2264 0.284 -0.340 0.897 130 104 66 0 0
0.0955 -0.0705 -1.2312 0.165 -0.437 0.884 127 99 63 0 0
0.2178 -0.1350 -1.5171 0.914 -0.294 0.280 51 32 11 0 0
0.2305 -0.1420 -1.5562 0.877 -0.139 0.460 63 43 18 0 0
0.2364 -0.1452 -1.5735 0.884 -0.135 0.448 79 56 26 0 0
0.3236 -0.1865 -1.6159 0.726 -0.515 0.456 82 59 30 0 0
0.2805 -0.1706 -1.7523 0.829 -0.481 0.285 77 58 33 0 0
0.2819 -0.1714 -1.7567 0.890 -0.423 0.167 51 33 13 0 0
0.2829 -0.1719 -1.7615 0.838 -0.475 0.270 44 26 11 0 0
0.2847 -0.1729 -1.7656 0.839 -0.428 0.336 51 32 17 0 0
0.2860 -0.1736 -1.7702 0.822 -0.462 0.333 61 39 23 0 0
0.2875 -0.1744 -1.7745 0.826 -0.456 0.333 52 32 18 0 0
0.3488 -0.2094 -2.0114 0.695 -0.650 0.308 66 39 18 0 0
0.3753 -0.2234 -2.0747 0.975 -0.179 0.133 93 67 28 0 0
0.3934 -0.2328 -2.1108 0.742 -0.633 0.220 70 47 16 0 0
0.3983 -0.2354 -2.1237 0.772 -0.517 0.370 73 50 19 0 0
0.4641 -0.2687 -2.2313 0.818 -0.421 0.392 104 81 39 0 0
0.4838 -0.2790 -2.2708 0.826 -0.300 0.477 155 151 149 0 0
-0.0645 0.0043 -1.0045 0.245 -0.951 0.188 94 76 52 0 0
-0.0970 0.0172 -1.0765 0.995 -0.071 0.070 34 22 9 0 0
-0.0895 0.0123 -1.1242 0.939 -0.163 0.305 18 14 8 0 0
-0.0397 -0.0128 -1.2004 0.739 -0.482 0.471 125 105 74 0 0
-0.0336 -0.0158 -1.2080 0.567 -0.582 0.583 116 97 64 0 0
0.0681 -0.0629 -1.2280 0.394 -0.566 0.724 128 103 65 0 0
0.0772 -0.0703 -1.3354 0.672 -0.696 0.254 44 32 18 0 0
0.2159 -0.1393 -1.5221 0.879 -0.324 0.350 55 34 13 0 0
0.2189 -0.1408 -1.5255 0.784 -0.603 0.149 56 36 13 0 0
0.2288 -0.1461 -1.5507 0.756 -0.366 0.542 62 42 17 0 0
0.2281 -0.1459 -1.5564 0.795 -0.138 0.591 62 42 16 0 0
0.2322 -0.1480 -1.5643 0.960 0.012 0.278 76 53 22 0 0
0.3178 -0.1887 -1.6131 0.632 -0.504 0.589 130 106 69 0 0
0.3200 -0.1898 -1.6169 0.688 -0.528 0.498 92 69 36 0 0
0.2801 -0.1758 -1.7620 0.900 -0.389 0.196 44 26 11 0 0
0.2804 -0.1761 -1.7672 0.877 -0.385 0.286 49 28 14 0 0
0.2837 -0.1777 -1.7703 0.822 -0.462 0.333 61 38 21 0 0
0.2852 -0.1785 -1.7746 0.826 -0.456 0.333 55 32 17 0 0
0.3471 -0.2134 -1.9996 0.883 -0.270 0.384 68 42 19 0 0
0.3465 -0.2135 -2.0116 0.791 -0.494 0.361 68 41 20 0 0
0.3959 -0.2395 -2.1239 0.796 -0.486 0.360 71 48 17 0 0
0.3977 -0.2404 -2.1282 0.748 -0.336 0.572 72 49 18 0 0
0.4634 -0.2735 -2.2299 0.846 -0.459 0.273 99 76 34 0 0
-0.0739 0.0053 -0.9435 0.537 -0.842 0.059 92 75 45 0 0
-0.0763 0.0036 -1.0377 0.597 -0.796 -0.100 61 38 13 0 0
-0.0788 0.0044 -1.0486 0.752 -0.608 -0.254 49 31 9 0 0
-0.0984 0.0125 -1.0761 0.984 -0.157 -0.080 30 20 7 0 0
-0.0967 0.0112 -1.0957 0.943 -0.226 0.243 26 17 7 0 0
-0.0934 0.0096 -1.0995 0.814 -0.480 0.327 25 17 6 0 0
0.0637 -0.0661 -1.2290 0.188 -0.582 0.791 130 105 68 0 0
0.1043 -0.0889 -1.3717 0.494 -0.679 0.544 116 100 72 0 0
0.1757 -0.1237 -1.4461 0.847 -0.286 0.448 83 59 25 0 0
0.1876 -0.1298 -1.4650 0.899 -0.257 0.356 81 59 22 0 0
0.2269 -0.1504 -1.5559 0.795 -0.138 0.591 62 41 16 0 0
0.3084 -0.1892 -1.6076 0.294 -0.366 0.883 191 166 126 0 0
0.2837 -0.1829 -1.7742 0.802 -0.543 0.251 56 33 16 0 0
0.2840 -0.1835 -1.7904 0.683 -0.731 -0.001 88 66 35 0 0
0.2862 -0.1855 -1.8218 0.770 -0.635 -0.061 77 47 23 0 0
0.2929 -0.1885 -1.8223 0.137 -0.744 0.654 77 47 23 0 0
0.3489 -0.2198 -2.0134 0.874 -0.431 0.225 72 46 21 0 0
0.3475 -0.2194 -2.0203 0.816 -0.572 0.081 100 77 44 0 0
0.3478 -0.2197 -2.0258 0.816 -0.572 0.081 113 89 49 0 0
0.3521 -0.2217 -2.0278 0.678 -0.210 0.704 174 148 103 0 0
0.3514 -0.2216 -2.0342 0.661 -0.548 0.512 118 92 55 0 0
0.3810 -0.2373 -2.1064 0.497 -0.604 0.623 70 45 19 0 0
0.3957 -0.2446 -2.1280 0.748 -0.336 0.572 71 48 17 0 0
0.4615 -0.2777 -2.2297 0.788 -0.309 0.532 105 82 40 0 0
0.4827 -0.2882 -2.2558 0.781 -0.324 0.534 89 82 68 0 0
-0.0906 0.0081 -0.9339 -0.055 -0.707 0.706 114 94 65 0 0
-0.0549 -0.0159 -1.1846 0.486 -0.685 0.542 129 109 79 0 0
0.0586 -0.0689 -1.2303 0.245 -0.732 0.636 126 101 65 0 0
0.0669 -0.0738 -1.2668 0.265 -0.928 -0.262 68 48 21 0 0
0.0724 -0.0778 -1.3150 0.587 -0.810 -0.008 72 57 38 0 0
0.1764 -0.1293 -1.4496 0.763 -0.474 0.439 87 63 27 0 0
0.2105 -0.1475 -1.5385 0.858 -0.429 0.282 67 45 14 0 0
0.2351 -0.1598 -1.5755 0.791 -0.170 0.587 92 68 40 0 0
0.2401 -0.1625 -1.5881 0.714 -0.559 0.423 101 78 38 0 0
0.2454 -0.1651 -1.5953 0.300 -0.256 0.919 137 116 80 0 0
0.2648 -0.1739 -1.5932 0.433 0.078 0.898 129 104 61 0 0
0.3053 -0.1927 -1.6083 0.531 -0.306 0.790 193 166 124 0 0
0.2650 -0.1778 -1.7208 0.916 -0.231 0.328 67 48 26 0 0
0.2665 -0.1787 -1.7251 0.865 -0.381 0.326 61 44 26 0 0
0.2678 -0.1794 -1.7296 0.865 -0.381 0.326 34 20 4 0 0
0.2842 -0.1900 -1.8327 0.079 -0.510 0.857 75 45 21 0 0
0.2939 -0.1946 -1.8365 -0.045 -0.595 0.803 73 43 19 0 0
0.3323 -0.2159 -1.9628 0.767 -0.579 0.276 67 41 18 0 0
0.3331 -0.2164 -1.9679 0.864 -0.461 0.203 69 43 20 0 0
0.3333 -0.2167 -1.9734 0.943 -0.263 0.204 72 46 23 0 0
0.3346 -0.2174 -1.9780 0.920 -0.350 0.179 70 44 21 0 0
0.4062 -0.2547 -2.1339 0.858 -0.320 0.401 74 51 19 0 0
0.4353 -0.2702 -2.2060 0.846 -0.478 0.237 114 88 42 0 0
0.4564 -0.2804 -2.2267 0.715 -0.385 0.584 107 84 42 0 0
-0.1139 0.0134 -0.9360 -0.134 -0.552 0.823 136 124 108 0 0
-0.0761 -0.0108 -1.1619 0.913 -0.267 0.308 82 63 37 0 0
-0.0748 -0.0115 -1.1664 0.913 -0.267 0.308 102 84 54 0 0
0.0897 -0.0924 -1.3668 0.569 -0.559 0.603 109 93 69 0 0
0.0915 -0.0933 -1.3710 0.695 -0.578 0.427 104 87 65 0 0
0.1674 -0.1297 -1.4329 0.660 -0.579 0.479 89 64 32 0 0
0.1722 -0.1326 -1.4559 0.876 -0.452 0.168 82 58 25 0 0
0.2057 -0.1503 -1.5349 0.640 -0.333 0.693 122 99 63 0 0
0.2087 -0.1517 -1.5383 0.640 -0.333 0.693 74 52 19 0 0
0.2102 -0.1525 -1.5426 0.703 -0.017 0.711 68 44 18 0 0
0.2230 -0.1588 -1.5556 0.585 -0.693 0.421 66 44 16 0 0
0.2289 -0.1620 -1.5728 0.606 -0.735 0.305 73 49 19 0 0
0.2495 -0.1720 -1.5965 0.321 -0.096 0.942 123 100 68 0 0
0.3066 -0.1984 -1.6113 0.534 -0.193 0.823 187 161 120 0 0
0.2661 -0.1837 -1.7293 0.700 -0.591 0.402 38 22 6 0 0
0.3203 -0.2150 -1.9426 0.745 -0.273 0.608 69 43 20 0 0
0.3228 -0.2162 -1.9463 0.706 -0.549 0.446 70 44 21 0 0
0.3347 -0.2227 -1.9818 0.860 -0.325 0.392 70 44 21 0 0
0.3933 -0.2540 -2.1321 0.785 -0.609 0.115 71 48 17 0 0
0.4026 -0.2585 -2.1411 0.759 -0.540 0.363 76 53 22 0 0
0.4584 -0.2867 -2.2344 0.765 -0.475 0.435 110 86 42 0 0
0.4602 -0.2876 -2.2386 0.765 -0.475 0.435 113 90 47 0 0
0.4624 -0.2888 -2.2423 0.767 -0.479 0.428 109 87 46 0 0
0.4659 -0.2906 -2.2506 0.708 -0.622 0.336 108 91 59 0 0
-0.1239 0.0126 -0.9385 -0.066 -0.559 0.827 172 169 162 0 0
-0.1032 0.0032 -0.9414 -0.011 -0.934 0.358 95 80 55 0 0
-0.0950 -0.0047 -1.0722 0.784 -0.602 -0.154 78 59 31 0 0
-0.0768 -0.0158 -1.1612 0.902 -0.394 0.177 101 83 52 0 0
-0.0803 -0.0144 -1.1678 0.601 -0.587 0.542 78 61 30 0 0
-0.0481 -0.0301 -1.2053 0.566 -0.567 0.599 88 76 55 0 0
0.0742 -0.0864 -1.2360 0.762 -0.458 0.458 137 111 72 0 0
0.0761 -0.0874 -1.2402 0.762 -0.458 0.458 101 77 38 0 0
0.0486 -0.0760 -1.2734 0.191 -0.982 -0.002 66 49 24 0 0
0.0473 -0.0756 -1.2791 0.306 -0.952 0.021 67 52 31 0 0
0.0861 -0.0960 -1.3674 0.603 -0.399 0.691 82 67 44 0 0
0.0889 -0.0973 -1.3712 0.876 -0.281 0.393 93 78 56 0 0
0.0905 -0.0982 -1.3755 0.876 -0.281 0.393 113 95 76 0 0
0.2044 -0.1547 -1.5344 0.499 -0.418 0.759 99 76 44 0 0
0.2078 -0.1563 -1.5375 0.499 -0.418 0.759 70 46 18 0 0
0.2112 -0.1580 -1.5407 0.499 -0.418 0.759 71 47 22 0 0
0.3008 -0.2006 -1.6085 0.726 -0.283 0.626 176 151 110 0 0
0.3198 -0.2095 -1.6166 0.821 -0.326 0.469 76 52 25 0 0
0.3203 -0.2100 -1.6266 0.867 -0.464 0.184 81 58 34 0 0
0.2629 -0.1872 -1.7247 0.881 -0.392 0.267 37 19 6 0 0
0.2677 -0.1921 -1.8086 0.558 -0.801 0.215 76 44 22 0 0
0.3108 -0.2147 -1.9092 0.946 -0.275 0.172 69 43 18 0 0
0.3413 -0.2319 -2.0143 0.802 -0.542 0.252 82 55 28 0 0
0.3384 -0.2308 -2.0225 0.924 -0.356 0.140 111 83 51 0 0
0.3392 -0.2314 -2.0276 0.912 -0.368 0.183 124 95 54 0 0
0.3410 -0.2325 -2.0376 0.853 -0.512 0.100 95 69 33 0 0
0.3439 -0.2341 -2.0466 0.753 -0.595 0.282 65 40 14 0 0
0.3929 -0.2591 -2.1364 0.875 -0.453 0.169 72 49 18 0 0
0.4515 -0.2885 -2.2273 0.761 -0.356 0.543 107 83 41 0 0
0.4577 -0.2916 -2.2390 0.797 -0.349 0.493 116 93 52 0 0
0.4600 -0.2928 -2.2426 0.767 -0.479 0.428 111 87 48 0 0
0.4626 -0.2941 -2.2459 0.663 -0.562 0.494 112 91 50 0 0
0.4690 -0.2982 -2.2871 0.811 -0.396 0.430 192 192 194 0 0
-0.1146 0.0030 -0.9445 -0.117 -0.897 0.427 133 125 111 0 0
-0.0808 -0.0189 -1.1517 0.910 -0.295 0.293 84 66 35 0 0
-0.0772 -0.0212 -1.1706 0.683 -0.271 0.679 83 66 41 0 0
-0.0535 -0.0330 -1.2066 0.609 -0.555 0.567 92 80 57 0 0
-0.0452 -0.0368 -1.2082 0.485 -0.209 0.849 80 68 44 0 0
0.0413 -0.0779 -1.2758 0.223 -0.975 -0.001 69 53 32 0 0
0.1253 -0.1197 -1.3971 0.594 -0.410 0.693 162 141 107 0 0
0.1347 -0.1242 -1.4074 0.743 -0.398 0.538 124 99 65 0 0
0.1370 -0.1254 -1.4113 0.801 -0.222 0.556 134 107 76 0 0
0.1391 -0.1265 -1.4153 0.743 -0.398 0.538 109 83 56 0 0
0.2018 -0.1586 -1.5346 0.555 -0.163 0.816 96 73 40 0 0
0.2085 -0.1618 -1.5410 0.461 -0.443 0.769 71 47 21 0 0
0.2113 -0.1632 -1.5445 0.548 -0.644 0.533 75 54 27 0 0
0.2246 -0.1706 -1.5887 0.345 -0.679 0.648 102 82 46 0 0
0.3177 -0.2138 -1.6270 0.754 -0.657 -0.002 76 51 28 0 0
0.3201 -0.2150 -1.6306 0.998 0.031 -0.061 71 45 24 0 0
0.2558 -0.1890 -1.7227 0.814 -0.351 0.464 55 35 17 0 0
0.2682 -0.1961 -1.7683 0.717 -0.597 0.360 58 40 20 0 0
0.2709 -0.1983 -1.7992 0.948 -0.313 -0.058 70 44 22 0 0
0.3371 -0.2348 -2.0047 0.683 -0.635 0.361 73 47 24 0 0
0.3514 -0.2425 -2.0440 0.914 -0.389 0.118 70 45 19 0 0
0.3565 -0.2456 -2.0683 0.730 -0.536 0.424 74 51 21 0 0
0.3551 -0.2452 -2.0754 0.797 -0.496 0.345 76 53 21 0 0
0.4170 -0.2766 -2.1821 0.796 -0.576 0.187 87 63 27 0 0
0.4255 -0.2811 -2.2034 0.733 -0.444 0.515 106 82 37 0 0
0.4305 -0.2834 -2.2045 0.865 -0.352 0.358 112 84 38 0 0
0.4557 -0.2958 -2.2388 0.797 -0.349 0.493 117 93 54 0 0
0.4576 -0.2968 -2.2428 0.767 -0.479 0.428 119 95 58 0 0
0.4590 -0.2976 -2.2474 0.753 -0.588 0.295 117 95 56 0 0
0.4745 -0.3058 -2.2852 0.859 -0.411 0.306 200 200 202 0 0
-0.1265 0.0031 -0.9477 -0.117 -0.897 0.427 174 172 169 0 0
-0.1064 -0.0093 -1.0497 0.379 -0.896 0.232 90 74 49 0 0
-0.0661 -0.0324 -1.2009 0.392 -0.351 0.850 97 85 66 0 0
-0.0168 -0.0550 -1.2150 0.319 -0.107 0.942 101 84 58 0 0
-0.0087 -0.0587 -1.2165 0.491 -0.132 0.861 145 129 104 0 0
0.0328 -0.0794 -1.2789 0.311 -0.949 0.059 77 64 48 0 0
0.0515 -0.0900 -1.3468 0.607 -0.515 0.606 108 96 74 0 0
0.0568 -0.0928 -1.3596 0.582 -0.748 0.319 120 104 79 0 0
0.0838 -0.1053 -1.3715 0.421 -0.564 0.711 125 104 71 0 0
0.1347 -0.1295 -1.4114 0.743 -0.398 0.538 115 89 64 0 0
0.1370 -0.1306 -1.4153 0.743 -0.398 0.538 105 80 55 0 0
0.1604 -0.1419 -1.4383 0.784 -0.370 0.498 90 66 30 0 0
0.2114 -0.1683 -1.5431 0.580 -0.645 0.498 87 65 39 0 0
0.2205 -0.1737 -1.5846 0.838 -0.255 0.482 78 55 23 0 0
0.2228 -0.1749 -1.5884 0.554 -0.586 0.591 96 76 38 0 0
0.2254 -0.1761 -1.5921 0.554 -0.586 0.591 106 84 42 0 0
0.2679 -0.1955 -1.6013 0.181 -0.705 0.686 147 121 78 0 0
0.3133 -0.2168 -1.6286 0.711 -0.698 0.087 72 47 23 0 0
0.2822 -0.2041 -1.6655 0.431 -0.683 -0.590 105 84 56 0 0
0.2716 -0.1997 -1.6781 0.477 -0.695 -0.538 95 73 44 0 0
0.2652 -0.1997 -1.7634 0.910 -0.207 0.358 48 28 11 0 0
0.2658 -0.2001 -1.7685 0.813 -0.162 0.559 56 35 15 0 0
0.2672 -0.2009 -1.7729 0.900 -0.344 0.266 64 42 22 0 0
0.2686 -0.2017 -1.7774 0.967 -0.149 0.205 61 39 17 0 0
0.2694 -0.2022 -1.7823 0.986 -0.088 0.139 91 70 40 0 0
0.3064 -0.2232 -1.9148 0.904 -0.037 0.425 69 41 19 0 0
0.3386 -0.2405 -2.0016 0.781 -0.501 0.373 71 45 21 0 0
0.3539 -0.2496 -2.0688 0.730 -0.536 0.424 73 50 20 0 0
0.3527 -0.2493 -2.0756 0.797 -0.496 0.345 78 54 21 0 0
0.3749 -0.2605 -2.1139 0.823 -0.485 0.297 69 46 15 0 0
0.4133 -0.2803 -2.1894 0.870 -0.492 -0.027 85 61 24 0 0
0.4225 -0.2849 -2.2042 0.751 -0.509 0.420 104 80 35 0 0
0.4285 -0.2876 -2.2043 0.905 -0.339 0.256 109 83 38 0 0
0.4528 -0.2996 -2.2396 0.801 -0.363 0.476 112 89 48 0 0
0.4553 -0.3009 -2.2430 0.882 -0.362 0.303 112 89 50 0 0
0.4560 -0.3014 -2.2483 0.870 -0.290 0.398 112 91 54 0 0
0.4763 -0.3118 -2.2872 0.871 -0.464 0.164 204 204 206 0 0
0.4776 -0.3125 -2.2919 0.903 0.083 0.421 207 207 209 0 0
-0.1337 0.0009 -0.9543 -0.117 -0.897 0.427 180 179 176 0 0
-0.0972 -0.0219 -1.1463 0.630 -0.699 0.338 87 68 41 0 0
-0.0974 -0.0220 -1.1515 0.527 -0.800 0.288 91 71 44 0 0
-0.0714 -0.0354 -1.2021 0.335 -0.429 0.839 70 59 39 0 0
-0.0339 -0.0524 -1.2114 0.260 0.006 0.966 88 72 48 0 0
0.0174 -0.0775 -1.2749 0.029 -0.981 0.194 85 69 51 0 0
0.0153 -0.0768 -1.2810 0.201 -0.949 0.241 74 60 47 0 0
0.0524 -0.0960 -1.3608 0.548 -0.792 0.270 93 77 51 0 0
0.1295 -0.1321 -1.4079 0.668 -0.466 0.580 121 95 74 0 0
0.1320 -0.1333 -1.4117 0.668 -0.466 0.580 108 84 56 0 0
0.1506 -0.1424 -1.4323 0.763 -0.402 0.506 101 77 40 0 0
0.2222 -0.1798 -1.5927 0.554 -0.586 0.591 117 95 53 0 0
0.3048 -0.2177 -1.6225 0.545 -0.526 0.653 66 42 16 0 0
0.3098 -0.2202 -1.6295 0.651 -0.300 0.698 72 48 20 0 0
0.2815 -0.2087 -1.6645 0.442 -0.663 -0.604 97 78 49 0 0
0.2651 -0.2020 -1.6810 0.475 -0.702 -0.531 91 70 43 0 0
0.2498 -0.1962 -1.7131 0.818 -0.400 0.414 51 32 15 0 0
0.2532 -0.1980 -1.7215 0.828 -0.284 0.483 52 34 17 0 0
0.2641 -0.2046 -1.7736 0.751 -0.651 0.106 63 40 22 0 0
0.2648 -0.2055 -1.7895 0.741 -0.645 0.189 106 86 54 0 0
0.3000 -0.2252 -1.9070 0.709 -0.644 0.288 70 42 20 0 0
0.3217 -0.2370 -1.9684 0.772 -0.527 0.355 72 46 23 0 0
0.3326 -0.2433 -2.0105 0.805 -0.416 0.424 74 47 19 0 0
0.3358 -0.2460 -2.0480 0.647 -0.473 0.598 75 49 24 0 0
0.3501 -0.2531 -2.0702 0.810 -0.406 0.424 77 54 24 0 0
0.3715 -0.2642 -2.1150 0.823 -0.276 0.496 67 46 15 0 0
0.3742 -0.2655 -2.1184 0.743 -0.432 0.512 69 48 17 0 0
0.3755 -0.2663 -2.1230 0.828 -0.396 0.397 71 49 18 0 0
0.3794 -0.2683 -2.1311 0.719 -0.652 0.240 74 50 20 0 0
0.3896 -0.2737 -2.1568 0.818 -0.260 0.513 82 59 27 0 0
0.4239 -0.2907 -2.2067 0.888 -0.097 0.450 107 84 40 0 0
0.4262 -0.2918 -2.2104 0.814 -0.127 0.566 106 83 39 0 0
0.4742 -0.3159 -2.2872 0.871 -0.464 0.164 205 205 207 0 0
0.4813 -0.3191 -2.2858 0.719 0.407 0.564 207 207 209 0 0
-0.1487 0.0024 -0.9536 -0.084 -0.925 0.371 179 180 184 0 0
-0.1449 0.0005 -0.9572 -0.084 -0.925 0.371 180 180 183 0 0
-0.1395 -0.0020 -0.9604 -0.005 -0.957 0.290 180 180 181 0 0
-0.1348 -0.0047 -0.9785 -0.041 -0.990 0.135 122 113 106 0 0
0.0079 -0.0786 -1.2783 0.031 -0.996 0.087 83 71 56 0 0
0.0272 -0.0893 -1.3412 -0.011 -0.593 0.805 73 62 45 0 0
0.0578 -0.1037 -1.3620 0.841 -0.103 0.531 109 90 59 0 0
0.0602 -0.1049 -1.3660 0.841 -0.103 0.531 118 99 68 0 0
0.1472 -0.1459 -1.4330 0.566 -0.567 0.598 105 81 44 0 0
0.1846 -0.1652 -1.5099 0.639 -0.723 0.261 53 34 10 0 0
0.2200 -0.1839 -1.5928 0.578 -0.438 0.689 124 102 61 0 0
0.2549 -0.1997 -1.6018 0.124 -0.395 0.910 154 126 79 0 0
0.3737 -0.2706 -2.1227 0.686 -0.371 0.626 71 50 19 0 0
0.3786 -0.2732 -2.1357 0.750 -0.450 0.485 73 50 19 0 0
0.3830 -0.2754 -2.1434 0.717 -0.568 0.404 83 60 28 0 0
0.3832 -0.2759 -2.1548 0.838 -0.329 0.434 87 64 32 0 0
0.3850 -0.2769 -2.1590 0.838 -0.329 0.434 82 59 27 0 0
0.3866 -0.2777 -2.1635 0.831 -0.310 0.462 78 55 23 0 0
0.4194 -0.2935 -2.1972 0.680 -0.424 0.598 99 74 33 0 0
0.4724 -0.3202 -2.2869 0.768 -0.430 0.475 205 205 207 0 0
-0.1045 -0.0309 -1.1938 0.219 -0.563 0.797 74 59 37 0 0
0.2669 -0.2101 -1.6031 0.630 0.325 0.706 163 133 81 0 0
0.2574 -0.2117 -1.7698 0.751 -0.651 0.106 64 42 21 0 0
0.3014 -0.2367 -1.9249 0.903 -0.306 0.303 69 41 19 0 0
0.3027 -0.2374 -1.9295 0.903 -0.306 0.303 68 40 18 0 0
0.3031 -0.2378 -1.9348 0.817 -0.280 0.504 67 41 18 0 0
0.3052 -0.2389 -1.9388 0.817 -0.280 0.504 68 42 19 0 0
0.3072 -0.2399 -1.9428 0.738 -0.294 0.607 69 43 20 0 0
0.3232 -0.2495 -2.0148 0.733 0.528 0.429 82 55 26 0 0
0.4238 -0.3009 -2.2086 0.740 -0.470 0.482 98 75 31 0 0
0.4508 -0.3139 -2.2353 0.840 -0.454 0.297 111 87 46 0 0
0.0426 -0.1073 -1.3623 0.305 -0.870 0.389 107 86 55 0 0
0.0639 -0.1172 -1.3773 0.498 -0.505 0.705 115 93 57 0 0
0.1154 -0.1411 -1.4068 0.798 -0.474 0.371 159 130 85 0 0
0.1481 -0.1573 -1.4558 0.876 -0.426 0.224 91 67 32 0 0
0.2796 -0.2211 -1.6142 0.617 0.078 0.783 174 152 102 0 0
0.2892 -0.2255 -1.6183 0.806 -0.536 0.251 100 77 43 0 0
0.2945 -0.2279 -1.6200 0.589 -0.429 0.685 80 56 28 0 0
0.2595 -0.2143 -1.6752 0.710 -0.324 -0.625 95 78 49 0 0
0.2516 -0.2139 -1.7616 0.423 -0.858 0.291 61 41 19 0 0
0.2543 -0.2153 -1.7651 0.638 -0.767 0.078 59 38 17 0 0
0.2514 -0.2142 -1.7727 0.543 -0.742 0.392 62 41 20 0 0
0.2582 -0.2181 -1.7951 0.719 -0.516 0.467 70 46 21 0 0
0.3086 -0.2463 -1.9625 0.780 -0.584 0.223 69 45 21 0 0
0.3107 -0.2474 -1.9665 0.836 -0.377 0.399 72 47 22 0 0
0.3202 -0.2533 -2.0156 0.114 -0.462 0.880 76 51 22 0 0
0.3260 -0.2559 -2.0164 0.961 -0.159 -0.228 108 83 50 0 0
0.3472 -0.2663 -2.0441 0.823 -0.562 0.085 72 49 18 0 0
0.4019 -0.2954 -2.1804 0.694 -0.546 0.469 92 69 33 0 0
0.4050 -0.2968 -2.1833 0.769 -0.474 0.428 90 66 30 0 0
0.4063 -0.2976 -2.1880 0.830 -0.381 0.408 90 66 28 0 0
0.4214 -0.3050 -2.2089 0.740 -0.470 0.482 99 76 30 0 0
-0.0208 -0.0794 -1.2220 0.343 -0.215 0.915 99 83 60 0 0
0.0134 -0.0950 -1.2370 0.307 -0.886 0.347 103 83 57 0 0
0.2867 -0.2293 -1.6185 0.806 -0.536 0.251 99 76 41 0 0
0.2880 -0.2300 -1.6229 0.791 -0.570 0.220 76 53 25 0 0
0.2884 -0.2304 -1.6279 0.850 -0.521 0.074 73 49 22 0 0
0.2373 -0.2118 -1.7375 0.833 -0.341 0.436 48 34 17 0 0
0.2469 -0.2174 -1.7743 0.566 -0.499 0.656 61 42 20 0 0
0.2551 -0.2218 -1.7958 0.718 -0.486 0.498 69 45 22 0 0
0.3217 -0.2592 -2.0182 0.752 -0.614 -0.240 115 90 58 0 0
0.3198 -0.2587 -2.0255 0.752 -0.614 -0.240 118 90 49 0 0
0.3506 -0.2753 -2.1085 0.897 -0.370 0.243 72 51 19 0 0
0.3529 -0.2764 -2.1124 0.762 -0.488 0.425 71 51 18 0 0
0.4044 -0.3018 -2.1878 0.769 -0.474 0.428 93 69 31 0 0
0.4170 -0.3078 -2.1993 0.732 -0.543 0.411 104 80 34 0 0
0.4464 -0.3221 -2.2355 0.910 -0.273 0.311 109 85 44 0 0
-0.1654 -0.0140 -1.0310 0.063 -0.991 0.119 181 182 185 0 0
-0.1647 -0.0145 -1.0358 0.063 -0.991 0.119 181 182 186 0 0
-0.1639 -0.0151 -1.0406 0.063 -0.991 0.119 181 182 187 0 0
-0.1606 -0.0167 -1.0444 0.241 -0.969 0.053 181 182 186 0 0
-0.1620 -0.0166 -1.0601 0.129 -0.990 0.050 182 183 186 0 0
-0.1619 -0.0169 -1.0652 0.129 -0.990 0.050 183 184 186 0 0
-0.1617 -0.0171 -1.0702 0.129 -0.990 0.050 184 183 184 0 0
-0.1605 -0.0178 -1.0748 0.129 -0.984 0.121 184 184 184 0 0
-0.0133 -0.0881 -1.2278 0.402 -0.275 0.873 101 85 62 0 0
-0.0056 -0.0915 -1.2294 0.188 -0.523 0.832 104 86 64 0 0
0.0005 -0.0943 -1.2317 0.186 -0.607 0.773 108 90 68 0 0
0.0028 -0.0955 -1.2357 0.332 -0.823 0.461 106 87 63 0 0
0.0511 -0.1218 -1.3765 0.033 -0.724 0.690 110 88 56 0 0
0.1905 -0.1894 -1.5481 0.771 -0.420 0.479 69 46 15 0 0
0.2029 -0.1955 -1.5666 0.954 -0.184 0.238 104 83 50 0 0
0.2191 -0.2034 -1.5879 0.841 -0.256 0.476 131 108 71 0 0
0.2776 -0.2300 -1.6128 0.794 -0.383 0.472 186 158 116 0 0
0.2764 -0.2297 -1.6188 0.890 -0.444 0.101 129 103 63 0 0
0.2349 -0.2157 -1.7322 0.747 -0.485 0.456 34 20 6 0 0
0.2366 -0.2166 -1.7365 0.752 -0.499 0.431 42 29 15 0 0
0.2384 -0.2175 -1.7407 0.752 -0.499 0.431 55 40 21 0 0
0.2927 -0.2485 -1.9323 0.610 -0.791 0.045 65 41 17 0 0
0.2932 -0.2491 -1.9432 0.720 -0.606 0.339 65 41 17 0 0
0.2946 -0.2499 -1.9477 0.720 -0.606 0.339 67 43 19 0 0
0.3081 -0.2564 -1.9651 0.575 -0.547 0.609 72 47 24 0 0
0.4002 -0.3050 -2.1838 0.837 -0.351 0.419 86 62 26 0 0
0.4027 -0.3062 -2.1873 0.858 -0.313 0.407 92 68 30 0 0
0.4131 -0.3113 -2.2009 0.735 -0.644 0.214 104 80 34 0 0
0.4171 -0.3133 -2.2089 0.747 -0.399 0.532 106 82 36 0 0
0.4445 -0.3266 -2.2411 0.794 -0.413 0.447 90 71 34 0 0
-0.1755 -0.0150 -1.0338 0.063 -0.991 0.119 181 182 185 0 0
-0.1747 -0.0155 -1.0386 0.063 -0.991 0.119 182 183 187 0 0
-0.1740 -0.0160 -1.0434 0.063 -0.991 0.119 182 183 187 0 0
-0.1683 -0.0186 -1.0464 0.214 -0.972 0.092 182 183 186 0 0
-0.1715 -0.0175 -1.0526 0.129 -0.990 0.050 182 184 185 0 0
-0.1714 -0.0177 -1.0577 0.129 -0.990 0.050 182 184 184 0 0
-0.1712 -0.0179 -1.0627 0.129 -0.990 0.050 183 184 187 0 0
-0.1711 -0.0182 -1.0677 0.129 -0.990 0.050 184 184 186 0 0
-0.1710 -0.0184 -1.0728 0.129 -0.990 0.050 184 184 185 0 0
-0.1694 -0.0193 -1.0773 0.129 -0.984 0.121 183 184 186 0 0
-0.1680 -0.0201 -1.0819 0.099 -0.982 0.163 183 184 187 0 0
-0.1669 -0.0207 -1.0866 0.099 -0.982 0.163 184 185 187 0 0
-0.1659 -0.0214 -1.0913 0.111 -0.973 0.201 184 185 187 0 0
-0.1538 -0.0290 -1.1534 0.106 -0.975 0.196 187 189 190 0 0
-0.1529 -0.0296 -1.1582 0.141 -0.970 0.196 189 190 192 0 0
-0.1517 -0.0305 -1.1681 -0.005 -0.991 0.134 189 191 191 0 0
0.0066 -0.1029 -1.2533 0.875 0.438 0.205 199 201 201 0 0
0.1311 -0.1644 -1.4411 0.645 -0.574 0.504 98 74 36 0 0
0.1732 -0.1854 -1.5102 0.688 -0.718 0.106 64 42 18 0 0
0.1744 -0.1863 -1.5199 0.480 -0.877 -0.012 79 57 32 0 0
0.1741 -0.1864 -1.5253 0.480 -0.877 -0.012 86 60 30 0 0
0.1918 -0.1957 -1.5669 0.377 -0.812 0.445 98 75 43 0 0
0.1934 -0.1966 -1.5712 0.482 -0.728 0.488 85 64 30 0 0
0.1969 -0.1982 -1.5743 0.527 -0.476 0.704 67 44 13 0 0
0.2000 -0.1997 -1.5776 0.527 -0.476 0.704 77 54 23 0 0
0.2199 -0.2089 -1.5913 0.380 -0.391 0.838 120 99 62 0 0
0.2736 -0.2331 -1.6088 0.809 -0.358 0.467 177 152 112 0 0
0.2756 -0.2341 -1.6127 0.794 -0.383 0.472 170 147 105 0 0
0.2376 -0.2225 -1.7451 0.752 -0.499 0.431 97 77 54 0 0
0.3065 -0.2626 -2.0101 -0.116 -0.866 0.487 69 44 21 0 0
0.3318 -0.2759 -2.0691 0.890 -0.432 0.146 75 51 21 0 0
0.3440 -0.2827 -2.1106 0.787 -0.205 0.581 80 60 28 0 0
0.3979 -0.3091 -2.1840 0.892 -0.271 0.363 87 63 26 0 0
0.4026 -0.3114 -2.1912 0.822 -0.280 0.497 86 62 25 0 0
0.4047 -0.3125 -2.1952 0.822 -0.280 0.497 88 64 26 0 0
0.4134 -0.3166 -2.2045 0.635 -0.505 0.585 104 80 34 0 0
-0.1773 -0.0214 -1.0845 0.099 -0.982 0.163 184 185 187 0 0
-0.1762 -0.0221 -1.0892 0.099 -0.982 0.163 184 185 187 0 0
-0.1747 -0.0229 -1.0938 0.111 -0.973 0.201 184 185 187 0 0
-0.1655 -0.0290 -1.1468 0.106 -0.975 0.196 188 189 191 0 0
-0.1627 -0.0305 -1.1561 0.106 -0.975 0.196 189 190 192 0 0
-0.1614 -0.0313 -1.1607 0.145 -0.972 0.184 190 191 193 0 0
-0.1657 -0.0297 -1.1676 -0.028 -0.998 0.063 191 192 194 0 0
-0.1627 -0.0311 -1.1717 0.002 -0.993 0.118 192 193 195 0 0
0.2141 -0.2113 -1.5883 0.373 -0.574 0.729 126 104 67 0 0
0.2673 -0.2350 -1.6011 0.699 -0.436 0.567 180 155 110 0 0
0.2719 -0.2373 -1.6086 0.699 -0.436 0.567 201 177 132 0 0
0.2728 -0.2378 -1.6132 0.811 -0.492 0.316 143 119 78 0 0
0.2725 -0.2379 -1.6186 0.852 -0.313 0.421 114 90 55 0 0
0.2727 -0.2382 -1.6237 0.890 -0.444 0.101 90 66 35 0 0
0.2880 -0.2451 -1.6291 0.452 -0.015 0.892 73 52 24 0 0
0.2292 -0.2234 -1.7332 0.633 -0.588 0.504 48 30 14 0 0
0.2293 -0.2237 -1.7386 0.790 -0.520 0.324 52 35 21 0 0
0.2922 -0.2586 -1.9349 0.636 -0.748 -0.190 62 40 17 0 0
0.3673 -0.2996 -2.1518 0.852 -0.401 0.336 82 59 26 0 0
0.3994 -0.3152 -2.1922 0.859 -0.163 0.485 85 61 25 0 0
0.4132 -0.3220 -2.2144 0.823 -0.373 0.429 103 79 35 0 0
0.4246 -0.3274 -2.2270 0.576 -0.290 0.764 107 82 42 0 0
0.4380 -0.3348 -2.2670 0.875 -0.420 0.240 89 82 64 0 0
-0.1753 -0.0302 -1.1498 0.149 -0.974 0.173 189 190 192 0 0
-0.1786 -0.0296 -1.1719 -0.028 -0.998 0.063 191 192 194 0 0
-0.1781 -0.0304 -1.1874 -0.033 -0.975 0.220 192 193 195 0 0
-0.1687 -0.0352 -1.2045 0.079 -0.960 0.270 195 196 198 0 0
-0.1384 -0.0482 -1.2022 0.779 0.128 0.614 195 196 198 0 0
-0.1378 -0.0487 -1.2072 0.337 -0.077 0.938 196 197 199 0 0
0.2508 -0.2327 -1.6001 0.450 -0.114 0.886 153 124 78 0 0
0.2705 -0.2418 -1.6133 0.811 -0.492 0.316 124 100 61 0 0
0.2708 -0.2421 -1.6184 0.852 -0.313 0.421 100 76 45 0 0
0.2725 -0.2430 -1.6224 0.852 -0.313 0.421 80 56 26 0 0
0.2827 -0.2474 -1.6208 0.941 -0.143 0.307 66 43 17 0 0
0.2831 -0.2479 -1.6310 0.772 -0.588 0.240 76 55 27 0 0
0.3030 -0.2711 -2.0037 0.739 -0.511 0.440 61 39 16 0 0
0.3123 -0.2750 -2.0017 0.503 -0.767 0.398 65 43 21 0 0
0.3501 -0.2964 -2.1304 0.784 -0.547 0.295 73 52 21 0 0
0.4111 -0.3262 -2.2144 0.891 -0.215 0.400 111 87 43 0 0
0.4221 -0.3315 -2.2273 0.568 -0.424 0.706 108 83 42 0 0
0.4363 -0.3390 -2.2606 0.665 -0.613 0.427 75 64 43 0 0
-0.0970 -0.0782 -1.3725 -0.303 -0.738 0.602 104 94 82 0 0
0.0251 -0.1313 -1.3801 0.399 -0.584 0.707 131 108 69 0 0
0.0286 -0.1330 -1.3835 0.399 -0.584 0.707 136 111 69 0 0
0.0837 -0.1579 -1.4117 0.457 -0.425 0.781 152 123 86 0 0
0.1210 -0.1761 -1.4639 0.742 -0.638 0.206 94 71 32 0 0
0.1725 -0.2026 -1.5696 0.419 -0.800 0.430 82 60 24 0 0
0.2524 -0.2382 -1.5977 0.216 -0.313 0.925 150 121 78 0 0
0.2148 -0.2265 -1.7131 0.767 -0.588 0.256 54 40 26 0 0
0.2217 -0.2311 -1.7517 0.762 -0.638 0.114 83 62 38 0 0
0.2963 -0.2719 -1.9677 0.975 -0.223 0.002 70 48 24 0 0
0.2964 -0.2724 -1.9789 0.891 -0.286 0.353 67 45 21 0 0
0.2969 -0.2728 -1.9842 0.919 -0.306 0.249 65 43 19 0 0
0.2980 -0.2734 -1.9890 0.919 -0.306 0.249 64 42 18 0 0
0.3008 -0.2748 -1.9924 0.769 -0.521 0.370 64 42 18 0 0
0.3034 -0.2765 -2.0074 0.707 0.010 0.707 71 51 26 0 0
0.3082 -0.2789 -2.0148 0.644 -0.741 -0.188 106 83 43 0 0
0.3235 -0.2882 -2.0822 0.527 -0.702 0.479 132 102 55 0 0
0.3257 -0.2893 -2.0862 0.527 -0.702 0.479 141 111 68 0 0
0.4091 -0.3304 -2.2143 0.797 -0.250 0.550 109 85 41 0 0
0.4079 -0.3302 -2.2212 0.843 -0.476 0.252 107 82 41 0 0
0.4138 -0.3330 -2.2274 0.857 -0.213 0.469 111 86 45 0 0
0.0215 -0.1350 -1.3808 0.472 -0.331 0.817 132 109 71 0 0
0.1106 -0.1769 -1.4685 0.449 -0.458 0.767 105 80 41 0 0
0.1238 -0.1827 -1.4714 0.319 -0.931 0.176 84 60 26 0 0
0.1447 -0.1927 -1.4959 0.523 -0.728 0.443 77 54 23 0 0
0.2492 -0.2418 -1.5984 0.244 -0.183 0.952 144 114 75 0 0
0.2746 -0.2540 -1.6287 0.902 -0.321 0.289 73 52 25 0 0
0.2171 -0.2331 -1.7263 0.893 -0.408 0.191 54 39 17 0 0
0.2902 -0.2745 -1.9708 0.843 -0.537 0.037 71 50 26 0 0
0.2895 -0.2749 -1.9885 0.430 -0.501 0.751 64 42 18 0 0
0.2901 -0.2754 -1.9937 0.526 -0.286 0.801 63 41 17 0 0
0.2942 -0.2772 -1.9961 0.521 -0.429 0.738 65 43 19 0 0
0.3047 -0.2832 -2.0331 0.693 -0.721 0.006 87 61 27 0 0
0.3220 -0.2929 -2.0874 0.527 -0.702 0.479 124 97 57 0 0
0.3367 -0.3008 -2.1269 0.815 -0.456 0.356 71 50 19 0 0
0.4054 -0.3337 -2.2099 0.755 -0.291 0.588 102 78 32 0 0
0.4074 -0.3347 -2.2138 0.797 -0.250 0.550 105 81 38 0 0
0.4124 -0.3374 -2.2267 0.857 -0.213 0.469 106 83 39 0 0
0.4285 -0.3447 -2.2347 0.738 -0.368 0.566 104 82 42 0 0
0.0229 -0.1409 -1.3841 0.485 -0.476 0.734 128 105 69 0 0
0.0265 -0.1426 -1.3875 0.442 -0.438 0.783 122 99 62 0 0
0.0307 -0.1445 -1.3906 0.363 -0.435 0.824 121 98 61 0 0
0.0731 -0.1637 -1.4150 0.735 -0.592 0.330 159 132 90 0 0
0.0732 -0.1639 -1.4202 0.693 -0.711 0.122 145 116 80 0 0
0.1090 -0.1808 -1.4578 0.562 -0.622 0.545 99 74 37 0 0
0.1174 -0.1853 -1.4791 0.403 -0.850 0.340 111 89 57 0 0
0.1196 -0.1864 -1.4830 0.364 -0.792 0.491 99 73 39 0 0
0.1432 -0.1977 -1.5112 0.854 -0.406 0.326 68 44 17 0 0
0.2592 -0.2514 -1.6062 0.725 -0.645 0.240 194 165 127 0 0
0.2777 -0.2745 -1.9793 0.791 -0.602 0.111 70 49 25 0 0
0.2927 -0.2816 -1.9955 0.765 -0.426 0.483 65 43 19 0 0
0.3012 -0.2871 -2.0399 0.561 -0.615 0.554 82 58 25 0 0
0.3269 -0.3008 -2.1045 0.656 -0.392 0.645 68 47 18 0 0
0.3276 -0.3013 -2.1097 0.792 -0.437 0.427 68 47 18 0 0
0.3346 -0.3050 -2.1268 0.842 -0.328 0.428 66 45 14 0 0
0.3676 -0.3208 -2.1670 0.744 -0.478 0.466 82 58 22 0 0
0.4004 -0.3365 -2.2068 0.732 -0.519 0.441 104 80 35 0 0
0.4022 -0.3375 -2.2109 0.732 -0.519 0.441 105 81 37 0 0
0.4040 -0.3384 -2.2150 0.732 -0.519 0.441 108 84 40 0 0
0.4087 -0.3410 -2.2282 0.714 -0.522 0.466 104 82 38 0 0
0.1092 -0.1864 -1.4668 0.377 -0.895 0.237 95 71 34 0 0
0.1127 -0.1884 -1.4805 0.570 -0.699 0.432 118 97 61 0 0
0.1146 -0.1894 -1.4846 0.570 -0.699 0.432 93 68 35 0 0
0.1204 -0.1920 -1.4865 0.562 -0.521 0.642 91 67 28 0 0
0.1232 -0.1934 -1.4901 0.562 -0.521 0.642 95 72 33 0 0
0.1393 -0.2011 -1.5122 0.592 -0.754 0.284 74 51 21 0 0
0.1384 -0.2021 -1.5442 0.473 -0.866 0.162 83 60 28 0 0
0.2569 -0.2554 -1.6063 0.900 -0.427 0.089 182 155 114 0 0
0.2583 -0.2561 -1.6106 0.691 -0.562 0.454 113 87 51 0 0
0.2019 -0.2362 -1.7121 0.713 -0.581 0.393 37 26 16 0 0
0.2136 -0.2433 -1.7638 0.690 -0.606 0.397 67 45 25 0 0
0.2153 -0.2442 -1.7681 0.690 -0.606 0.397 61 39 18 0 0
0.2726 -0.2774 -1.9760 0.959 -0.220 0.179 71 49 25 0 0
0.2737 -0.2780 -1.9807 0.930 -0.264 0.256 71 50 26 0 0
0.3068 -0.2953 -2.0564 0.797 -0.564 0.216 76 53 21 0 0
0.3253 -0.3055 -2.1098 0.792 -0.437 0.427 67 46 17 0 0
0.3294 -0.3078 -2.1236 0.800 -0.123 0.587 75 54 24 0 0
0.3624 -0.3231 -2.1523 0.751 -0.475 0.458 87 63 26 0 0
0.3686 -0.3267 -2.1759 0.720 -0.423 0.550 83 59 23 0 0
0.3704 -0.3277 -2.1800 0.823 -0.355 0.444 88 64 26 0 0
0.4122 -0.3503 -2.2940 0.872 -0.128 0.472 167 166 164 0 0
-0.0972 -0.1004 -1.3949 -0.257 -0.694 0.673 112 96 80 0 0
0.1037 -0.1896 -1.4792 0.420 -0.900 0.118 103 79 42 0 0
0.1343 -0.2043 -1.5191 0.311 -0.721 0.620 82 58 25 0 0
0.1375 -0.2058 -1.5224 0.311 -0.721 0.620 74 52 19 0 0
0.1471 -0.2106 -1.5377 0.334 -0.892 0.305 83 60 26 0 0
0.2493 -0.2568 -1.5995 0.707 -0.453 0.543 174 150 105 0 0
0.2659 -0.2651 -1.6303 0.484 -0.598 0.639 75 54 26 0 0
0.1990 -0.2400 -1.7126 0.713 -0.581 0.393 54 38 26 0 0
0.2041 -0.2428 -1.7253 0.781 -0.524 0.340 70 53 34 0 0
0.2075 -0.2460 -1.7666 0.832 -0.443 0.334 52 31 12 0 0
0.2122 -0.2481 -1.7687 0.690 -0.606 0.397 67 46 25 0 0
0.3230 -0.3096 -2.1099 0.792 -0.437 0.427 69 48 19 0 0
0.3947 -0.3443 -2.2081 0.855 -0.396 0.334 106 82 39 0 0
0.3988 -0.3466 -2.2218 0.811 -0.475 0.342 103 80 36 0 0
-0.1006 -0.1046 -1.4008 -0.243 -0.759 0.605 111 97 80 0 0
0.0170 -0.1542 -1.3942 0.243 -0.678 0.694 115 94 62 0 0
0.0728 -0.1796 -1.4324 0.852 -0.341 0.397 142 116 83 0 0
0.0747 -0.1806 -1.4366 0.824 -0.300 0.481 122 97 67 0 0
0.1007 -0.1934 -1.4796 0.527 -0.832 0.171 122 96 59 0 0
0.1048 -0.1953 -1.4825 0.376 -0.522 0.765 97 71 34 0 0
0.1403 -0.2124 -1.5300 0.436 -0.701 0.565 86 62 28 0 0
0.1434 -0.2141 -1.5386 0.577 -0.739 0.347 86 62 29 0 0
0.2501 -0.2622 -1.6028 0.699 -0.579 0.421 180 154 108 0 0
0.2615 -0.2676 -1.6161 0.658 -0.511 0.552 68 45 18 0 0
0.1909 -0.2416 -1.7112 0.824 -0.442 0.355 38 29 17 0 0
0.2053 -0.2501 -1.7666 0.832 -0.443 0.334 67 49 26 0 0
0.2988 -0.2994 -1.9909 0.347 -0.929 -0.129 69 49 24 0 0
0.3085 -0.3080 -2.0975 0.825 -0.521 0.219 76 55 24 0 0
0.3033 -0.3063 -2.1078 0.777 -0.277 0.566 68 47 16 0 0
0.3318 -0.3198 -2.1410 0.600 -0.663 0.448 69 48 18 0 0
0.3610 -0.3336 -2.1730 0.614 -0.533 0.583 84 58 21 0 0
0.3635 -0.3348 -2.1766 0.614 -0.533 0.583 88 63 23 0 0
0.4106 -0.3597 -2.2913 0.760 -0.590 0.272 174 176 174 0 0
0.1300 -0.2126 -1.5190 0.511 -0.764 0.395 82 57 27 0 0
0.1331 -0.2148 -1.5382 0.534 -0.822 0.198 85 62 27 0 0
0.2038 -0.2543 -1.7607 0.859 -0.496 0.131 61 45 22 0 0
0.2062 -0.2555 -1.7644 0.817 -0.367 0.445 53 37 14 0 0
0.2071 -0.2561 -1.7693 0.895 -0.369 0.250 54 37 14 0 0
0.2079 -0.2566 -1.7742 0.870 -0.359 0.338 51 33 11 0 0
0.2664 -0.2899 -1.9700 0.973 0.058 0.223 71 52 27 0 0
0.2954 -0.3058 -2.0548 0.893 -0.408 0.193 74 51 20 0 0
0.2960 -0.3063 -2.0601 0.644 -0.508 0.572 74 51 19 0 0
0.2984 -0.3074 -2.0638 0.770 -0.449 0.453 77 54 21 0 0
0.2986 -0.3096 -2.1100 0.840 -0.510 0.187 67 46 17 0 0
0.3599 -0.3382 -2.1721 0.664 -0.543 0.515 87 61 23 0 0
0.3663 -0.3409 -2.1721 0.573 -0.818 0.056 90 65 25 0 0
0.3897 -0.3526 -2.2147 0.607 -0.529 0.593 102 78 32 0 0
0.3921 -0.3538 -2.2182 0.607 -0.529 0.593 102 80 34 0 0
0.4193 -0.3662 -2.2391 0.820 -0.425 0.385 97 79 44 0 0
0.0687 -0.1883 -1.4375 0.760 -0.647 0.063 119 96 64 0 0
0.0863 -0.1968 -1.4643 0.314 -0.949 0.038 104 80 46 0 0
0.1064 -0.2067 -1.4948 0.693 -0.184 0.697 98 74 36 0 0
0.2005 -0.2581 -1.7614 0.714 -0.346 0.608 53 35 15 0 0
0.2031 -0.2593 -1.7651 0.714 -0.346 0.608 51 35 14 0 0
0.2058 -0.2606 -1.7687 0.858 -0.465 0.216 48 32 11 0 0
0.2237 -0.2715 -1.8440 0.440 -0.679 0.588 65 44 22 0 0
0.2948 -0.3109 -2.0592 0.634 -0.652 0.416 72 49 17 0 0
0.3218 -0.3256 -2.1344 0.888 -0.385 0.253 66 46 18 0 0
0.3550 -0.3410 -2.1688 0.841 -0.271 0.468 87 62 22 0 0
0.3568 -0.3420 -2.1729 0.802 -0.296 0.519 88 63 23 0 0
0.3613 -0.3440 -2.1747 0.809 -0.514 0.285 92 67 26 0 0
0.3654 -0.3466 -2.1943 0.783 -0.431 0.448 93 68 27 0 0
0.4172 -0.3704 -2.2391 0.820 -0.425 0.385 84 68 33 0 0
0.0842 -0.2006 -1.4538 0.585 -0.463 0.666 116 91 54 0 0
0.0818 -0.2001 -1.4656 0.494 -0.869 -0.038 110 86 50 0 0
0.0813 -0.2001 -1.4711 0.494 -0.869 -0.038 99 74 45 0 0
0.0855 -0.2020 -1.4740 0.492 -0.870 0.022 81 58 26 0 0
0.0875 -0.2033 -1.4833 0.180 -0.822 0.540 102 79 46 0 0
0.1053 -0.2112 -1.4942 0.646 -0.493 0.582 97 73 35 0 0
0.1287 -0.2237 -1.5541 0.796 -0.559 0.233 84 61 29 0 0
0.2230 -0.2765 -1.8484 0.546 -0.804 0.234 65 46 25 0 0
0.2269 -0.2809 -1.9127 0.689 -0.030 0.724 64 43 19 0 0
0.2255 -0.2812 -1.9308 0.512 -0.798 0.318 62 42 18 0 0
0.2932 -0.3156 -2.0645 0.678 -0.725 0.121 82 59 27 0 0
0.0592 -0.1946 -1.4403 0.524 -0.631 0.572 128 100 70 0 0
0.1127 -0.2199 -1.5044 0.653 -0.489 0.578 84 60 24 0 0
0.1223 -0.2262 -1.5566 0.876 -0.454 0.159 94 70 34 0 0
0.2149 -0.2667 -1.5940 0.217 -0.719 0.661 147 119 79 0 0
0.2428 -0.2799 -1.6282 0.848 -0.508 0.149 81 58 27 0 0
0.1883 -0.2631 -1.7615 0.728 -0.538 0.424 66 43 21 0 0
0.1934 -0.2681 -1.8241 0.465 -0.797 0.386 66 44 23 0 0
0.1964 -0.2695 -1.8274 0.261 -0.807 0.530 64 43 22 0 0
0.1979 -0.2703 -1.8320 0.202 -0.892 0.403 63 45 23 0 0
0.2210 -0.2805 -1.8428 0.658 -0.426 0.621 65 47 25 0 0
0.2200 -0.2806 -1.8546 0.550 -0.815 0.183 66 46 22 0 0
0.2301 -0.2875 -1.9142 0.444 -0.895 -0.033 64 42 19 0 0
0.3152 -0.3329 -2.1306 0.851 -0.286 0.440 72 51 22 0 0
0.2420 -0.2845 -1.6273 0.910 -0.172 0.377 82 58 29 0 0
0.2106 -0.2815 -1.8489 0.988 0.110 0.108 67 49 24 0 0
0.2156 -0.2839 -1.8563 0.550 -0.815 0.183 65 48 22 0 0
0.3097 -0.3356 -2.1277 0.806 -0.472 0.357 70 49 20 0 0
0.3110 -0.3363 -2.1324 0.867 -0.443 0.230 72 51 22 0 0
0.3550 -0.3577 -2.1980 0.764 -0.588 0.266 94 69 28 0 0
0.3608 -0.3604 -2.2044 0.627 -0.772 0.105 95 72 30 0 0
0.3985 -0.3777 -2.2393 0.909 -0.415 -0.020 90 70 37 0 0
0.1195 -0.2356 -1.5662 0.779 -0.097 0.619 98 74 38 0 0
0.2164 -0.2773 -1.5955 0.434 -0.669 0.603 141 113 75 0 0
0.2372 -0.2877 -1.6343 0.587 -0.690 0.423 80 57 32 0 0
0.2109 -0.2867 -1.8470 0.988 0.110 0.108 68 51 25 0 0
0.2110 -0.2872 -1.8581 0.804 -0.588 -0.088 65 48 22 0 0
0.2109 -0.2877 -1.8693 0.623 -0.750 0.221 65 48 22 0 0
0.2313 -0.2975 -1.8987 0.785 -0.521 0.335 67 45 21 0 0
0.2302 -0.2973 -1.9052 0.870 -0.484 -0.094 67 45 21 0 0
0.2585 -0.3157 -2.0478 0.685 -0.518 0.513 73 53 24 0 0
0.3011 -0.3366 -2.1159 0.833 -0.428 0.350 73 52 23 0 0
0.3056 -0.3388 -2.1235 0.809 -0.361 0.464 72 51 22 0 0
0.3073 -0.3397 -2.1279 0.806 -0.472 0.357 68 47 18 0 0
0.3089 -0.3406 -2.1324 0.867 -0.443 0.230 68 47 18 0 0
0.3139 -0.3430 -2.1396 0.787 -0.564 0.249 73 52 24 0 0
0.3432 -0.3569 -2.1775 0.705 -0.370 0.605 90 65 25 0 0
0.3953 -0.3815 -2.2403 0.812 -0.358 0.462 92 73 41 0 0
0.3986 -0.3838 -2.2607 0.795 -0.301 0.526 68 60 41 0 0
0.4005 -0.3853 -2.2767 0.919 -0.389 -0.057 158 157 152 0 0
0.0207 -0.1937 -1.4365 0.335 -0.727 0.599 119 97 67 0 0
0.0371 -0.2014 -1.4539 0.707 -0.538 0.459 118 93 60 0 0
0.0538 -0.2086 -1.4605 0.320 -0.612 0.723 110 86 52 0 0
0.1184 -0.2402 -1.5656 0.779 -0.097 0.619 108 84 46 0 0
0.1257 -0.2433 -1.5665 0.321 -0.748 0.581 105 82 41 0 0
0.1302 -0.2453 -1.5690 0.525 -0.851 -0.002 108 84 44 0 0
0.2106 -0.2799 -1.5979 0.746 -0.210 0.632 135 110 69 0 0
0.1829 -0.2761 -1.7607 0.563 -0.613 0.554 79 58 32 0 0
0.1821 -0.2784 -1.8164 0.824 -0.559 0.093 71 50 28 0 0
0.2096 -0.2912 -1.8464 0.817 -0.573 -0.058 71 51 26 0 0
0.2070 -0.2915 -1.8762 0.751 -0.619 0.229 66 49 23 0 0
0.2078 -0.2921 -1.8812 0.738 -0.513 0.439 66 49 23 0 0
0.2185 -0.2977 -1.9068 0.334 -0.858 0.390 68 48 24 0 0
0.2175 -0.2976 -1.9132 0.465 -0.873 0.144 67 47 23 0 0
0.2191 -0.2984 -1.9176 0.246 -0.969 0.013 66 46 22 0 0
0.2486 -0.3160 -2.0311 0.720 -0.688 -0.090 121 99 64 0 0
0.2482 -0.3161 -2.0371 0.613 -0.790 -0.016 89 67 36 0 0
0.2500 -0.3170 -2.0415 0.606 -0.774 0.184 79 56 28 0 0
0.2788 -0.3308 -2.0809 0.591 -0.806 -0.029 116 94 50 0 0
0.3075 -0.3451 -2.1317 0.686 -0.523 0.507 65 44 15 0 0
0.3410 -0.3611 -2.1775 0.705 -0.370 0.605 90 65 25 0 0
0.3433 -0.3622 -2.1813 0.684 -0.470 0.558 92 67 27 0 0
0.3541 -0.3681 -2.2125 0.869 -0.338 0.362 93 68 28 0 0
0.3575 -0.3697 -2.2152 0.788 -0.269 0.553 99 74 33 0 0
0.3927 -0.3860 -2.2526 0.859 -0.356 0.367 71 57 32 0 0
0.3929 -0.3864 -2.2583 0.812 -0.423 0.403 69 56 36 0 0
0.4107 -0.3951 -2.2883 0.439 0.217 0.872 205 205 207 0 0
0.4330 -0.4036 -2.2721 0.994 -0.007 0.105 207 207 209 0 0
0.0307 -0.2037 -1.4509 0.544 -0.738 0.400 110 86 56 0 0
0.0337 -0.2051 -1.4545 0.694 -0.484 0.533 104 81 50 0 0
0.0362 -0.2063 -1.4584 0.314 -0.522 0.793 112 89 56 0 0
0.0602 -0.2166 -1.4663 0.364 -0.459 0.811 87 63 35 0 0
0.0621 -0.2175 -1.4705 0.534 -0.624 0.570 121 101 68 0 0
0.0639 -0.2185 -1.4747 0.455 -0.709 0.539 109 89 55 0 0
0.0677 -0.2202 -1.4778 0.185 -0.660 0.728 104 84 51 0 0
0.0675 -0.2204 -1.4832 0.511 -0.855 0.084 105 84 51 0 0
0.1029 -0.2380 -1.5471 0.861 -0.441 0.252 103 79 43 0 0
0.1195 -0.2456 -1.5636 0.759 -0.497 0.421 105 81 42 0 0
0.2090 -0.2842 -1.5975 0.746 -0.210 0.632 133 107 69 0 0
0.2135 -0.2861 -1.5999 0.654 -0.715 0.247 163 138 93 0 0
0.2447 -0.3196 -2.0324 0.778 -0.585 -0.231 116 93 54 0 0
0.2464 -0.3205 -2.0368 0.876 -0.468 -0.115 84 64 32 0 0
0.2497 -0.3220 -2.0399 0.721 -0.430 0.543 80 61 30 0 0
0.2708 -0.3320 -2.0685 0.456 -0.761 0.461 79 56 24 0 0
0.2728 -0.3331 -2.0726 0.730 -0.675 0.104 89 66 33 0 0
0.3095 -0.3517 -2.1455 0.925 -0.138 0.355 71 49 18 0 0
0.3557 -0.3740 -2.2149 0.788 -0.269 0.553 101 76 35 0 0
0.3936 -0.3927 -2.2792 0.814 -0.188 0.550 169 167 165 0 0
0.3947 -0.3934 -2.2841 0.734 0.099 0.671 189 188 190 0 0
0.4044 -0.3975 -2.2865 0.906 -0.082 0.415 202 202 204 0 0
0.0545 -0.2197 -1.4734 0.159 -0.824 0.544 101 80 49 0 0
0.0534 -0.2195 -1.4793 0.100 -0.932 0.348 106 85 54 0 0
0.0592 -0.2220 -1.4813 0.033 -0.835 0.549 103 82 51 0 0
0.0669 -0.2257 -1.4928 0.753 -0.555 0.354 101 78 45 0 0
0.0688 -0.2267 -1.4970 0.625 -0.775 0.093 102 79 45 0 0
