ply
format ascii 1.0
element vertex 677
property float x
property float y
property float z
property uchar diffuse_red
property uchar diffuse_green
property uchar diffuse_blue
end_header
-0.1494813859678841 -0.2693218607063568 -1.7770060328010822 68 47 24
-0.15026426415245103 -0.2711104166431617 -1.7812564053984092 75 53 27
-0.15119738075554368 -0.27328870617520445 -1.7852303541416976 79 58 30
-0.15187998671190822 -0.27481715102372417 -1.7896650962031504 67 48 22
-0.15256948078884108 -0.27636341485896415 -1.7940883271577808 51 34 11
-0.1528912273980081 -0.27695537113481106 -1.7991960113710819 52 34 13
-0.15326355377898263 -0.2776783530241989 -1.8042149413267403 76 55 32
-0.15316350601235126 -0.2771751356962958 -1.810122088884794 68 47 23
-0.15302798998686448 -0.2765794063022937 -1.8161063273033646 67 45 21
-0.15315318001648237 -0.27665997065580344 -1.8216109869116626 70 48 25
-0.1558785059479294 -0.283490505495621 -1.8222152587715725 70 48 25
-0.1523142619310167 -0.27399184226747864 -1.8347068938281872 70 48 25
-0.1538145821473053 -0.27764183936016795 -1.83762962897812 71 49 26
-0.15409006553297921 -0.27811141811682805 -1.842878001396238 72 50 27
-0.15350549688063908 -0.2763470440620558 -1.8497766856994153 72 50 27
-0.15490028276098003 -0.2797231628439952 -1.852896214842326 72 50 27
-0.15660984329036962 -0.2839172691320895 -1.855402996951483 74 53 28
-0.15747569216254595 -0.2859199468022648 -1.8595268416163722 74 53 27
-0.1578997512152949 -0.28677481212827927 -1.864504989070463 71 50 24
-0.1617486496385662 -0.29652872121619434 -1.8628373443454238 72 51 25
-0.15892523177737053 -0.2889448838278357 -1.8741292014112578 71 49 26
-0.1589799699820408 -0.28883937590438685 -1.8798412968804146 67 45 22
-0.1625047491733271 -0.29775286163281106 -1.8787612021374638 66 44 22
-0.16412293945616505 -0.30171163761760583 -1.881396327644121 67 45 22
-0.1651068558581333 -0.30402190055209455 -1.885272262811412 67 45 22
-0.16605638496041758 -0.3062428569621624 -1.8892138722487024 69 47 23
-0.16350897317992938 -0.29937096759663057 -1.9000927772069804 71 49 26
-0.16505862474285363 -0.30315180332228714 -1.902857387106741 70 48 24
-0.16615759837178112 -0.3057609224497328 -1.9065125592623087 67 45 21
-0.16758952220069462 -0.3092362171692067 -1.909497144466916 68 46 22
-0.16805907319147848 -0.3102084281574332 -1.9144072094301132 60 39 15
-0.1682036740924957 -0.3103350921665002 -1.9199760654082803 65 43 20
-0.1686776080121657 -0.3113182817921243 -1.9248872519762061 66 45 21
-0.1699821695622379 -0.31446266890630054 -1.9281183137956939 67 45 22
-0.17066125503446106 -0.31597961731473034 -1.932615052167806 64 43 21
-0.17092498173496368 -0.3164154862286557 -1.9379604874357017 63 43 22
-0.17181964083793805 -0.3184933164455847 -1.9420215563028072 51 33 12
-0.1727669004979763 -0.32070812723083036 -1.9459734114690381 65 47 24
-0.17324126504488047 -0.32169187918246794 -1.950896834746376 87 70 42
-0.17456489267672604 -0.32488666865957044 -1.9540706692545915 85 66 37
-0.17565156756051195 -0.3274647290097079 -1.957728614931708 72 51 25
-0.17719988079859803 -0.33124514994474036 -1.9604238924523048 50 30 8
-0.178746642178504 -0.3350219332418176 -1.9631129118891535 57 38 16
-0.1799004809867852 -0.33777565709214424 -1.9666136155511056 56 37 15
-0.18136567577689233 -0.3413406624220041 -1.9694570781446188 59 37 16
-0.17805514017169138 -0.3324638962259948 -1.9823332273338263 61 39 18
-0.180654394111423 -0.33898319257397824 -1.9827982690009074 63 41 20
-0.18072230031223627 -0.3389072185120083 -1.9885947637462593 64 42 21
-0.18318663796429857 -0.3450761766204772 -1.9893163002177825 61 39 18
-0.18478686606957612 -0.34899385538910876 -1.9918553387496918 66 44 22
-0.181734644002753 -0.34078473266379783 -2.004313706546108 71 49 25
-0.18355676077309763 -0.3452804686869535 -2.00638681804404 72 51 25
-0.18287694866848617 -0.34325378810668317 -2.0138185549851704 76 56 25
-0.18304538292477804 -0.34343806550333933 -2.019442498955133 90 70 41
-0.18622718181026476 -0.35148002491323177 -2.0185660345922734 79 59 31
-0.1861113031441451 -0.35092295399830836 -2.0248026123769267 94 73 38
-0.1883577653361327 -0.35652701159183336 -2.0259181983842693 82 60 30
-0.18961394053870234 -0.35954865702343297 -2.0291730576847757 83 61 35
-0.18923984188841217 -0.35831746470585546 -2.0359850831019726 85 62 32
-0.19037333773288762 -0.3610190890514582 -2.0395074288951323 87 64 33
-0.1897160971616946 -0.35904820353100486 -2.0469624046036703 82 59 28
-0.18932600355556908 -0.3577736762076137 -2.053847131031373 79 56 25
-0.1918255730107124 -0.3640402970889631 -2.05435663794888 81 58 27
-0.19151218762386532 -0.3629654818799094 -2.0610832424645578 81 60 29
-0.1939633435388 -0.3691068311309277 -2.061674357749852 84 62 31
-0.19366737333476397 -0.3680770201494751 -2.0683729715948243 83 61 30
-0.19403100816986274 -0.3687688549758686 -2.073609877456277 86 63 30
-0.19378342538585697 -0.3678643670550464 -2.0802241317646786 71 50 23
-0.19545522265703613 -0.37197194040908804 -2.082531982249741 77 58 25
-0.1959523182322997 -0.37301182991325615 -2.087480024270348 111 88 45
-0.1972171021902469 -0.3760568741673663 -2.090693988759515 91 69 33
-0.19931646463518946 -0.3812824662275462 -2.0920068067846085 81 59 27
-0.20086672251411072 -0.38507413709473565 -2.0945527697631228 84 60 27
-0.19936473067126426 -0.38089070394575464 -2.1040593774854552 84 61 27
-0.2013632157409608 -0.3858537117248239 -2.1055788948911505 85 62 28
-0.20307846484624834 -0.3900771447289022 -2.1077330247313797 89 67 30
-0.20397073470732124 -0.39214995599262303 -2.1117708003939217 90 68 31
-0.2046113688312263 -0.3935650140660215 -2.1163886308441104 90 68 31
-0.20504824521331144 -0.3944472774397338 -2.1214806197068596 90 68 31
-0.2057487669311216 -0.39601869202075346 -2.1259647289542625 84 62 25
-0.20691564467128182 -0.39880956922832167 -2.129363257159916 87 65 28
-0.2090766553540266 -0.40420059063638086 -2.130433298594098 88 66 29
-0.20952385396120513 -0.40510981539318913 -2.1355019626810483 87 65 28
-0.21094187008515594 -0.40855835337840046 -2.138293220685182 92 70 33
-0.21260211517755384 -0.4126409548915452 -2.1405049992060974 95 73 36
-0.21427749995552578 -0.4167636683918368 -2.1426692384429913 100 78 41
-0.21496324736845354 -0.41829729607125743 -2.1471678690253007 99 77 40
-0.21518138120567193 -0.41860711809611567 -2.152779777934256 92 70 32
-0.21642629343936917 -0.4216039861627314 -2.1559510856434 93 71 34
-0.21651630611468872 -0.4215780749434171 -2.1618779664958345 92 70 33
-0.21843628566088705 -0.42634237401194774 -2.1634258476835218 94 72 34
-0.21964005302372597 -0.42923217054778845 -2.166680786426616 104 81 40
-0.21958311375270212 -0.42882110642952775 -2.172970689346154 111 88 47
-0.21984929604213188 -0.4292557209341129 -2.1784906720882584 103 81 41
-0.22062956939381936 -0.4310364527752855 -2.1827708941176156 103 79 40
-0.2220261898338329 -0.4344315955553048 -2.1855520254040006 108 85 44
-0.22251629811153942 -0.4354523721383481 -2.19053610765845 110 87 46
-0.22383704494494475 -0.4386491777825858 -2.1934923810736473 112 87 48
-0.2255116062494884 -0.44277336525569533 -2.1955733486812035 113 88 48
-0.22737544414463598 -0.44739407571602957 -2.1971764147468176 115 90 50
-0.22821274423899782 -0.4493250666596505 -2.201297085830148 117 92 51
-0.22968503376072524 -0.452920457714848 -2.2038461063594426 122 96 57
-0.2310423088918799 -0.45621475616095775 -2.2066709446184176 122 97 58
-0.23011858487823128 -0.45352930986596784 -2.2151628733470416 119 94 54
-0.2311095329252981 -0.4558631001637573 -2.218901712338138 117 92 51
-0.2326708620038588 -0.45969271592288263 -2.221210647996272 117 93 50
-0.2343275318185886 -0.46377283309658146 -2.223269530055795 111 88 48
-0.23865137815782705 -0.4748491782822365 -2.218605548285804 112 87 47
-0.23974578078019948 -0.4774562039425336 -2.2220398121079348 112 89 49
-0.24074667144945683 -0.47981808845745694 -2.2257062923614286 108 83 47
-0.24183041908321162 -0.48239750294872097 -2.2291594805172066 110 86 48
-0.24252044966198985 -0.483943948719344 -2.2336101374447423 109 87 50
-0.2429470054986642 -0.48479887660500054 -2.2387343364364707 101 79 47
-0.24296646114181 -0.4845850740460187 -2.2449051589808473 102 80 49
-0.24537599098661106 -0.49064475206673774 -2.2449549305757213 104 83 51
-0.2475756863839685 -0.4961545380651092 -2.245521364821593 90 76 47
-0.2493206623372614 -0.5004712712767696 -2.2472406663747018 75 64 42
-0.2506033542011986 -0.5035746741562945 -2.2501421152640115 85 76 60
-0.25287503722330273 -0.5092756895962175 -2.250470735814148 114 108 95
-0.24486894084826413 -0.4879827872530455 -2.277514275462786 148 146 140
-0.24176589026573178 -0.4795639686760274 -2.291894324879263 177 176 176
0.009145014223226222 0.10501358045693765 -0.8990102460310121 156 150 143
0.002564982571829161 0.08837876021529889 -0.8986346940930842 117 102 82
-0.0015844286225558113 0.07796680584768251 -0.9001563395920618 129 109 81
-0.005305938444174152 0.06864954297570214 -0.9019935082568513 126 107 75
-0.008867256456579209 0.05974147901180532 -0.9039349104956662 127 107 75
-0.008686266178025592 0.060418971789519826 -0.9088989690899499 139 118 89
-0.012319661253100272 0.05132483027681056 -0.9107492884281547 124 105 75
-0.015668858845030553 0.0429577202969178 -0.9128086002126767 135 110 74
-0.017991494689967857 0.037219941290199954 -0.9156946641901273 177 147 107
-0.019140569629752663 0.034488768005478954 -0.9195431215605048 134 108 74
-0.02289442646932552 0.02508228717685168 -0.9212108185143459 111 90 55
-0.024158094274955744 0.022056631187294173 -0.9249450003081442 118 97 65
-0.02528911717477536 0.019370758427692314 -0.9287869109737759 146 122 85
-0.026914559013897776 0.015417430490415218 -0.9322058437872515 114 89 54
-0.028594322858152416 0.011324517807115464 -0.9355708949057477 96 73 41
-0.027322367844914208 0.014798368684553143 -0.9414602388549924 87 66 39
-0.02628426924354929 0.017673451422631214 -0.9471659271392279 91 72 43
-0.027646052819392364 0.014395889693231356 -0.9508075318040077 110 90 61
-0.026313700431538134 0.018026452680894645 -0.9567909341147823 85 64 35
-0.025826376513670646 0.01949083830558329 -0.9620530775086383 105 84 55
-0.0244222259276497 0.023307025978861695 -0.9681332256076232 81 60 31
-0.024317178657408428 0.023792119068198614 -0.9730837153658471 109 88 57
-0.023030293419015718 0.027308983447652868 -0.9790925825393809 106 85 54
-0.02371564469477383 0.025767471837532807 -0.9833579072316546 98 77 48
-0.025413975474241984 0.021627295666447333 -0.9867145815621708 103 85 64
-0.02843166832948532 0.014101796746414541 -0.9888725895812028 151 143 135
-0.029938416360382136 0.010452190715785625 -0.9923806188913625 183 184 186
-0.00893195685402276 0.07133839705938455 -1.1688190122691637 155 155 149
-0.0036368438859936125 0.08518972629021537 -1.1795919973254927 62 56 42
-0.005938863115619308 0.07949985472226745 -1.1823843478322942 45 31 16
-0.009704062283054482 0.07004500312343065 -1.1836077624071901 42 32 18
-0.011758072315333101 0.06499169293258 -1.1866299369574407 40 30 20
-0.01664311328362858 0.05265321631961345 -1.1866051535817355 41 33 22
-0.01887867810384461 0.047131066019297285 -1.1893949783801894 82 71 57
-0.01577670455685612 0.05534479930574382 -1.1979442104956457 66 53 32
-0.02138751862724006 0.04113544781726364 -1.1970656857090736 80 65 35
-0.0262837860304187 0.02876330528102028 -1.1969212327227525 76 60 27
-0.030999234680537197 0.016854900376064963 -1.1969360723254594 100 82 46
-0.03636746237575808 0.0032643264655612403 -1.1961952900758286 81 62 29
-0.03875484120167108 -0.002653640744066932 -1.1987057270606916 82 63 32
-0.04545814221860914 -0.019685033928907247 -1.1964100210758275 118 99 71
-0.047329253214653644 -0.02427585637266577 -1.1994450012495976 97 80 56
-0.0490901007694331 -0.02858318229223128 -1.2025930849445747 81 65 44
-0.051827952506572045 -0.03540716039870162 -1.204633301779625 105 90 67
-0.054750604550296816 -0.042707954789228286 -1.206446135735584 104 91 66
-0.057404581968814816 -0.04931758417991766 -1.2085431253869654 107 90 65
-0.0589221497826419 -0.05300050381620025 -1.2119162884755839 103 85 61
-0.0606874874672787 -0.05732207137473849 -1.214999017245249 131 110 88
-0.06533225837684431 -0.06906300881407024 -1.2147653740052908 154 131 108
-0.06647751584896158 -0.07178824806088058 -1.218530333515625 133 112 89
-0.06877466408269675 -0.07748202141159427 -1.2209577195786745 130 110 88
-0.07050618268071945 -0.0817187214070923 -1.2240281964062045 108 88 67
-0.07179184687449919 -0.0848066915436208 -1.2276100887776555 113 93 67
-0.0694866992667581 -0.07863918188268448 -1.2353978849354117 75 58 34
-0.06837133985096516 -0.07553740351979316 -1.241814645747145 35 22 7
-0.06620517147083788 -0.06972577935103574 -1.2494923555776467 37 24 12
-0.07197034859678156 -0.08436191363900636 -1.2477819819812987 52 36 21
-0.06451983620500351 -0.06492391854434898 -1.2617784019257947 39 27 15
-0.06380033543829422 -0.06283953797583619 -1.2677978443335458 36 25 10
-0.06305342082713505 -0.06068380494013287 -1.2738649837397122 48 35 21
-0.06193707960720754 -0.0575746062033784 -1.2803930285598122 57 42 29
-0.06191719344797153 -0.057292711127546414 -1.285611096910977 51 36 22
-0.06180375211287448 -0.0567691313109992 -1.290950954830651 39 26 13
-0.06199552178967885 -0.05703253410328801 -1.295926846486401 36 24 13
-0.0626452930355634 -0.05847731915271248 -1.3003468561067302 50 35 18
-0.061869947733089875 -0.05624492799602443 -1.306523352156702 47 29 11
-0.06304488928067026 -0.059044446992413235 -1.3103038220676921 52 33 15
-0.06338852997476654 -0.05969882976408125 -1.3151125137621877 62 41 20
-0.06477856009109448 -0.06305362196804098 -1.3186213950892633 64 42 18
-0.06583002842102556 -0.06553481625761054 -1.322547995628732 77 56 30
-0.0669760846857291 -0.06826028798513151 -1.3263531574894674 112 93 69
-0.06625768978139168 -0.06617275272920203 -1.3325065606768982 100 77 55
-0.06708761700607374 -0.06808195466579164 -1.3367142771072789 91 74 53
-0.06803244117770318 -0.07028783640644426 -1.3407755288995284 81 61 31
-0.0684451522006155 -0.07111975761427086 -1.3455144332507545 104 82 60
-0.06987302964853873 -0.0745731110876332 -1.3489562790481269 48 27 7
-0.06992813366402853 -0.07448134439442228 -1.3541577352832457 118 92 60
-0.07086571912544007 -0.07666859368940504 -1.3582268878560952 164 131 100
-0.07239798982390239 -0.08039204314037396 -1.3615235370842962 181 150 108
-0.07392812737256235 -0.08411031426561999 -1.3648154781318058 197 165 125
-0.0762187440985991 -0.08979365692696678 -1.3671062609864024 151 117 79
-0.07813723375199222 -0.0945161803152953 -1.3698699641446765 147 114 77
-0.07868717020621416 -0.09570286448985643 -1.3744243022010731 146 115 80
-0.08154277793891179 -0.10284782709113338 -1.375933261225391 159 128 92
-0.08280736435362684 -0.10588179861103919 -1.379532402118975 146 118 82
-0.08431410038771844 -0.10954186629965074 -1.3828041154046768 115 86 54
-0.08510631469896646 -0.11135528644607245 -1.3870239099098007 143 113 80
-0.08539608635971435 -0.11186982649563904 -1.3919180607505721 145 117 81
-0.08762735066825311 -0.11740360596854832 -1.394201324424591 179 150 112
-0.08950426342956061 -0.12202183507117637 -1.3969490380590224 129 103 69
-0.09080429595566397 -0.12514885376985768 -1.4004687488993803 141 114 88
-0.09245368741265014 -0.1291795670096737 -1.4035070442976991 145 116 84
-0.09457057562157783 -0.1344197522309694 -1.405896902998123 165 135 93
-0.09539203455969769 -0.13630991277744553 -1.4100517876779506 151 120 74
-0.09739023463240629 -0.1412440093787552 -1.4125843722903786 139 111 62
-0.09890328455802533 -0.1449235981696046 -1.4157755615739662 123 94 56
-0.1007128851108483 -0.14937075821021634 -1.418547358514925 112 85 52
-0.10194538504886991 -0.15232518733020084 -1.4221128639769414 127 99 59
-0.10373553442412017 -0.1567228308058054 -1.4248934856085695 130 101 61
-0.10412819414272781 -0.15750439449537307 -1.4296260181959108 117 90 59
-0.10494370203170433 -0.15938016096197727 -1.433766588154212 155 129 94
-0.10527211207541126 -0.1599951636314343 -1.4385958766037326 112 84 41
-0.1058334509508411 -0.16121291268135468 -1.4430991406953604 114 88 48
-0.10643421002840617 -0.16253261182661777 -1.447548512300909 98 73 42
-0.10668788818971889 -0.16295361774393452 -1.4524962349915191 95 70 39
-0.10768023836228874 -0.16528700903658633 -1.4563889962916265 108 84 48
-0.1086723375053236 -0.1676198493915313 -1.4602798870580667 132 110 72
-0.1101210712369736 -0.17113535887466297 -1.4635081513688672 111 87 48
-0.11105646699176397 -0.1733216440132086 -1.4674744605540264 98 74 40
-0.11174807719988361 -0.17487654407897973 -1.4717942638635524 106 82 47
-0.11296746168973032 -0.1777985786789446 -1.4753433475103879 105 81 47
-0.11454624004455002 -0.1816518990402859 -1.4783603924223363 95 71 36
-0.11723043505771305 -0.1883696506660716 -1.4797409886060986 88 63 30
-0.11866060933447337 -0.19183893033098676 -1.4829547733164685 77 52 24
-0.1198562679609719 -0.19470079529272083 -1.4865094647208246 75 51 24
-0.11964294760724295 -0.19391129682082603 -1.492157219372513 71 49 20
-0.12001586659527833 -0.19464078730493362 -1.496939690272906 71 50 23
-0.12075341366745287 -0.19631524256940114 -1.5011797665981692 63 41 18
-0.12003979056579328 -0.1942277373714697 -1.507603932725628 62 40 17
-0.12313579941519637 -0.2020163304281971 -1.5082910677993322 62 40 18
-0.1216267569269337 -0.19786592572882683 -1.5159322802372994 66 44 23
-0.12267890881330618 -0.20035577598403853 -1.519702801297321 69 47 23
-0.12440522417929231 -0.20459407007211655 -1.522441392066975 88 65 35
-0.12507652574489936 -0.20609659172082712 -1.526785702946365 86 62 33
-0.12651754467451962 -0.2095955452664927 -1.529948015637983 78 54 27
-0.12690113190286484 -0.21035181101778072 -1.5347342664865948 77 53 27
-0.12586179026874858 -0.20741642680945405 -1.5417274486232555 72 48 20
-0.12847468409624987 -0.21395592829831855 -1.5430669617708732 76 52 24
-0.1272955827840295 -0.21065702866105263 -1.550297688173408 79 55 27
-0.12807423568103107 -0.21243754275714855 -1.5544872139357069 78 56 27
-0.1288295222371887 -0.21415741554392714 -1.5587134222922705 66 44 18
-0.1306352949132763 -0.21860379297835875 -1.561285100771567 72 48 20
-0.13087761711259807 -0.21899238472611882 -1.5663169311051028 78 56 24
-0.13107124723025418 -0.21925431215480695 -1.5714318827770335 82 62 29
-0.13095791321189434 -0.2187190100145246 -1.5770418735731788 97 74 43
-0.13270610111921052 -0.22301663190707838 -1.5796883930106678 78 56 27
-0.13434780649220754 -0.22703822496900034 -1.5824948907457812 80 60 31
-0.13768771846653652 -0.2354703934930898 -1.5825606491661008 126 102 67
-0.13995465759556783 -0.24111710406748543 -1.584329636335768 160 127 80
-0.14045617124963145 -0.24217896419956347 -1.588940964033318 154 125 85
-0.14266056421061601 -0.247664233743214 -1.5907882893121532 146 123 85
-0.14428320920860999 -0.25163886737563124 -1.5935682464613004 173 151 107
-0.14654940325257623 -0.2572859765668886 -1.595285871834521 151 125 78
-0.14943018185020662 -0.2645307784266374 -1.5959779204217441 152 129 82
-0.15242604076073665 -0.27207568288667594 -1.5964568414919902 152 127 81
-0.154122683615962 -0.27624512994265504 -1.5990582156671964 155 128 82
-0.1562886872557695 -0.2816349885309591 -1.600870789625568 149 120 75
-0.15914977075052406 -0.2888323498546381 -1.601511027893612 147 120 73
-0.16097172325396258 -0.29332935768471724 -1.603862706284815 191 168 127
-0.16253061024852727 -0.2971429443340266 -1.6066431919654292 120 99 65
-0.16409478794736912 -0.3009706857254591 -1.609405819943223 77 55 24
-0.16577361846569613 -0.3050969745540697 -1.6119660305855084 108 89 59
-0.16667255641113765 -0.3071954770371324 -1.6158356445293225 108 90 59
-0.1680366190573156 -0.3105038031484787 -1.618913969320396 73 51 26
-0.16606189393790927 -0.3051276512118958 -1.6276733895922464 69 47 23
-0.16557661235265056 -0.3036248012317304 -1.6339180628848482 67 45 21
-0.16733500884721872 -0.30795865947587314 -1.6363291181606752 68 46 20
-0.16538767042398062 -0.3026509330631469 -1.6451052222591693 82 61 30
-0.16534115978626865 -0.3022881466721188 -1.6506307386702048 115 92 57
-0.1606945482170539 -0.2899534392237351 -1.6641334814754016 97 77 44
-0.15731491264502181 -0.28091353315441375 -1.675496482176153 90 73 41
-0.1559038536132217 -0.27699562484510115 -1.6834747582408793 100 83 53
-0.14714054434607027 -0.2539371528177371 -1.7043398055703367 80 62 31
-0.1472096034336652 -0.2538685646573852 -1.7098130215934417 61 42 12
-0.14748514594019563 -0.25433723535876374 -1.7149308992569159 74 53 25
-0.14664386770881177 -0.2518974680414501 -1.7220277022356683 78 58 27
-0.1469409559305434 -0.25242143844900844 -1.7271256443819822 56 36 14
-0.14799874813877278 -0.2549264046599305 -1.7308765455040942 61 41 14
-0.1483498429694009 -0.2555907403238152 -1.7358850850509093 81 58 29
-0.14916631818628193 -0.2574671708764822 -1.740065723066991 68 44 16
-0.15016524348148405 -0.2598189478617708 -1.7439183937212688 86 65 38
-0.15111019213648988 -0.2620301970843547 -1.747865831938462 48 28 5
-0.15171481341337809 -0.2633547080600939 -1.752426522013035 71 51 26
-0.1523197312517023 -0.2646798971972761 -1.7569888071356827 70 50 25
-0.15258709206780458 -0.26512521458072735 -1.7621672757154938 62 42 18
-0.15278992316522313 -0.26540205984940773 -1.7674696147256075 64 44 20
-0.15335158275307254 -0.26661400393350554 -1.772121870664909 61 41 16
-0.15375602500238011 -0.2674159498502123 -1.7770655625732277 67 46 20
-0.15469508319505812 -0.26961162662734983 -1.78102867346546 78 57 30
-0.155253280297718 -0.2708142435510605 -1.7856940495599494 71 48 22
-0.15585048890292255 -0.2721184766737843 -1.7902898051665146 65 47 22
-0.15627569942895064 -0.27297401380150704 -1.7952078189914915 51 34 10
-0.15684616654347752 -0.2742082471312656 -1.799859050856011 54 35 11
-0.15740852368469643 -0.2754212087513885 -1.8045280680120437 71 49 26
-0.15702698286686065 -0.27417148318748713 -1.8109726884664117 60 38 17
-0.1578756008258422 -0.2761308655340247 -1.8151133708951566 67 45 21
-0.1572084575894784 -0.2741349541322871 -1.822118488036629 70 48 25
-0.15908247884251753 -0.2787700213645006 -1.8243224663485356 72 50 27
-0.15630235226891967 -0.27125835491779077 -1.8353666586946018 71 49 26
-0.16183593127707505 -0.2854457455799884 -1.8305893184275495 71 49 26
-0.16226124673611017 -0.286300390580536 -1.8355333951419186 72 50 27
-0.15795947459968995 -0.27481336665090156 -1.8495592013186224 72 50 27
-0.15746537906987512 -0.2732657097197563 -1.8563117120992187 72 50 26
-0.15898236809593522 -0.2769689771090377 -1.8591936478601885 75 53 29
-0.15998496008613605 -0.27932923131881604 -1.8630639582284299 76 54 30
-0.15978336366463786 -0.27854440916268713 -1.869273291636384 68 46 22
-0.1619897483621279 -0.2840490427954099 -1.870797767279117 71 49 25
-0.1631890233239914 -0.28692345159624094 -1.8742756391661113 72 50 26
-0.16423848465718985 -0.2894066640545513 -1.8780426170877333 68 46 23
-0.16455171844743452 -0.28996628461305907 -1.883256018536482 66 44 22
-0.16632891284145168 -0.29435130764613915 -1.8855839641075778 66 44 22
-0.1675902860495243 -0.297388767017867 -1.888921765685429 67 45 22
-0.1694055376039897 -0.30187419426602263 -1.8911531019984855 69 47 24
-0.16819143767064185 -0.2984413143810605 -1.899410671268929 69 47 24
-0.1697954831373096 -0.30237487109635675 -1.9020578075175851 69 47 23
-0.1707970527856248 -0.3047336423051454 -1.9059033652693556 68 47 22
-0.1718631933992963 -0.3072613727128188 -1.9096164280131898 63 43 18
-0.1725810485927844 -0.3088784371081678 -1.9140289941721196 58 38 13
-0.17289237517628586 -0.30943221772589 -1.9192654419345363 61 41 16
-0.17320401725345222 -0.30998655807222 -1.9245072292158076 64 44 19
-0.1752529864989703 -0.3150854305583495 -1.9262164385956597 64 44 19
-0.17635515128817325 -0.3177079227955014 -1.9298443339676254 61 43 20
-0.17678976645865374 -0.3185839263129048 -1.934836347430394 60 42 21
-0.17557544034869893 -0.3151447763911028 -1.9432222742763041 59 41 18
-0.17643208245414266 -0.3171244024487183 -1.9473634433951625 75 57 30
-0.17738274965862924 -0.3193501609872321 -1.9513093752633228 91 72 42
-0.1785716671207658 -0.32219966029277597 -1.9547591196246916 74 54 27
-0.1798420293525586 -0.325262596395404 -1.9580344279745647 65 45 21
-0.18122227688562084 -0.32861350127186145 -1.9610743917259792 54 33 12
-0.1823960059098273 -0.3314239711454626 -1.9645392357257159 56 35 14
-0.18455541548039509 -0.3368159168237998 -1.9659297029812413 57 36 15
-0.18526806361215228 -0.33841950292474837 -1.970349648779463 58 36 15
-0.18387023557307677 -0.334495023229833 -1.9792285695376854 61 39 18
-0.1860982201798918 -0.340067510301726 -1.9804534379137462 62 40 19
-0.18654754532757695 -0.3409809177459857 -1.9854397470377327 64 42 21
-0.18699724487319044 -0.3418951120329987 -1.9904296309846319 63 41 18
-0.1857850986694433 -0.33845431623922634 -1.9989766308153167 70 48 24
-0.18657128340411674 -0.34024948924083087 -2.0032644283038983 71 49 23
-0.18705593146033772 -0.3412543221138031 -2.008200826640963 71 50 23
-0.18733525043154117 -0.3417207467854094 -2.0135841138445434 71 50 20
-0.1886334364428889 -0.34485793659046854 -2.0167696979124257 88 69 40
-0.19007098291777377 -0.3483608017166964 -2.0196463803079525 78 58 29
-0.19114581194989297 -0.3509129286832461 -2.023304179447868 100 79 44
-0.19258353224020905 -0.35441688439344865 -2.026166185372637 79 59 29
-0.19408086528788704 -0.35807756008212205 -2.028889323427357 86 64 39
-0.19495262123105853 -0.3600977315517801 -2.03297700409659 76 53 25
-0.19411727940780038 -0.3576396792690001 -2.04082333681579 87 64 33
-0.1941650866964453 -0.35749772639315247 -2.0467400955349095 77 54 23
-0.19381645311413523 -0.35631511889179734 -2.053544879680393 80 57 26
-0.19433315237698656 -0.3574026480325814 -2.058441870864449 82 59 28
-0.1946654936517381 -0.358006170537706 -2.063753358028609 82 59 28
-0.1962829084352836 -0.3619824520793414 -2.0661986821069034 83 60 29
-0.1973359241898643 -0.3644776278242403 -2.0698983946857066 83 60 29
-0.19852679903540135 -0.367334883902607 -2.073284773142522 89 66 33
-0.19964002367993525 -0.36998848938722567 -2.076841018468825 74 52 25
-0.2012162746318456 -0.3738581635831764 -2.0793459479215124 82 59 21
-0.20243171057754059 -0.37678071069429453 -2.0826588784128655 116 93 48
-0.2039843515719364 -0.38058918649085205 -2.0851991801738046 87 67 31
-0.20451072328983652 -0.38170227655968564 -2.090070658123954 81 58 28
-0.20544543137198876 -0.383887959520299 -2.0940114128138383 81 58 26
-0.2045521920098265 -0.3812709408375476 -2.1021447795216592 82 59 25
-0.20678003034509482 -0.38685422941917996 -2.10311803910292 83 60 26
-0.2061185650861201 -0.3848452411211124 -2.110740681205703 88 66 29
-0.2081861885323564 -0.39000828064328397 -2.1120657500372957 89 67 30
-0.20927489155759213 -0.39259888023193296 -2.115646219789299 89 67 30
-0.21027975513071379 -0.39496925007439626 -2.1194179073465693 90 68 31
-0.21147827651410633 -0.3978489129560172 -2.1227345720496276 87 65 28
-0.2122828449531789 -0.3996929173630492 -2.12696825476122 88 66 29
-0.2120371225749116 -0.39877486812504914 -2.1336682663195226 89 67 30
-0.21293138765521424 -0.40085448311761296 -2.1376974814804597 89 67 30
-0.214215401984825 -0.4039593582644745 -2.1408047620107014 92 70 33
-0.21582768696989557 -0.40792811412488134 -2.1431277868484306 91 69 32
-0.21751879779397296 -0.412104756917223 -2.1452524026460487 98 76 39
-0.2187901271325516 -0.41517736705345915 -2.1483648305406766 98 76 38
-0.21945070977802503 -0.4166430167332889 -2.1529298920810946 95 73 34
-0.2206785184117153 -0.41960148130074354 -2.1561376440988376 95 73 36
-0.22153627437043139 -0.4215861496631703 -2.1602286032516 93 71 34
-0.22221798559020095 -0.4231074158577442 -2.1647428649167764 95 71 33
-0.22345290366899054 -0.4260851183193611 -2.1679217261724215 104 81 40
-0.2242957864513125 -0.42803080816565775 -2.172044571544477 109 86 45
-0.2236016796285435 -0.4259289479779924 -2.1799022298811273 103 80 39
-0.22415225102499914 -0.4271043539527117 -2.184746711100046 105 83 42
-0.22547389656786213 -0.43031066930467554 -2.1877098185616557 106 83 42
-0.23014808506310924 -0.4423491522045891 -2.182447791985476 108 85 44
-0.23129641210428198 -0.44510051756558516 -2.1857989086923317 113 88 48
-0.23150592473380419 -0.44537834061185194 -2.191459297980665 115 90 50
-0.23171964635152884 -0.44566689753477184 -2.197117347071906 116 91 51
-0.2310651025705356 -0.4436666902801892 -2.2049359313811543 118 93 52
-0.23244334218630688 -0.44702383920218247 -2.2077210384346886 122 97 56
-0.23543893364143637 -0.4546450674669537 -2.206465663084798 123 98 58
-0.23320825616857116 -0.44848839036356614 -2.2182456422048693 121 96 56
-0.23453074863881682 -0.45169902210931095 -2.221159705935099 116 91 51
-0.2357693477407293 -0.45468874632660583 -2.2242771865496707 113 88 47
-0.23714593726902344 -0.45804269950655535 -2.227040409206215 103 78 38
-0.24275849137265265 -0.4725706334522095 -2.219085259278603 111 86 47
-0.24382532966960221 -0.4751095011250177 -2.2225871584819803 111 88 48
-0.24477104393443927 -0.47732897014811143 -2.2263930087411143 109 85 47
-0.24349446670967537 -0.47368448682044517 -2.235862669318367 110 86 48
-0.246811709473939 -0.48216206014383883 -2.2336162320107804 108 84 48
-0.2458494922264503 -0.47934613553974864 -2.2423059160882888 106 82 49
-0.24652848495236687 -0.4808613931558971 -2.2468008730042457 109 87 53
-0.24970565713403597 -0.48897180591673156 -2.244856395745362 108 87 56
-0.25093531168048 -0.4919416537776546 -2.2479127588540027 85 72 43
-0.25230073220386695 -0.49527029728874344 -2.2506107055266793 77 65 43
-0.2535953102279922 -0.49841222082822223 -2.2534844318305582 90 79 62
-0.2545849664987427 -0.5007490860985049 -2.257145706525766 116 110 97
-0.2676070015664273 -0.5337735570756899 -2.254065069181457 204 205 207
0.005463481741339371 0.10843979813046029 -0.8994565452978875 172 169 164
-0.001520723348220454 0.0906991294082517 -0.8987431938879124 119 107 91
-0.00518653919590123 0.08149275344409179 -0.9006446059570308 122 104 77
-0.009186366678972296 0.07142588431547758 -0.9022509002410914 126 107 76
-0.011833134579803645 0.06483910120521291 -0.904929047032565 126 106 75
-0.014075904015909496 0.05929112274831322 -0.9079210769909349 145 124 94
-0.01803229731557629 0.049332759230757584 -0.9094923927460083 132 111 79
-0.021032140403535793 0.041834864632625146 -0.9118259991825022 134 107 70
-0.02354863616926192 0.03558009804597184 -0.9145414756049899 170 139 100
-0.024851769004129026 0.03244779762300698 -0.9182545177963827 149 122 83
-0.027955919824837083 0.024679130637737245 -0.9204515980190872 110 88 56
-0.029753643752543968 0.020272763903506186 -0.9237301855942471 119 98 69
-0.03149644035848406 0.016007394310270484 -0.9270463014353364 138 114 79
-0.03351369855360112 0.011034945803037433 -0.930119898222518 123 97 63
-0.03432647155923188 0.009163535456201521 -0.934214434385501 99 77 45
-0.03407795011589421 0.010025155778098038 -0.939222554145395 96 75 49
-0.034802893686248865 0.00838012300088048 -0.9433970312766984 94 73 46
-0.03323688996600552 0.012635701896720641 -0.9495651499687271 114 93 63
-0.03174694177589324 0.0166963345470455 -0.955687502434911 86 65 37
-0.0314397652981879 0.01771104867654283 -0.9607903752987997 102 81 53
-0.03077484412084791 0.019647839999041405 -0.9662188970935542 88 67 35
-0.030719945495519374 0.020013540296089982 -0.9711186336863431 109 88 57
-0.02999773330306954 0.022099011588928075 -0.9766212394967277 102 81 50
-0.03065476625251412 0.020630994982374973 -0.9809003299928077 90 69 39
-0.03045538796469416 0.021370047745210174 -0.9859523518398816 100 76 49
-0.0324335543908266 0.016497397581173634 -0.989040775236293 110 92 74
-0.03526206287434369 0.009432515749677628 -0.9913443691171043 163 155 149
-0.003867505624513018 0.09721020176222583 -1.1682933490849685 188 189 191
-0.013153594772879501 0.07345810399924418 -1.1637890415126229 190 190 193
-0.014681227931712865 0.06999070837957805 -1.1725660045017623 80 73 62
-0.012679560594282269 0.07540442190433394 -1.1798926337128604 50 37 22
-0.01653756748973559 0.06567377654533418 -1.1809939032935621 60 50 36
-0.017109240136949616 0.06443675266583754 -1.185588183897906 42 33 23
-0.022416979767529405 0.0509563800620117 -1.185086832764112 46 38 26
-0.025693449897122272 0.042725620137325726 -1.1867388869865716 45 35 23
-0.030449615736061947 0.03066788815662952 -1.1867606982332908 67 55 38
-0.02823845198263461 0.03662460953523061 -1.1943437134632005 78 64 40
-0.03333795362128886 0.0236770546082265 -1.1939473379268588 68 52 25
-0.04054958959197438 0.005265096195442298 -1.1911862870651884 76 59 28
-0.04513781003676712 -0.006364304447407876 -1.1912626977805696 81 64 35
-0.04834479451571003 -0.01442255016806826 -1.1928356008577967 97 79 53
-0.052296632163495366 -0.024408736716509727 -1.1935552167049968 107 89 64
-0.0530218360038017 -0.02604858660962739 -1.1978560808926346 108 91 66
-0.05417167134107764 -0.028787082690868937 -1.2016802052675624 80 64 41
-0.05654543329595771 -0.0346927482946619 -1.2041191238302105 98 83 58
-0.05789851650277508 -0.037957805594743876 -1.2076999302577762 105 90 60
-0.061125640167282086 -0.046073181174774325 -1.209141549407538 103 85 56
-0.06366495485431845 -0.052409426758282696 -1.2113460042828976 110 92 66
-0.06558814652774334 -0.05715164034333042 -1.2142409153433757 127 109 87
-0.06849994771105603 -0.06445357571627325 -1.2159848199780516 152 131 110
-0.07079351645667406 -0.07015591213280192 -1.2184239125063743 134 114 90
-0.07301308279353153 -0.07566732596678011 -1.220934335255722 135 115 90
-0.07472885143096378 -0.07987486929720622 -1.224018991092427 136 116 92
-0.07462010298798896 -0.07935807276397194 -1.2292338076834142 90 70 45
-0.07279311739078134 -0.07439094797190926 -1.2364803530184882 78 61 40
-0.0718787535901523 -0.07178638024395584 -1.2426733661947096 36 23 8
-0.07124559065937913 -0.06990943319249215 -1.2485491228796453 38 25 12
-0.07472026291284486 -0.07867319748647861 -1.2495417564224167 53 37 23
-0.0679941693762367 -0.06101077168552427 -1.2627184648989493 41 29 17
-0.06866513427520707 -0.06251038342918652 -1.2670781928381172 35 23 11
-0.06835413415834501 -0.061465491647642256 -1.272624145824798 45 31 18
-0.06764115067182838 -0.05937839546621071 -1.2786680388921103 53 38 24
-0.06734749676784596 -0.058377365796202285 -1.2842165296986905 65 49 34
-0.06710386675926788 -0.05750549700516977 -1.2897146033828377 47 33 18
-0.06695160905475547 -0.05687000148549848 -1.2951108204193147 45 30 15
-0.06826323606016502 -0.06002894251711682 -1.298713443942466 59 43 24
-0.06510034940388726 -0.05158769116846201 -1.3078439717607417 45 28 9
-0.06600130642391533 -0.05368130304827279 -1.3119683468211645 54 35 16
-0.0659508960450107 -0.05330805256751148 -1.3172775573172548 62 40 18
-0.0681083454313477 -0.05865994253288803 -1.31983195895971 70 46 23
-0.06929653614838649 -0.06149871080058311 -1.3235906203566272 87 63 37
-0.0706860299263348 -0.06485978480142973 -1.32709135475012 87 66 41
-0.07193975685637768 -0.06786896477440213 -1.3307580444257463 115 94 73
-0.07331077879689324 -0.07118264362991222 -1.3342709316202241 55 37 25
-0.07435736516784949 -0.07365487431090129 -1.338192156896045 74 55 30
-0.07573404008457826 -0.07698368583268261 -1.3416877355216232 82 64 42
-0.0764509292116575 -0.07860070998865915 -1.3460263396730603 46 27 8
-0.07492208257153152 -0.07438977347743253 -1.3532666240792612 139 115 78
-0.07535273347964669 -0.0752633182701285 -1.3579892615246276 165 137 101
-0.07644560062363345 -0.0778555268915736 -1.3618534214867444 177 151 112
-0.07752218471836811 -0.08040560930464752 -1.3657358017809123 148 118 85
-0.07949642888176839 -0.08528619285202205 -1.368437502928268 148 119 84
-0.08141341420047638 -0.09001867347677545 -1.3712025701180957 138 109 75
-0.08114886011346922 -0.08908728059032084 -1.3768406716808619 147 118 85
-0.08620154566174232 -0.1019629507073978 -1.3754316827961552 136 106 75
-0.08752973286683174 -0.10516815211983133 -1.3789418582463469 141 113 83
-0.08924196165018256 -0.10937105314238382 -1.3819327939195043 117 89 57
-0.08892365568303184 -0.10830015228758388 -1.3876406767853928 147 118 83
-0.09034416126351 -0.11174564059818226 -1.3910162248145652 159 130 96
-0.09192872497049306 -0.11561764376706396 -1.394163273173773 165 137 106
-0.0928985744923844 -0.1178928906907068 -1.398136972600865 107 84 59
-0.0943106959255895 -0.12131743238954146 -1.4015058045218156 117 93 65
-0.09632741385854082 -0.1263134119754074 -1.4040407620011714 115 89 56
-0.09797225810025659 -0.13034352073070193 -1.4070737945374463 155 126 90
-0.09919465884472009 -0.1332760547479721 -1.4106803885177985 130 102 62
-0.10083380853027532 -0.13729208657025116 -1.413705612269897 121 97 56
-0.1021567645210148 -0.14048654825284357 -1.41716120219425 104 80 46
-0.10403556756144716 -0.1451263930822792 -1.4198360404183312 113 88 57
-0.10537525287567001 -0.14836500845433137 -1.423254028283289 135 109 68
-0.10682562369911805 -0.15189171377316374 -1.4265106700651629 118 94 51
-0.10825028567465983 -0.15535188538691141 -1.4297965514347597 122 97 64
-0.10835783893274806 -0.1553868017373155 -1.4349399091182635 141 119 82
-0.10921173569827172 -0.15736268105501028 -1.4390300290638913 103 77 37
-0.10948366730289061 -0.15782472464970587 -1.443949202468081 102 77 40
-0.11041729604138195 -0.16000796119451377 -1.4479267204530382 116 91 60
-0.11068199289098671 -0.16045084741179305 -1.4528635113939876 88 62 32
-0.11173831986544203 -0.1629533361909915 -1.4566644260983144 118 92 58
-0.11282484022729528 -0.16553453171649563 -1.4604187316681876 131 106 68
-0.11391065773058742 -0.16811404805517371 -1.4641708127885977 106 83 42
-0.11519514507683795 -0.1712108076330413 -1.4676300594467286 112 89 52
-0.11584064045445314 -0.17264450487727845 -1.4720187583280588 99 76 43
-0.11664336718481205 -0.1744874515663853 -1.4761780246292218 114 91 56
-0.11850462647494756 -0.17908631513761875 -1.4787771745297396 96 72 37
-0.12035784779580819 -0.1836647839657723 -1.4813766564224335 77 52 23
-0.12266379512503023 -0.18942268704813814 -1.483292656937924 86 62 34
-0.12334440348102699 -0.19094854663731936 -1.48761349362226 73 50 20
-0.12429942956940251 -0.19318908093397158 -1.4915250986416186 71 50 21
-0.12528237409441206 -0.19550242445174665 -1.4953928987158644 70 49 22
-0.12464056951754823 -0.19358339509027467 -1.5017050109033003 65 43 19
-0.12400474871617084 -0.19167924788571872 -1.5080233757190868 63 41 18
-0.12508110388122548 -0.1942354719376566 -1.511760348613378 64 42 20
-0.12939528634564765 -0.20522881828594636 -1.510566151766092 66 44 23
-0.125730151228648 -0.19542981822276378 -1.5215213379367396 73 51 27
-0.12716677423362313 -0.19892506176187602 -1.5247045560487689 84 63 32
-0.1281698032620495 -0.2012904711754253 -1.5285476136218934 81 60 30
-0.12942990894645717 -0.20432612952268286 -1.5319913761947777 70 49 21
-0.12970167312333922 -0.20478541669394745 -1.5369609923832495 79 57 30
-0.12986868736847018 -0.20497133790793898 -1.5420989852895666 73 49 21
-0.13208010242593524 -0.21048775149690213 -1.544054208167512 77 53 25
-0.13145434816579785 -0.20860621636052545 -1.5504355321416439 75 51 23
-0.13175102905967476 -0.20912969837523915 -1.555383057906624 73 51 23
-0.1325554565725038 -0.21097727756167062 -1.5595353946308261 71 49 23
-0.13283984926356276 -0.2114683439854984 -1.5645101800487111 81 57 28
-0.13322121415567553 -0.21221213758694712 -1.569336472095645 83 60 26
-0.1339541106586387 -0.2138728872618853 -1.5736071416373745 83 62 30
-0.13383256494084814 -0.213304121935172 -1.579244260693848 91 67 36
-0.13556406847482422 -0.21757051948874923 -1.5819187836545212 78 56 26
-0.1373049720932616 -0.22186193704656154 -1.5845676277218301 83 60 32
-0.13981199956263474 -0.2281534799144716 -1.5859683044290636 137 110 72
-0.1421668283633547 -0.23404862443954588 -1.587596439209594 146 112 62
-0.14411535047572122 -0.23888388623754364 -1.5898678124168282 156 126 90
-0.14633261745599455 -0.24442140176096572 -1.5916875143639615 148 125 86
-0.14826994705623242 -0.24922871951478048 -1.5939495136028485 161 135 92
-0.15038408918650178 -0.25449835940919296 -1.5959079549155317 146 117 73
-0.15336856727700351 -0.26204167525108174 -1.5964163609596154 149 127 81
-0.15649699546194054 -0.2699621194397018 -1.5966617607101574 155 133 87
-0.15816471709252122 -0.27406823066376046 -1.5993054430329832 152 126 84
-0.16033186564289864 -0.279479509900644 -1.6011071145502116 142 114 69
-0.16324507904739038 -0.2868407290045787 -1.6016460833440922 153 127 78
-0.1644187816236658 -0.2896578746983549 -1.6050778834836572 173 146 104
-0.16626835225846104 -0.2942413975383075 -1.607367822182805 96 72 38
-0.1674209739633128 -0.29700405504116634 -1.6108221175982793 90 68 40
-0.16848864274179207 -0.2995448749234767 -1.6144159078341975 123 104 72
-0.1696064528536637 -0.3022169223861365 -1.617921016153018 99 79 46
-0.17037996511836445 -0.3039890830315341 -1.6220092439693852 66 45 18
-0.16997672974664912 -0.30268465042987125 -1.6281108715220447 66 44 20
-0.17005070215155715 -0.30262738364602876 -1.6334065689050954 67 45 21
-0.17078550962641206 -0.30429784973321816 -1.6375718645026878 69 47 22
-0.17010989253960151 -0.30227963415592285 -1.6441750975844291 80 59 28
-0.16868811335930461 -0.29830902664330666 -1.6520887419655699 122 99 64
-0.1637098256123056 -0.28503407135615133 -1.6662150809412783 96 76 43
-0.16032253622271597 -0.27591824143638316 -1.6776305267595983 90 71 39
-0.15222124443902685 -0.2544666978822806 -1.697349692072021 99 84 49
-0.15274476955333458 -0.25557827624401064 -1.702016928624552 86 70 38
-0.15155404039183334 -0.25220370440831363 -1.709709207908255 71 51 25
-0.15116964276359712 -0.250938369083998 -1.7159982445501132 76 53 28
-0.15088691058794212 -0.2499385071518213 -1.7221204663502543 58 37 11
-0.15117207387578646 -0.25042464661793346 -1.7272440911297364 82 61 36
-0.15123134028586002 -0.2503191259661428 -1.7327770503427533 80 59 29
-0.15159860374417014 -0.25101962050383064 -1.737766581591003 81 59 28
-0.15276692207736184 -0.25381745298918323 -1.741320859492032 62 38 11
-0.15328480947809786 -0.2549121594115812 -1.7460438645159675 90 69 43
-0.15402427781994615 -0.2565870501423218 -1.7503690694309197 52 32 9
-0.15481565889612967 -0.2583978905114198 -1.7546005985287323 74 54 27
-0.1555811026857494 -0.2601407877062148 -1.7588793274691987 75 55 29
-0.15630188782295773 -0.26176667310715296 -1.763239923449341 56 37 12
-0.15651291003050577 -0.26205687371786646 -1.7685357819505054 54 36 11
-0.15769672284693093 -0.26489586829613593 -1.7720494465691783 75 55 30
-0.15809493616663398 -0.2656762719885659 -1.7770078469789636 77 56 30
-0.15849185298136662 -0.2664530635660152 -1.781973276885503 74 53 26
-0.15903957993870876 -0.2676249483525699 -1.786663328277898 73 50 24
-0.15979224898936303 -0.26933395774058966 -1.790974479335457 61 40 17
-0.16035870551015277 -0.2705547380898577 -1.795634056574144 57 37 13
-0.1607667950475631 -0.27136014771807915 -1.8005931954392276 72 50 25
-0.16134440365081645 -0.27260988252451945 -1.805238072718131 61 39 16
-0.1613966920459347 -0.27248178771411957 -1.810876639726025 57 35 14
-0.1621924043258187 -0.2743032037665494 -1.8151169427572522 68 46 22
-0.16238861944008517 -0.27455203999745864 -1.820495489462772 71 49 26
-0.16380836837287005 -0.27801042300014667 -1.8235506102358596 73 51 28
-0.16422581109532466 -0.2788393787912606 -1.8285133792484898 72 50 27
-0.16589404214289502 -0.2829502032736662 -1.8310830458319667 71 49 26
-0.16634364729182993 -0.283863495349218 -1.8359854210390236 71 49 26
-0.16179284276730005 -0.27165268562905687 -1.8505377154001932 73 51 27
-0.160578300979693 -0.26792662986327354 -1.8645270910112361 74 52 28
-0.1622361200191948 -0.27200920926379235 -1.8671367014083986 77 55 31
-0.16346674985124438 -0.2749706068013224 -1.8705702539258204 71 49 25
-0.16456682316607082 -0.2775894117156182 -1.8742543148362565 71 49 25
-0.16567210884848088 -0.2802220780063273 -1.8779244021855894 72 50 27
-0.16659081502366263 -0.28236486091188606 -1.8819585749868306 70 48 25
-0.1673985604453 -0.2842162392184449 -1.8862106988149066 67 45 23
-0.16941729650070061 -0.2892490326195774 -1.8880600052740515 66 44 22
-0.1708360234783298 -0.2927060616565506 -1.8910883661047981 67 45 22
-0.17185356904389734 -0.29510927000537307 -1.8949099256349051 69 47 24
-0.17298196634513124 -0.29780392136075295 -1.8985067243592186 69 47 24
-0.17456290190365178 -0.3016881507541392 -1.9011903208725915 67 45 21
-0.17628897837512233 -0.3059543414263976 -1.9035716773991902 65 43 19
-0.1770254737820946 -0.30761962868818515 -1.9079415708939051 59 39 14
-0.17718888533630295 -0.30777817913547295 -1.9134740448546286 54 34 9
-0.17644642005924316 -0.30555444871552256 -1.9208566241853688 60 40 15
-0.1775338433491541 -0.3081418807189933 -1.924525546408695 63 43 18
-0.17879197541824535 -0.3111784443302252 -1.9278414860275332 64 44 19
-0.1796862655511386 -0.31325827321085375 -1.9318983676419614 62 42 18
-0.18059209959783598 -0.3153685279764872 -1.93593020989322 61 39 18
-0.1812014889642745 -0.31669894516035924 -1.9405728004149365 67 46 22
-0.18221091799536396 -0.31908181886059717 -1.9443890831853736 75 55 26
-0.18263689204246608 -0.3199294924601452 -1.9494148521387598 84 64 34
-0.1832336167154558 -0.32122632143434354 -1.9540894194163732 80 59 33
-0.1836963811793744 -0.3221704487901853 -1.9590464944696087 64 43 19
-0.18423172238062457 -0.3233054272961856 -1.9638555950254328 69 48 27
-0.18659533747191448 -0.32925339019277017 -1.9648230715843276 57 36 15
-0.1846644398022276 -0.3238952264395879 -1.9748293720707732 57 36 15
-0.18878590471193363 -0.3344725468141339 -1.9720649897546358 58 36 15
-0.18862504788983075 -0.3337743515458988 -1.9783458779272076 61 39 16
-0.18843859660561563 -0.33300818189525505 -1.9846934428640646 61 39 16
-0.1908991463966631 -0.3392138689847155 -1.9854022771048283 66 44 21
-0.19128150989639278 -0.339945800702312 -1.9905399254012566 70 48 24
-0.1918907972427653 -0.3412753612331998 -1.9951954513070476 73 51 27
-0.18921749331773813 -0.3339552448726863 -2.006924958424345 74 53 26
-0.19046700394057595 -0.33697077476043685 -2.0102230518657427 72 51 24
-0.19190529547293406 -0.3404841231025952 -2.0131061471308964 72 52 21
-0.19313392782563957 -0.3434452205169268 -2.016436642058608 86 67 39
-0.19381812790077207 -0.3449713576284375 -2.0209484596314864 77 56 23
-0.1954757745947752 -0.34906390026340345 -2.0233330996252326 107 84 50
-0.1967179538858277 -0.3520614664717837 -2.0266176926413 85 64 37
-0.19743432128658114 -0.35367269430626 -2.031053065566668 76 53 29
-0.19794042548929666 -0.3547293309612733 -2.0359533342208707 71 47 20
-0.2002722744967727 -0.36060153601705813 -2.0368173781948866 76 53 22
-0.20196133593570234 -0.3647790068090127 -2.039087815564212 76 53 22
-0.20396563702095646 -0.36978871685186515 -2.04064477560285 80 57 26
-0.19643893093198683 -0.34965067476374595 -2.06346367047613 86 63 32
-0.19845347823219492 -0.3546859970797057 -2.0650285451816806 83 60 29
-0.1993650996864758 -0.35681121241563 -2.0690541742815465 82 59 28
-0.20101039859205394 -0.3608730493033006 -2.071425819778485 79 56 25
-0.20337239009206146 -0.366827345120724 -2.07216726249394 86 67 33
-0.20418144298141205 -0.36868264831533565 -2.0764061923589945 81 59 26
-0.2054472209845883 -0.37174391283170544 -2.079607151091567 98 73 28
-0.20723219693720174 -0.37617653515411675 -2.081618645289055 126 100 53
-0.20901030453761443 -0.3805916291563224 -2.0836326132814103 88 68 31
-0.20883769045248315 -0.3798547760934293 -2.090104907290412 80 57 27
-0.21017862798419898 -0.38311562704376795 -2.093110585949011 81 58 26
-0.21016457478256673 -0.38279696166103633 -2.099233017928366 81 59 25
-0.2132919731392005 -0.39077841770502425 -2.098102168514687 87 64 30
-0.21135545958624766 -0.385379432621318 -2.108683492596974 90 68 31
-0.21420333049910242 -0.39262345272718135 -2.1081739944169247 90 68 31
-0.21519448033413222 -0.3949610261026725 -2.1119676813877093 89 67 30
-0.21627203288850158 -0.39752713293313724 -2.11555654592041 89 67 30
-0.21731444011719606 -0.4000004999664689 -2.119223989671942 88 66 29
-0.2184175832123444 -0.402634620162911 -2.1227451191113835 88 66 29
-0.2190045196830645 -0.40390383935615104 -2.1274800997561907 88 66 29
