ply
format ascii 1.0
element vertex 834
property float x
property float y
property float z
property float nx
property float ny
property float nz
property uchar diffuse_red
property uchar diffuse_green
property uchar diffuse_blue
property uchar class
property uchar detection
end_header
-0.0566 0.0233 -0.9224 0.036 -0.859 0.511 134 112 84 0 0
-0.0578 0.0138 -0.9336 -0.021 -0.965 0.261 99 76 45 0 0
-0.0579 0.0146 -0.9433 0.286 -0.772 0.568 69 48 20 0 0
-0.0597 0.0112 -0.9992 -0.034 -0.938 0.344 84 63 34 0 0
-0.0600 0.0093 -1.0033 -0.134 -0.879 0.458 83 63 36 0 0
-0.0603 0.0072 -1.0074 -0.134 -0.879 0.458 101 83 59 0 0
-0.0609 0.0016 -1.0103 -0.606 -0.409 0.683 134 124 111 0 0
-0.0616 -0.0059 -1.0125 -0.590 -0.331 0.736 184 182 181 0 0
-0.0613 0.0344 -1.1396 0.386 -0.788 -0.479 19 18 16 0 0
-0.0717 -0.0611 -1.2061 -0.166 -0.349 0.922 112 93 71 0 0
-0.0728 -0.0717 -1.2116 0.189 -0.858 0.478 163 146 124 0 0
-0.0727 -0.0491 -1.2867 -0.711 -0.703 0.008 66 45 26 0 0
-0.0734 -0.0529 -1.3004 -0.549 -0.804 0.228 80 57 31 0 0
-0.0738 -0.0561 -1.3040 -0.504 -0.578 0.642 62 38 12 0 0
-0.0741 -0.0585 -1.3080 -0.636 -0.626 0.451 74 50 24 0 0
-0.0882 -0.1743 -1.4417 0.158 -0.762 0.628 115 88 49 0 0
-0.0887 -0.1794 -1.4442 -0.142 -0.727 0.672 114 86 48 0 0
-0.0888 -0.1794 -1.4494 -0.036 -0.902 0.430 122 95 56 0 0
-0.0893 -0.1840 -1.4521 -0.254 -0.750 0.610 102 76 39 0 0
-0.0896 -0.1857 -1.4564 -0.314 -0.864 0.393 114 89 51 0 0
-0.0898 -0.1874 -1.4607 -0.367 -0.744 0.559 125 100 55 0 0
-0.0927 -0.2084 -1.4960 -0.035 -0.920 0.390 70 49 23 0 0
-0.0956 -0.2253 -1.5493 0.086 -0.970 0.226 79 56 25 0 0
-0.1072 -0.3334 -1.6160 -0.412 -0.835 0.364 66 45 18 0 0
-0.1072 -0.2919 -1.7602 -0.508 -0.817 0.274 83 55 27 0 0
-0.1093 -0.3010 -1.8091 -0.337 -0.879 0.336 74 48 23 0 0
-0.1134 -0.3214 -1.8954 0.239 -0.952 0.191 84 61 30 0 0
-0.1159 -0.3397 -1.9273 -0.225 -0.897 0.380 92 72 40 0 0
-0.1304 -0.4383 -2.1377 -0.294 -0.951 0.095 82 59 25 0 0
-0.1310 -0.4430 -2.1454 -0.247 -0.894 0.373 92 69 35 0 0
-0.1318 -0.4479 -2.1589 -0.208 -0.875 0.437 90 66 30 0 0
-0.1321 -0.4499 -2.1631 -0.208 -0.875 0.437 102 78 42 0 0
-0.1402 -0.5220 -2.2232 -0.340 -0.875 0.346 109 87 48 0 0
-0.1409 -0.5259 -2.2374 -0.118 -0.947 0.298 109 86 48 0 0
-0.0612 0.0232 -0.9222 0.036 -0.859 0.511 139 118 89 0 0
-0.0627 0.0111 -0.9372 0.003 -0.907 0.421 70 46 20 0 0
-0.0629 0.0107 -0.9465 0.209 -0.798 0.565 83 62 33 0 0
-0.0645 0.0100 -1.0033 -0.134 -0.879 0.458 81 60 30 0 0
-0.0648 0.0079 -1.0074 -0.134 -0.879 0.458 99 79 48 0 0
-0.0651 0.0060 -1.0115 -0.104 -0.951 0.290 99 78 53 0 0
-0.0668 -0.0103 -1.0203 -0.657 -0.457 0.599 181 185 186 0 0
-0.0654 0.0332 -1.1140 0.147 -0.928 0.343 17 16 16 0 0
-0.0659 0.0392 -1.1512 0.315 -0.803 -0.506 23 19 18 0 0
-0.0775 -0.0732 -1.2106 -0.324 -0.781 0.534 154 135 111 0 0
-0.0768 -0.0429 -1.2841 -0.634 -0.773 0.025 60 43 24 0 0
-0.0779 -0.0500 -1.3013 -0.557 -0.823 0.114 75 54 27 0 0
-0.0813 -0.0714 -1.3583 -0.026 -0.969 0.245 133 107 75 0 0
-0.0940 -0.1831 -1.4574 -0.330 -0.893 0.305 134 110 71 0 0
-0.0943 -0.1853 -1.4615 -0.447 -0.707 0.548 111 87 46 0 0
-0.1009 -0.2295 -1.5622 -0.043 -0.985 0.168 81 60 28 0 0
-0.1012 -0.2314 -1.5664 0.213 -0.947 0.242 85 64 33 0 0
-0.1106 -0.3239 -1.6058 -0.241 -0.831 0.501 134 105 66 0 0
-0.1109 -0.3261 -1.6096 -0.241 -0.831 0.501 85 61 27 0 0
-0.1112 -0.3292 -1.6130 -0.310 -0.752 0.582 74 53 27 0 0
-0.1106 -0.3036 -1.6765 -0.152 -0.743 -0.651 125 106 74 0 0
-0.1112 -0.2855 -1.7586 -0.540 -0.778 0.321 67 45 17 0 0
-0.1123 -0.2925 -1.7759 -0.159 -0.970 0.182 88 65 33 0 0
-0.1148 -0.3040 -1.8289 -0.616 -0.678 0.401 72 46 21 0 0
-0.1166 -0.3155 -1.8599 -0.057 -0.839 0.541 81 57 29 0 0
-0.1255 -0.3704 -2.0064 -0.084 -0.902 0.423 76 52 24 0 0
-0.1400 -0.4728 -2.2077 0.048 -0.824 0.565 109 86 45 0 0
-0.1455 -0.5255 -2.2372 -0.103 -0.960 0.259 107 85 44 0 0
-0.0680 0.0053 -0.9492 -0.144 -0.932 0.333 76 55 27 0 0
-0.0691 0.0054 -0.9872 0.138 -0.920 0.367 81 60 33 0 0
-0.0690 0.0107 -1.0033 -0.134 -0.879 0.458 83 62 32 0 0
-0.0694 0.0078 -1.0071 -0.104 -0.951 0.290 96 75 46 0 0
-0.0696 0.0065 -1.0115 -0.104 -0.951 0.290 94 73 42 0 0
-0.0699 0.0054 -1.0159 -0.365 -0.807 0.464 96 78 50 0 0
-0.0710 -0.0059 -1.0216 -0.657 -0.457 0.599 166 165 158 0 0
-0.0693 0.0394 -1.1061 -0.250 -0.913 0.321 96 96 98 0 0
-0.0701 0.0327 -1.1135 0.183 -0.933 0.309 18 17 15 0 0
-0.0924 -0.1291 -1.4073 -0.359 -0.829 0.429 148 120 76 0 0
-0.0980 -0.1778 -1.4547 -0.268 -0.925 0.271 107 83 46 0 0
-0.0984 -0.1809 -1.4582 -0.413 -0.804 0.428 121 97 56 0 0
-0.0987 -0.1829 -1.4623 -0.413 -0.804 0.428 114 90 51 0 0
-0.1057 -0.2302 -1.5667 -0.003 -0.969 0.248 85 63 32 0 0
-0.1063 -0.2338 -1.5752 -0.061 -0.929 0.365 97 74 37 0 0
-0.1119 -0.2913 -1.5938 -0.152 -0.153 0.976 139 114 78 0 0
-0.1150 -0.3226 -1.6062 -0.277 -0.848 0.452 133 107 65 0 0
-0.1157 -0.2831 -1.7598 -0.530 -0.809 0.256 62 45 20 0 0
-0.1166 -0.2901 -1.7716 -0.127 -0.932 0.340 90 69 35 0 0
-0.1173 -0.2887 -1.8001 -0.084 -0.979 0.184 94 71 40 0 0
-0.1180 -0.2905 -1.8211 0.189 -0.908 0.374 68 44 18 0 0
-0.1341 -0.3973 -2.0655 0.132 -0.898 0.420 81 58 26 0 0
-0.1355 -0.4082 -2.0799 -0.540 -0.672 0.507 129 103 65 0 0
-0.1397 -0.4384 -2.1366 -0.013 -0.917 0.398 86 63 29 0 0
-0.1400 -0.4410 -2.1403 0.006 -0.962 0.274 90 67 34 0 0
-0.1534 -0.5517 -2.2718 0.345 -0.642 0.684 203 202 205 0 0
-0.0720 0.0093 -0.9409 0.341 -0.769 0.541 82 59 34 0 0
-0.0723 0.0079 -0.9451 0.091 -0.890 0.447 86 64 34 0 0
-0.0725 0.0060 -0.9492 -0.144 -0.932 0.333 79 56 28 0 0
-0.0725 0.0081 -0.9546 0.052 -0.997 -0.063 85 62 35 0 0
-0.0743 0.0072 -1.0162 -0.365 -0.807 0.464 96 76 43 0 0
-0.0748 0.0019 -1.0192 -0.419 -0.782 0.462 88 68 42 0 0
-0.0756 -0.0038 -1.0268 -0.846 -0.230 0.481 138 134 122 0 0
-0.0747 0.0343 -1.1139 -0.114 -0.746 0.657 26 25 25 0 0
-0.0760 0.0256 -1.1354 0.317 -0.839 0.442 10 9 9 0 0
-0.0848 -0.0518 -1.2091 -0.227 -0.558 0.798 101 84 59 0 0
-0.0856 -0.0382 -1.2805 -0.639 -0.741 -0.205 64 50 34 0 0
-0.0967 -0.1256 -1.4036 -0.229 -0.651 0.724 100 76 43 0 0
-0.0970 -0.1274 -1.4078 -0.330 -0.846 0.419 132 107 66 0 0
-0.0972 -0.1289 -1.4123 -0.424 -0.674 0.605 121 96 55 0 0
-0.1102 -0.2286 -1.5673 -0.435 -0.763 0.477 72 49 18 0 0
-0.1204 -0.3163 -1.6571 -0.297 -0.684 -0.666 100 80 49 0 0
-0.1197 -0.3050 -1.6695 -0.312 -0.748 -0.586 91 74 41 0 0
-0.1216 -0.2861 -1.7959 -0.338 -0.825 0.454 88 65 35 0 0
-0.1219 -0.2878 -1.8003 -0.337 -0.853 0.398 79 55 28 0 0
-0.1261 -0.3156 -1.8646 -0.209 -0.917 0.341 78 56 28 0 0
-0.1284 -0.3313 -1.8982 -0.130 -0.923 0.362 77 56 26 0 0
-0.1287 -0.3330 -1.9026 -0.130 -0.923 0.362 78 56 25 0 0
-0.1424 -0.4225 -2.1143 -0.379 -0.866 0.327 85 62 28 0 0
-0.1441 -0.4363 -2.1320 -0.013 -0.917 0.398 86 63 29 0 0
-0.1444 -0.4382 -2.1363 -0.013 -0.917 0.398 87 64 30 0 0
-0.1446 -0.4398 -2.1408 -0.111 -0.915 0.387 89 66 32 0 0
-0.1541 -0.5202 -2.2292 -0.156 -0.988 0.019 114 92 52 0 0
-0.1543 -0.5203 -2.2351 -0.226 -0.909 0.349 111 88 47 0 0
-0.0761 0.0131 -0.9371 -0.044 -0.877 0.478 80 59 32 0 0
-0.0762 0.0132 -0.9418 -0.095 -0.954 0.283 81 60 34 0 0
-0.0772 0.0059 -0.9536 -0.118 -0.979 0.168 82 58 32 0 0
-0.0780 0.0061 -0.9821 -0.004 -0.950 0.312 83 62 35 0 0
-0.0878 -0.0367 -1.1951 -0.205 -0.833 0.514 94 77 53 0 0
-0.0917 -0.0667 -1.2425 -0.641 -0.762 -0.092 55 41 28 0 0
-0.0913 -0.0576 -1.2565 -0.634 -0.673 -0.381 51 38 22 0 0
-0.1003 -0.1134 -1.4041 -0.146 -0.668 0.730 111 83 54 0 0
-0.1021 -0.1303 -1.4164 -0.045 -0.736 0.675 113 88 52 0 0
-0.1137 -0.2211 -1.5502 -0.127 -0.900 0.418 75 52 21 0 0
-0.1143 -0.2248 -1.5586 -0.222 -0.858 0.463 75 52 21 0 0
-0.1146 -0.2269 -1.5627 -0.222 -0.858 0.463 84 61 31 0 0
-0.1150 -0.2309 -1.5656 0.178 -0.932 0.315 75 52 20 0 0
-0.1195 -0.2751 -1.5923 -0.267 -0.311 0.912 152 130 87 0 0
-0.1201 -0.2815 -1.5937 -0.295 -0.241 0.924 147 126 83 0 0
-0.1234 -0.3164 -1.6040 -0.333 -0.840 0.429 178 155 111 0 0
-0.1261 -0.2877 -1.7834 -0.285 -0.949 0.134 93 69 38 0 0
-0.1329 -0.3291 -1.8994 -0.119 -0.884 0.452 75 54 26 0 0
-0.1448 -0.4055 -2.0870 0.095 -0.620 0.779 89 68 36 0 0
-0.1490 -0.4381 -2.1359 -0.089 -0.935 0.342 85 62 28 0 0
-0.1496 -0.4420 -2.1444 -0.316 -0.817 0.482 88 66 29 0 0
-0.1508 -0.4503 -2.1607 -0.012 -0.959 0.283 102 80 43 0 0
-0.1536 -0.4742 -2.1871 -0.094 -0.891 0.444 102 79 38 0 0
-0.1587 -0.5149 -2.2455 -0.101 -0.833 0.543 106 84 43 0 0
-0.0748 0.0705 -0.9026 0.040 -0.207 0.978 122 109 90 0 0
-0.0806 0.0134 -0.9369 -0.044 -0.877 0.478 93 72 41 0 0
-0.0816 0.0066 -0.9489 -0.454 -0.742 0.493 78 54 26 0 0
-0.0817 0.0069 -0.9537 -0.361 -0.917 0.171 82 58 31 0 0
-0.0820 0.0040 -0.9575 -0.081 -0.968 0.236 79 57 30 0 0
-0.0821 0.0085 -0.9732 -0.149 -0.988 0.034 81 60 33 0 0
-0.0825 0.0053 -0.9769 0.276 -0.905 0.324 86 65 38 0 0
-0.0908 -0.0228 -1.1806 -0.031 -0.856 0.515 74 53 24 0 0
-0.0923 -0.0370 -1.1897 -0.070 -0.962 0.265 65 46 16 0 0
-0.0926 -0.0393 -1.1938 -0.044 -0.835 0.548 79 62 36 0 0
-0.0929 -0.0418 -1.1977 -0.044 -0.835 0.548 60 47 22 0 0
-0.1031 -0.0971 -1.3860 0.303 -0.937 0.174 115 90 66 0 0
-0.1062 -0.1246 -1.4138 0.004 -0.940 0.342 118 93 59 0 0
-0.1178 -0.2158 -1.5476 -0.048 -0.956 0.288 73 50 19 0 0
-0.1181 -0.2186 -1.5513 -0.015 -0.943 0.331 83 60 29 0 0
-0.1185 -0.2216 -1.5548 -0.222 -0.858 0.463 75 52 21 0 0
-0.1188 -0.2238 -1.5588 -0.317 -0.872 0.373 75 52 21 0 0
-0.1275 -0.3120 -1.6011 -0.358 -0.748 0.559 179 156 116 0 0
-0.1277 -0.3129 -1.6058 -0.437 -0.827 0.355 173 149 111 0 0
-0.1267 -0.2647 -1.7105 0.009 -0.871 0.491 80 59 28 0 0
-0.1318 -0.2898 -1.8148 -0.069 -0.911 0.406 66 44 20 0 0
-0.1321 -0.2921 -1.8188 0.029 -0.876 0.482 69 47 23 0 0
-0.1356 -0.3100 -1.8846 -0.024 -0.774 0.633 71 49 25 0 0
-0.1378 -0.3297 -1.9042 0.194 -0.942 0.275 76 55 28 0 0
-0.1375 -0.3199 -1.9226 -0.308 -0.874 0.375 70 48 24 0 0
-0.1412 -0.3466 -1.9712 -0.210 -0.850 0.484 72 51 26 0 0
-0.1454 -0.3770 -2.0282 0.035 -0.928 0.370 77 56 26 0 0
-0.1459 -0.3802 -2.0372 -0.104 -0.938 0.330 81 60 29 0 0
-0.1505 -0.4134 -2.0975 -0.168 -0.874 0.456 81 58 25 0 0
-0.1539 -0.4393 -2.1403 -0.003 -0.953 0.304 89 66 32 0 0
-0.1542 -0.4409 -2.1448 -0.204 -0.877 0.434 89 67 29 0 0
-0.1545 -0.4434 -2.1485 -0.258 -0.927 0.271 90 67 34 0 0
-0.1554 -0.4499 -2.1606 0.049 -0.925 0.377 97 75 38 0 0
-0.1640 -0.5069 -2.2885 -0.170 -0.828 0.534 141 136 129 0 0
-0.0938 -0.0119 -1.1548 0.343 -0.777 0.528 90 67 38 0 0
-0.0986 -0.0504 -1.2088 -0.067 -0.635 0.770 96 80 54 0 0
-0.0998 -0.0507 -1.2488 -0.778 -0.540 -0.322 56 42 29 0 0
-0.1010 -0.0368 -1.3263 -0.491 -0.802 0.339 59 44 25 0 0
-0.1022 -0.0463 -1.3426 -0.536 -0.687 0.491 63 51 28 0 0
-0.1078 -0.0979 -1.3852 0.297 -0.868 0.398 115 90 67 0 0
-0.1153 -0.1673 -1.4433 0.063 -0.778 0.625 122 98 60 0 0
-0.1166 -0.1775 -1.4587 0.121 -0.928 0.351 99 78 39 0 0
-0.1170 -0.1796 -1.4679 -0.169 -0.936 0.310 98 77 39 0 0
-0.1174 -0.1825 -1.4716 -0.214 -0.793 0.570 105 80 45 0 0
-0.1177 -0.1851 -1.4754 -0.224 -0.780 0.584 96 75 41 0 0
-0.1278 -0.2649 -1.5924 -0.245 -0.452 0.858 133 109 76 0 0
-0.1283 -0.2702 -1.5945 -0.178 -0.376 0.909 131 109 75 0 0
-0.1289 -0.2763 -1.5961 -0.288 -0.317 0.904 117 97 61 0 0
-0.1315 -0.3064 -1.5990 -0.500 -0.674 0.544 152 125 89 0 0
-0.1305 -0.2578 -1.7037 -0.111 -0.773 0.625 97 78 50 0 0
-0.1313 -0.2646 -1.7102 0.009 -0.871 0.491 90 71 37 0 0
-0.1402 -0.3096 -1.8844 0.225 -0.794 0.565 69 47 24 0 0
-0.1420 -0.3247 -1.9018 -0.192 -0.884 0.427 70 48 24 0 0
-0.1501 -0.3764 -2.0282 -0.163 -0.901 0.403 72 53 22 0 0
-0.1503 -0.3777 -2.0329 -0.268 -0.908 0.322 80 61 30 0 0
-0.1506 -0.3796 -2.0372 -0.054 -0.887 0.458 86 67 35 0 0
-0.1585 -0.4380 -2.1409 -0.204 -0.877 0.434 90 67 33 0 0
-0.1588 -0.4400 -2.1451 -0.204 -0.877 0.434 87 64 31 0 0
-0.1591 -0.4424 -2.1489 -0.218 -0.901 0.376 85 63 26 0 0
-0.1595 -0.4457 -2.1520 -0.106 -0.972 0.210 87 64 27 0 0
-0.1601 -0.4500 -2.1600 -0.012 -0.959 0.283 94 72 36 0 0
-0.0856 0.0523 -0.9061 -0.219 -0.317 0.923 118 100 68 0 0
-0.0919 -0.0010 -0.9695 -0.172 -0.976 0.131 84 63 36 0 0
-0.0980 -0.0109 -1.1450 0.450 -0.855 0.257 98 75 44 0 0
-0.0980 -0.0087 -1.1508 0.148 -0.970 0.192 88 65 34 0 0
-0.0991 -0.0173 -1.1623 0.152 -0.983 0.103 83 62 32 0 0
-0.1028 -0.0474 -1.2048 0.171 -0.835 0.524 100 86 62 0 0
-0.1032 -0.0502 -1.2086 0.081 -0.731 0.678 112 92 68 0 0
-0.1044 -0.0224 -1.3222 -0.787 -0.590 0.181 88 70 49 0 0
-0.1047 -0.0243 -1.3265 -0.827 -0.528 0.196 71 55 36 0 0
-0.1062 -0.0382 -1.3408 -0.560 -0.496 0.663 69 55 32 0 0
-0.1066 -0.0418 -1.3443 -0.490 -0.613 0.619 58 46 23 0 0
-0.1114 -0.0889 -1.3738 0.097 -0.783 0.614 134 111 79 0 0
-0.1126 -0.0997 -1.3840 -0.228 -0.801 0.554 127 99 72 0 0
-0.1136 -0.1080 -1.3955 -0.299 -0.862 0.409 148 123 87 0 0
-0.1144 -0.1161 -1.4018 -0.372 -0.695 0.615 121 97 60 0 0
-0.1152 -0.1233 -1.4086 -0.259 -0.937 0.236 111 86 55 0 0
-0.1209 -0.1751 -1.4544 0.049 -0.890 0.453 107 85 48 0 0
-0.1211 -0.1761 -1.4591 -0.168 -0.952 0.257 106 84 47 0 0
-0.1216 -0.1788 -1.4680 -0.169 -0.936 0.310 93 71 35 0 0
-0.1219 -0.1815 -1.4718 -0.050 -0.822 0.567 102 79 45 0 0
-0.1222 -0.1840 -1.4756 -0.224 -0.780 0.584 88 69 37 0 0
-0.1252 -0.2030 -1.5226 -0.416 -0.846 0.334 84 61 31 0 0
-0.1311 -0.2529 -1.5833 -0.357 -0.527 0.771 129 104 73 0 0
-0.1320 -0.2614 -1.5888 -0.305 -0.438 0.846 153 126 85 0 0
-0.1329 -0.2706 -1.5939 -0.305 -0.438 0.846 142 119 82 0 0
-0.1333 -0.2747 -1.5967 -0.179 -0.393 0.902 119 98 64 0 0
-0.1352 -0.2584 -1.7029 -0.172 -0.897 0.408 102 85 55 0 0
-0.1453 -0.3132 -1.8870 -0.124 -0.845 0.521 69 47 24 0 0
-0.1467 -0.3224 -1.9086 0.208 -0.848 0.487 70 48 25 0 0
-0.1470 -0.3248 -1.9126 0.208 -0.848 0.487 67 45 22 0 0
-0.1468 -0.3190 -1.9225 -0.031 -0.913 0.407 66 44 22 0 0
-0.1500 -0.3403 -1.9693 -0.325 -0.784 0.528 62 41 17 0 0
-0.1506 -0.3465 -1.9704 0.107 -0.973 0.205 63 41 17 0 0
-0.1528 -0.3545 -2.0218 -0.507 -0.495 0.706 87 67 41 0 0
-0.1547 -0.3760 -2.0281 -0.076 -0.937 0.342 74 52 24 0 0
-0.1550 -0.3776 -2.0326 -0.076 -0.937 0.342 79 58 30 0 0
-0.1553 -0.3792 -2.0371 0.159 -0.935 0.318 83 62 34 0 0
-0.1618 -0.4224 -2.1359 0.111 -0.972 0.206 83 60 26 0 0
-0.1629 -0.4354 -2.1367 -0.178 -0.937 0.300 88 65 31 0 0
-0.1631 -0.4371 -2.1411 -0.018 -0.915 0.402 89 66 32 0 0
-0.1635 -0.4397 -2.1448 0.060 -0.957 0.283 87 64 30 0 0
-0.1637 -0.4415 -2.1491 -0.022 -0.979 0.204 85 61 24 0 0
-0.1640 -0.4432 -2.1536 -0.038 -0.892 0.450 88 64 26 0 0
-0.1679 -0.4738 -2.1978 -0.283 -0.780 0.558 107 84 43 0 0
-0.0900 0.0544 -0.9065 -0.235 -0.315 0.920 115 99 69 0 0
-0.0952 0.0038 -0.9425 -0.046 -0.816 0.576 88 65 36 0 0
-0.0975 -0.0052 -0.9916 -0.034 -0.987 0.159 80 59 32 0 0
-0.1076 -0.0487 -1.2039 0.431 -0.825 0.367 92 77 52 0 0
-0.1084 -0.0218 -1.3015 -0.646 -0.609 0.461 74 59 41 0 0
-0.1086 -0.0226 -1.3063 -0.661 -0.733 0.161 63 47 26 0 0
-0.1088 -0.0232 -1.3112 -0.482 -0.876 0.000 73 56 32 0 0
-0.1088 -0.0179 -1.3239 -0.709 -0.682 0.182 66 50 29 0 0
-0.1106 -0.0326 -1.3431 -0.625 -0.538 0.566 65 50 31 0 0
-0.1114 -0.0373 -1.3565 -0.584 -0.612 0.534 102 79 49 0 0
-0.1155 -0.0836 -1.3709 -0.351 -0.650 0.674 137 110 79 0 0
-0.1182 -0.1075 -1.3954 -0.007 -0.952 0.307 127 100 63 0 0
-0.1265 -0.1806 -1.4719 -0.109 -0.933 0.344 97 74 42 0 0
-0.1268 -0.1830 -1.4758 -0.223 -0.825 0.519 81 61 33 0 0
-0.1283 -0.1937 -1.4960 0.101 -0.976 0.192 73 51 27 0 0
-0.1320 -0.2169 -1.5564 -0.124 -0.938 0.325 66 42 16 0 0
-0.1324 -0.2173 -1.5668 -0.200 -0.847 0.493 78 55 24 0 0
-0.1327 -0.2198 -1.5706 -0.243 -0.776 0.582 82 59 28 0 0
-0.1330 -0.2232 -1.5739 -0.219 -0.887 0.406 88 65 33 0 0
-0.1336 -0.2264 -1.5826 -0.252 -0.900 0.355 81 56 23 0 0
-0.1370 -0.2652 -1.5915 0.018 -0.469 0.883 147 125 79 0 0
-0.1374 -0.2697 -1.5941 -0.077 -0.452 0.889 157 134 92 0 0
-0.1379 -0.2753 -1.5959 0.141 -0.351 0.926 142 120 79 0 0
-0.1384 -0.2799 -1.5984 0.038 -0.402 0.915 139 117 78 0 0
-0.1416 -0.2929 -1.6699 -0.341 -0.673 -0.656 92 73 44 0 0
-0.1412 -0.2835 -1.6812 -0.376 -0.684 -0.626 114 97 67 0 0
-0.1397 -0.2559 -1.7041 0.030 -0.868 0.496 83 66 36 0 0
-0.1489 -0.3071 -1.8685 -0.285 -0.952 0.115 74 52 28 0 0
-0.1528 -0.3278 -1.9383 -0.094 -0.970 0.223 64 43 22 0 0
-0.1530 -0.3291 -1.9430 -0.128 -0.952 0.279 59 40 18 0 0
-0.1571 -0.3502 -2.0189 0.032 -0.707 0.707 73 52 23 0 0
-0.1592 -0.3750 -2.0226 -0.141 -0.957 0.255 76 53 25 0 0
-0.1593 -0.3736 -2.0295 -0.324 -0.868 0.375 75 52 24 0 0
-0.1595 -0.3754 -2.0338 -0.324 -0.868 0.375 75 54 26 0 0
-0.1598 -0.3771 -2.0383 -0.209 -0.905 0.371 74 53 25 0 0
-0.1601 -0.3789 -2.0427 -0.209 -0.905 0.371 75 54 23 0 0
-0.1645 -0.4129 -2.0965 -0.417 -0.857 0.301 81 58 24 0 0
-0.1647 -0.4128 -2.1024 -0.345 -0.913 0.216 83 60 26 0 0
-0.1685 -0.4403 -2.1556 -0.165 -0.886 0.433 91 67 30 0 0
-0.0945 0.0566 -0.9069 -0.235 -0.315 0.920 114 98 71 0 0
-0.0994 0.0068 -0.9386 -0.046 -0.816 0.576 111 85 52 0 0
-0.1004 -0.0007 -0.9503 -0.216 -0.792 0.570 97 75 42 0 0
-0.1096 -0.0265 -1.1779 0.012 -0.932 0.362 111 91 57 0 0
-0.1123 -0.0503 -1.2030 0.355 -0.793 0.495 86 74 51 0 0
-0.1123 -0.0112 -1.3008 -0.751 -0.448 0.485 75 59 43 0 0
-0.1128 -0.0171 -1.3033 -0.771 -0.485 0.413 68 52 35 0 0
-0.1215 -0.0943 -1.3860 -0.461 -0.751 0.473 129 105 74 0 0
-0.1365 -0.2153 -1.5570 -0.462 -0.830 0.312 79 55 27 0 0
-0.1366 -0.2137 -1.5632 -0.317 -0.716 0.623 76 52 24 0 0
-0.1369 -0.2159 -1.5672 -0.228 -0.933 0.279 80 57 27 0 0
-0.1375 -0.2211 -1.5747 -0.364 -0.785 0.500 83 60 28 0 0
-0.1419 -0.2686 -1.5943 -0.329 -0.387 0.862 153 128 84 0 0
-0.1424 -0.2736 -1.5966 -0.361 -0.367 0.857 139 117 72 0 0
-0.1461 -0.2906 -1.6710 -0.246 -0.689 -0.682 94 76 49 0 0
-0.1450 -0.2613 -1.7111 -0.330 -0.922 0.202 82 62 33 0 0
-0.1451 -0.2593 -1.7178 0.053 -0.965 0.258 91 70 41 0 0
-0.1510 -0.2855 -1.8383 -0.456 -0.630 0.628 72 50 26 0 0
-0.1513 -0.2885 -1.8419 0.123 -0.954 0.275 72 50 26 0 0
-0.1515 -0.2897 -1.8466 0.090 -0.959 0.271 69 48 23 0 0
-0.1530 -0.2994 -1.8679 -0.342 -0.584 0.736 74 52 28 0 0
-0.1533 -0.3022 -1.8715 -0.466 -0.675 0.572 73 51 27 0 0
-0.1536 -0.3043 -1.8757 -0.115 -0.974 0.193 69 47 23 0 0
-0.1539 -0.3055 -1.8804 -0.164 -0.920 0.356 67 45 21 0 0
-0.1544 -0.3091 -1.8891 -0.120 -0.940 0.320 68 46 23 0 0
-0.1559 -0.3197 -1.9097 -0.011 -0.850 0.526 66 44 21 0 0
-0.1562 -0.3222 -1.9136 -0.000 -0.840 0.543 66 44 21 0 0
-0.1565 -0.3236 -1.9182 0.065 -0.937 0.343 67 45 23 0 0
-0.1571 -0.3242 -1.9348 -0.128 -0.950 0.284 62 41 20 0 0
-0.1574 -0.3265 -1.9388 -0.135 -0.939 0.316 64 43 22 0 0
-0.1740 -0.4452 -2.1686 -0.128 -0.936 0.329 92 70 32 0 0
-0.1757 -0.4601 -2.1852 0.193 -0.898 0.396 98 74 36 0 0
-0.1768 -0.4704 -2.1939 -0.154 -0.888 0.433 99 75 35 0 0
-0.1771 -0.4723 -2.1982 -0.153 -0.852 0.501 102 79 38 0 0
-0.0992 0.0545 -0.9060 -0.261 -0.515 0.817 104 87 62 0 0
-0.0995 0.0515 -0.9098 -0.304 -0.554 0.775 107 89 63 0 0
-0.1036 0.0097 -0.9346 0.049 -0.753 0.657 201 176 137 0 0
-0.1039 0.0074 -0.9385 -0.160 -0.753 0.638 113 86 49 0 0
-0.1041 0.0061 -0.9428 -0.268 -0.878 0.397 64 37 9 0 0
-0.1059 -0.0019 -0.9780 0.162 -0.974 0.159 80 59 32 0 0
-0.1130 -0.0216 -1.1498 0.125 -0.991 0.046 84 65 32 0 0
-0.1131 -0.0217 -1.1548 0.129 -0.886 0.446 73 52 23 0 0
-0.1144 -0.0271 -1.1824 -0.019 -0.812 0.584 83 63 30 0 0
-0.1166 -0.0462 -1.2044 0.135 -0.809 0.572 77 65 44 0 0
-0.1176 -0.0077 -1.3279 -0.773 -0.598 0.209 58 45 26 0 0
-0.1183 -0.0126 -1.3360 -0.666 -0.728 0.166 57 44 27 0 0
-0.1192 -0.0223 -1.3420 -0.514 -0.406 0.756 77 60 36 0 0
-0.1280 -0.1097 -1.4040 -0.233 -0.815 0.530 101 80 53 0 0
-0.1346 -0.1720 -1.4602 -0.363 -0.865 0.345 92 70 34 0 0
-0.1358 -0.1798 -1.4768 0.267 -0.838 0.477 89 67 36 0 0
-0.1364 -0.1845 -1.4847 0.267 -0.838 0.477 75 52 22 0 0
-0.1372 -0.1901 -1.4973 -0.003 -0.964 0.266 72 49 24 0 0
-0.1416 -0.2172 -1.5661 0.184 -0.914 0.362 76 52 23 0 0
-0.1513 -0.3051 -1.6562 -0.122 -0.686 -0.717 111 89 57 0 0
-0.1504 -0.2873 -1.6727 -0.232 -0.693 -0.683 93 76 47 0 0
-0.1495 -0.2587 -1.7124 -0.308 -0.928 0.210 73 53 24 0 0
-0.1542 -0.2797 -1.8085 -0.152 -0.926 0.344 68 48 21 0 0
-0.1578 -0.3010 -1.8663 0.048 -0.995 0.088 74 52 28 0 0
-0.1622 -0.3264 -1.9441 -0.155 -0.904 0.398 55 38 14 0 0
-0.1625 -0.3277 -1.9489 -0.369 -0.676 0.638 60 43 18 0 0
-0.1628 -0.3308 -1.9523 -0.369 -0.676 0.638 79 59 35 0 0
-0.1632 -0.3338 -1.9557 -0.369 -0.676 0.638 73 52 30 0 0
-0.1635 -0.3367 -1.9593 -0.418 -0.696 0.584 66 45 24 0 0
-0.1641 -0.3400 -1.9682 -0.049 -0.956 0.289 63 42 19 0 0
-0.1643 -0.3400 -1.9740 -0.072 -0.924 0.376 57 37 13 0 0
-0.1787 -0.4445 -2.1687 -0.250 -0.933 0.258 93 71 33 0 0
-0.1806 -0.4653 -2.1802 -0.340 -0.820 0.460 96 72 34 0 0
-0.1814 -0.4697 -2.1941 -0.154 -0.888 0.433 102 78 40 0 0
-0.1035 0.0587 -0.9071 -0.327 -0.489 0.809 117 101 77 0 0
-0.1040 0.0535 -0.9102 -0.304 -0.554 0.775 107 89 65 0 0
-0.1075 0.0159 -0.9316 -0.337 -0.632 0.698 131 110 71 0 0
-0.1089 0.0047 -0.9468 -0.229 -0.918 0.324 155 128 85 0 0
-0.1104 -0.0008 -0.9781 -0.097 -0.929 0.357 82 61 34 0 0
-0.1174 -0.0195 -1.1504 0.173 -0.883 0.436 79 59 28 0 0
-0.1204 -0.0113 -1.2591 -0.820 -0.519 0.241 79 71 58 0 0
-0.1205 -0.0105 -1.2646 -0.557 -0.825 -0.090 58 47 33 0 0
-0.1232 -0.0126 -1.3409 -0.548 -0.764 0.341 71 57 37 0 0
-0.1245 -0.0233 -1.3568 0.072 -0.628 0.775 69 55 37 0 0
-0.1255 -0.0346 -1.3620 0.086 -0.993 0.075 86 74 50 0 0
-0.1259 -0.0377 -1.3657 -0.338 -0.568 0.751 90 75 50 0 0
-0.1385 -0.1621 -1.4599 -0.103 -0.980 -0.167 101 79 42 0 0
-0.1387 -0.1628 -1.4647 -0.165 -0.953 0.253 93 71 34 0 0
-0.1388 -0.1611 -1.4708 -0.305 -0.613 0.729 82 58 22 0 0
-0.1406 -0.1779 -1.4879 0.139 -0.977 0.164 82 58 30 0 0
-0.1554 -0.3182 -1.6108 -0.178 -0.939 0.293 76 59 26 0 0
-0.1555 -0.3180 -1.6162 -0.215 -0.936 0.277 76 55 29 0 0
-0.1541 -0.2579 -1.7125 -0.217 -0.962 0.164 73 52 23 0 0
-0.1544 -0.2599 -1.7167 0.237 -0.903 0.358 67 44 17 0 0
-0.1571 -0.2661 -1.7839 -0.545 -0.804 0.238 79 58 32 0 0
-0.1617 -0.2948 -1.8590 -0.000 -0.810 0.587 72 50 26 0 0
-0.1687 -0.3392 -1.9684 -0.267 -0.886 0.380 55 34 11 0 0
-0.1833 -0.4441 -2.1685 0.213 -0.745 0.632 96 74 35 0 0
-0.1869 -0.4742 -2.2074 -0.151 -0.926 0.347 91 69 30 0 0
-0.1079 0.0609 -0.9075 -0.531 -0.473 0.703 112 99 83 0 0
-0.1084 0.0566 -0.9109 -0.426 -0.489 0.761 102 84 60 0 0
-0.1134 0.0057 -0.9469 -0.355 -0.857 0.374 165 135 88 0 0
-0.1148 0.0011 -0.9785 -0.148 -0.950 0.275 82 61 34 0 0
-0.1160 0.0024 -1.0170 0.106 -0.942 0.319 73 52 27 0 0
-0.1180 -0.0201 -1.0284 0.161 -0.962 0.219 77 60 34 0 0
-0.1210 -0.0204 -1.1153 -0.041 -0.924 0.379 70 48 24 0 0
-0.1215 -0.0211 -1.1298 -0.089 -0.939 0.333 74 55 27 0 0
-0.1226 -0.0226 -1.1588 0.134 -0.838 0.529 74 53 23 0 0
-0.1246 -0.0032 -1.2623 -0.508 -0.682 0.525 71 64 52 0 0
-0.1250 -0.0064 -1.2660 -0.332 -0.906 0.264 53 42 32 0 0
-0.1248 0.0076 -1.2926 -0.352 -0.919 -0.177 49 38 24 0 0
-0.1285 -0.0160 -1.3495 0.036 -0.632 0.774 123 99 64 0 0
-0.1289 -0.0208 -1.3524 -0.018 -0.490 0.871 101 80 50 0 0
-0.1293 -0.0237 -1.3563 -0.005 -0.742 0.671 72 56 34 0 0
-0.1302 -0.0340 -1.3619 0.022 -0.981 0.191 82 72 52 0 0
-0.1305 -0.0348 -1.3668 -0.114 -0.687 0.718 98 87 69 0 0
-0.1421 -0.1499 -1.4556 -0.056 -0.764 0.643 113 87 52 0 0
-0.1424 -0.1534 -1.4589 -0.103 -0.804 0.586 107 83 46 0 0
-0.1430 -0.1567 -1.4676 -0.030 -0.983 0.183 101 79 41 0 0
-0.1588 -0.3056 -1.6077 -0.536 -0.693 0.482 113 94 63 0 0
-0.1602 -0.3140 -1.6288 -0.566 -0.777 0.275 66 44 20 0 0
-0.1607 -0.3212 -1.6296 -0.229 -0.951 0.208 69 47 23 0 0
-0.1603 -0.2566 -1.7622 -0.509 -0.743 0.435 63 43 18 0 0
-0.1778 -0.3659 -2.0394 -0.220 -0.814 0.537 75 54 23 0 0
-0.1904 -0.4661 -2.1903 -0.330 -0.860 0.390 105 81 45 0 0
-0.1941 -0.4969 -2.2341 -0.186 -0.814 0.551 92 72 39 0 0
-0.1962 -0.5131 -2.2610 -0.169 -0.939 0.298 82 72 52 0 0
-0.1966 -0.5177 -2.2627 -0.379 -0.913 0.149 102 96 81 0 0
-0.1177 0.0095 -0.9479 -0.334 -0.936 0.107 183 152 101 0 0
-0.1225 -0.0211 -1.0230 -0.158 -0.926 0.342 78 59 33 0 0
-0.1221 -0.0065 -1.0425 -0.077 -0.981 0.178 74 52 28 0 0
-0.1249 -0.0203 -1.0956 0.157 -0.732 0.663 65 47 25 0 0
-0.1261 -0.0207 -1.1297 -0.089 -0.939 0.333 74 54 26 0 0
-0.1265 -0.0214 -1.1392 -0.013 -0.970 0.241 74 53 25 0 0
-0.1275 -0.0247 -1.1626 -0.104 -0.826 0.554 81 60 29 0 0
-0.1277 -0.0258 -1.1671 0.015 -0.719 0.695 79 58 27 0 0
-0.1281 -0.0290 -1.1708 -0.314 -0.821 0.476 82 61 29 0 0
-0.1288 0.0000 -1.2532 -0.144 -0.976 0.164 107 97 92 0 0
-0.1290 -0.0007 -1.2579 -0.144 -0.976 0.164 75 65 58 0 0
-0.1292 -0.0011 -1.2629 -0.090 -0.996 0.003 59 48 39 0 0
-0.1296 -0.0048 -1.2664 -0.136 -0.989 0.050 49 38 31 0 0
-0.1348 -0.0320 -1.3626 -0.473 -0.719 0.510 85 73 55 0 0
-0.1431 -0.1107 -1.4337 -0.110 -0.921 0.374 117 94 58 0 0
-0.1433 -0.1122 -1.4381 0.110 -0.894 0.433 118 95 56 0 0
-0.1497 -0.1754 -1.4886 -0.434 -0.798 0.418 79 55 26 0 0
-0.1575 -0.2332 -1.5927 -0.581 -0.295 0.759 125 100 69 0 0
-0.1625 -0.2966 -1.6023 -0.480 -0.477 0.736 167 141 103 0 0
-0.1629 -0.3000 -1.6055 -0.528 -0.643 0.556 111 89 57 0 0
-0.1632 -0.3030 -1.6089 -0.536 -0.693 0.482 76 56 27 0 0
-0.1638 -0.3073 -1.6168 -0.481 -0.771 0.417 110 93 64 0 0
-0.1651 -0.3148 -1.6384 -0.535 -0.820 0.202 92 73 40 0 0
-0.1647 -0.2538 -1.7581 -0.430 -0.876 0.219 74 55 26 0 0
-0.1703 -0.2715 -1.8858 -0.355 -0.932 -0.070 72 50 26 0 0
-0.1721 -0.2964 -1.8852 0.189 -0.979 0.073 66 44 20 0 0
-0.1786 -0.3374 -1.9861 -0.357 -0.918 0.174 62 41 17 0 0
-0.1999 -0.5037 -2.2512 -0.086 -0.801 0.592 95 78 45 0 0
-0.2008 -0.5123 -2.2612 -0.169 -0.939 0.298 85 75 57 0 0
-0.2013 -0.5171 -2.2627 -0.361 -0.798 0.482 110 104 91 0 0
-0.1228 0.0025 -0.9501 -0.471 -0.788 0.396 173 148 95 0 0
-0.1241 0.0030 -0.9881 -0.150 -0.934 0.324 75 53 28 0 0
-0.1262 -0.0073 -1.0275 0.059 -0.931 0.359 75 54 27 0 0
-0.1265 -0.0100 -1.0314 -0.032 -0.975 0.219 75 54 27 0 0
-0.1293 -0.0199 -1.0906 0.070 -0.925 0.374 71 49 27 0 0
-0.1339 -0.0021 -1.2622 -0.441 -0.885 -0.150 39 27 21 0 0
-0.1343 0.0040 -1.2853 -0.438 -0.893 0.103 50 37 28 0 0
-0.1345 0.0045 -1.2907 -0.283 -0.943 0.175 33 23 14 0 0
-0.1346 0.0051 -1.2961 -0.089 -0.993 -0.082 25 15 8 0 0
-0.1347 0.0059 -1.3016 -0.152 -0.976 -0.156 29 19 10 0 0
-0.1349 0.0218 -1.3399 -0.820 -0.550 0.160 37 26 18 0 0
-0.1396 -0.0283 -1.3692 -0.586 -0.389 0.711 75 64 46 0 0
-0.1448 -0.0873 -1.3981 -0.554 -0.773 0.309 143 116 82 0 0
-0.1451 -0.0889 -1.4025 -0.554 -0.773 0.309 140 114 78 0 0
-0.1468 -0.1010 -1.4278 -0.721 -0.573 0.389 121 96 62 0 0
-0.1481 -0.1144 -1.4367 0.003 -0.750 0.661 106 84 45 0 0
-0.1562 -0.1837 -1.5256 -0.137 -0.927 0.349 60 41 19 0 0
-0.1565 -0.1856 -1.5298 -0.112 -0.913 0.391 45 27 9 0 0
-0.1570 -0.1880 -1.5390 -0.281 -0.919 0.275 64 48 28 0 0
-0.1572 -0.1893 -1.5436 -0.281 -0.821 0.496 57 40 18 0 0
-0.1575 -0.1915 -1.5476 -0.320 -0.764 0.561 57 38 14 0 0
-0.1580 -0.1962 -1.5502 -0.095 -0.914 0.394 81 58 31 0 0
-0.1621 -0.2322 -1.5929 -0.340 -0.299 0.892 130 102 71 0 0
-0.1631 -0.2451 -1.5959 -0.642 -0.637 0.426 123 100 60 0 0
-0.1669 -0.2949 -1.6030 -0.430 -0.731 0.531 137 110 73 0 0
-0.1672 -0.2974 -1.6067 -0.458 -0.770 0.444 82 60 28 0 0
-0.1676 -0.3005 -1.6101 -0.418 -0.685 0.597 94 75 44 0 0
-0.1680 -0.3050 -1.6126 0.056 -0.911 0.408 119 100 70 0 0
-0.1683 -0.3073 -1.6164 0.142 -0.801 0.582 94 76 46 0 0
-0.1686 -0.3102 -1.6199 0.289 -0.904 0.316 72 52 24 0 0
-0.1742 -0.2741 -1.8553 0.432 -0.894 -0.120 73 51 28 0 0
-0.1770 -0.3044 -1.8734 -0.343 -0.859 0.381 70 48 23 0 0
-0.1772 -0.3037 -1.8796 0.032 -0.827 0.561 69 47 23 0 0
-0.1769 -0.2889 -1.9014 -0.316 -0.886 0.339 69 47 23 0 0
-0.1860 -0.3538 -2.0306 -0.441 -0.810 0.387 80 61 28 0 0
-0.1885 -0.3731 -2.0619 -0.214 -0.759 0.615 82 62 29 0 0
-0.1965 -0.4395 -2.1534 -0.178 -0.960 0.218 93 70 31 0 0
-0.2010 -0.4741 -2.2119 -0.180 -0.889 0.422 102 79 38 0 0
-0.2045 -0.5027 -2.2516 0.030 -0.946 0.323 102 84 48 0 0
-0.2047 -0.5042 -2.2562 -0.021 -0.962 0.273 92 76 46 0 0
-0.2054 -0.5113 -2.2616 -0.218 -0.905 0.364 91 79 63 0 0
-0.2058 -0.5156 -2.2636 -0.387 -0.801 0.456 117 109 98 0 0
-0.2060 -0.5154 -2.2698 -0.301 -0.932 0.203 149 145 141 0 0
-0.1318 -0.0107 -1.0501 0.074 -0.970 0.231 80 60 33 0 0
-0.1320 -0.0118 -1.0546 0.074 -0.970 0.231 77 57 31 0 0
-0.1339 -0.0199 -1.0903 -0.044 -0.930 0.364 68 48 24 0 0
-0.1343 -0.0189 -1.1053 -0.009 -0.981 0.192 86 64 37 0 0
-0.1357 -0.0192 -1.1444 0.015 -0.997 -0.078 75 54 25 0 0
-0.1359 -0.0195 -1.1493 -0.078 -0.993 0.093 81 60 30 0 0
-0.1361 -0.0195 -1.1542 -0.099 -0.993 0.059 79 58 27 0 0
-0.1363 -0.0204 -1.1588 -0.135 -0.977 0.166 79 58 27 0 0
-0.1371 -0.0306 -1.1597 -0.029 -0.973 0.230 79 58 27 0 0
-0.1379 -0.0259 -1.1913 -0.440 -0.897 0.051 92 68 31 0 0
-0.1387 -0.0252 -1.2167 -0.833 -0.478 -0.279 81 69 54 0 0
-0.1385 0.0003 -1.2629 -0.669 -0.708 -0.226 71 58 50 0 0
-0.1389 0.0062 -1.2859 -0.438 -0.893 0.103 38 25 15 0 0
-0.1391 0.0068 -1.2914 -0.504 -0.823 0.264 53 41 31 0 0
-0.1394 0.0047 -1.2956 -0.482 -0.873 -0.072 42 30 21 0 0
-0.1392 0.0102 -1.3032 0.265 -0.937 -0.225 35 23 13 0 0
-0.1477 -0.0643 -1.3934 -0.614 -0.701 0.362 106 87 51 0 0
-0.1480 -0.0670 -1.3973 -0.409 -0.892 0.190 125 101 61 0 0
-0.1483 -0.0689 -1.4016 0.086 -0.764 0.639 115 91 56 0 0
-0.1489 -0.0757 -1.4035 -0.105 -0.831 0.546 151 127 92 0 0
-0.1512 -0.0977 -1.4239 -0.359 -0.859 0.364 145 120 82 0 0
-0.1516 -0.1023 -1.4268 -0.578 -0.776 0.252 112 88 52 0 0
-0.1528 -0.1142 -1.4364 0.084 -0.701 0.709 120 97 62 0 0
-0.1578 -0.1568 -1.4926 -0.273 -0.870 0.410 81 58 27 0 0
-0.1606 -0.1819 -1.5210 0.015 -0.966 0.260 71 51 24 0 0
-0.1608 -0.1836 -1.5253 -0.063 -0.985 0.161 68 48 22 0 0
-0.1611 -0.1843 -1.5301 -0.063 -0.985 0.161 58 39 12 0 0
-0.1613 -0.1856 -1.5347 -0.107 -0.993 0.051 79 59 33 0 0
-0.1616 -0.1872 -1.5391 -0.107 -0.984 0.139 77 58 30 0 0
-0.1618 -0.1887 -1.5435 0.046 -0.856 0.514 76 57 27 0 0
-0.1622 -0.1914 -1.5472 -0.022 -0.812 0.584 79 59 29 0 0
-0.1625 -0.1936 -1.5513 -0.467 -0.809 0.356 80 58 27 0 0
-0.1665 -0.2293 -1.5942 -0.183 -0.349 0.919 131 103 70 0 0
-0.1675 -0.2416 -1.5976 0.119 -0.349 0.930 116 93 57 0 0
-0.1720 -0.2983 -1.6110 -0.274 -0.599 0.753 111 89 57 0 0
-0.1729 -0.3084 -1.6153 0.088 -0.874 0.479 77 54 26 0 0
-0.1731 -0.3103 -1.6194 -0.263 -0.873 0.412 68 47 20 0 0
-0.2063 -0.4785 -2.2193 -0.171 -0.860 0.480 88 66 27 0 0
-0.2066 -0.4816 -2.2225 -0.134 -0.842 0.523 89 67 30 0 0
-0.2089 -0.5024 -2.2454 0.020 -0.889 0.458 91 71 36 0 0
-0.2093 -0.5033 -2.2565 -0.260 -0.932 0.251 87 70 43 0 0
-0.1241 0.0969 -0.9174 -0.503 -0.090 0.859 180 180 181 0 0
-0.1426 0.0154 -1.2742 -0.927 -0.368 -0.078 94 86 80 0 0
-0.1427 0.0171 -1.2801 -0.930 -0.357 -0.083 99 91 84 0 0
-0.1432 0.0141 -1.2891 -0.932 -0.292 0.215 85 76 68 0 0
-0.1440 0.0301 -1.3430 -0.932 -0.186 0.311 115 98 66 0 0
-0.1530 -0.0682 -1.4016 -0.296 -0.708 0.641 106 87 56 0 0
-0.1533 -0.0714 -1.4053 -0.357 -0.863 0.358 116 97 68 0 0
-0.1541 -0.0782 -1.4124 0.058 -0.926 0.374 143 121 88 0 0
-0.1554 -0.0935 -1.4204 -0.202 -0.956 0.212 151 127 87 0 0
-0.1557 -0.0945 -1.4252 -0.202 -0.956 0.212 148 124 86 0 0
-0.1781 -0.2499 -1.7484 -0.394 -0.830 0.394 70 50 22 0 0
-0.1820 -0.2705 -1.8178 -0.139 -0.708 0.692 74 53 26 0 0
-0.1969 -0.3599 -2.0598 0.026 -0.987 0.158 81 61 28 0 0
-0.2003 -0.3860 -2.1031 -0.343 -0.619 0.706 85 63 26 0 0
-0.2132 -0.5001 -2.2410 -0.072 -0.756 0.650 86 66 31 0 0
-0.2142 -0.5046 -2.2608 -0.598 -0.768 0.230 83 70 49 0 0
-0.2146 -0.5089 -2.2628 -0.494 -0.827 0.269 99 90 74 0 0
-0.1283 0.1037 -0.9192 -0.503 -0.090 0.859 179 179 179 0 0
-0.1457 -0.0292 -1.1449 -0.074 -0.990 -0.123 63 43 16 0 0
-0.1486 0.0387 -1.3519 -0.872 -0.145 0.468 119 98 65 0 0
-0.1597 -0.0900 -1.4166 0.243 -0.953 0.182 138 115 77 0 0
-0.1600 -0.0924 -1.4207 0.223 -0.974 -0.039 139 115 79 0 0
-0.1603 -0.0935 -1.4253 0.075 -0.977 0.201 143 117 80 0 0
-0.1606 -0.0951 -1.4297 -0.229 -0.959 0.165 127 101 62 0 0
-0.1717 -0.1857 -1.5657 -0.103 -0.901 0.422 86 63 30 0 0
-0.1766 -0.2391 -1.5984 -0.047 -0.771 0.635 135 115 78 0 0
-0.1860 -0.2633 -1.8111 -0.060 -0.782 0.620 74 53 27 0 0
-0.1863 -0.2650 -1.8155 -0.333 -0.821 0.464 77 55 30 0 0
-0.1899 -0.2930 -1.8634 -0.263 -0.937 0.229 73 52 25 0 0
-0.1924 -0.3026 -1.9130 0.143 -0.956 0.255 72 50 27 0 0
-0.1967 -0.3314 -1.9773 0.008 -0.721 0.692 59 41 18 0 0
-0.2048 -0.3816 -2.1063 0.129 -0.833 0.538 80 58 21 0 0
-0.2054 -0.3893 -2.1058 -0.169 -0.978 0.123 85 63 26 0 0
-0.2159 -0.4817 -2.2214 -0.032 -0.915 0.402 94 72 35 0 0
-0.2178 -0.4996 -2.2409 -0.072 -0.756 0.650 81 60 26 0 0
-0.2184 -0.5024 -2.2504 -0.217 -0.926 0.309 85 66 36 0 0
-0.2199 -0.5149 -2.2687 -0.489 -0.746 0.452 167 166 162 0 0
-0.1435 -0.0068 -1.0028 -0.369 -0.911 0.184 72 51 24 0 0
-0.1493 -0.0381 -1.1021 0.286 -0.937 0.201 74 54 25 0 0
-0.1513 0.0016 -1.2269 -0.785 -0.512 -0.347 71 63 55 0 0
-0.1646 -0.0890 -1.4220 -0.482 -0.845 0.231 146 119 84 0 0
-0.1648 -0.0888 -1.4273 -0.566 -0.810 0.154 147 121 85 0 0
-0.1684 -0.1281 -1.4544 -0.650 -0.621 0.438 110 86 54 0 0
-0.1811 -0.2379 -1.5987 0.199 -0.616 0.762 128 108 76 0 0
-0.1897 -0.2544 -1.8000 0.055 -0.988 0.148 60 38 15 0 0
-0.1926 -0.2752 -1.8417 -0.076 -0.973 0.220 73 53 26 0 0
-0.2068 -0.3713 -2.0498 -0.157 -0.844 0.512 79 59 26 0 0
-0.2184 -0.4593 -2.2052 0.151 -0.873 0.463 108 83 43 0 0
-0.2187 -0.4614 -2.2092 0.151 -0.873 0.463 108 83 43 0 0
-0.2194 -0.4693 -2.2142 -0.068 -0.910 0.409 108 85 44 0 0
-0.2197 -0.4705 -2.2190 0.032 -0.968 0.248 98 75 35 0 0
-0.2200 -0.4718 -2.2238 0.245 -0.892 0.381 92 70 31 0 0
-0.2205 -0.4815 -2.2211 -0.239 -0.786 0.570 98 76 39 0 0
-0.2234 -0.5030 -2.2613 -0.330 -0.892 0.307 89 77 59 0 0
-0.2244 -0.5116 -2.2713 -0.508 -0.792 0.339 173 173 170 0 0
-0.1377 0.1063 -0.9243 -0.568 -0.142 0.811 180 180 182 0 0
-0.1527 -0.0342 -1.0791 -0.099 -0.764 0.638 73 53 28 0 0
-0.1529 -0.0343 -1.0839 0.201 -0.851 0.485 68 48 24 0 0
-0.1533 -0.0378 -1.0874 -0.037 -0.999 -0.016 64 44 20 0 0
-0.1545 0.0385 -1.2522 -0.895 -0.330 -0.300 198 199 199 0 0
-0.1543 0.0453 -1.2602 -0.901 -0.323 -0.288 200 202 203 0 0
-0.1850 -0.2273 -1.5993 -0.283 -0.097 0.954 122 101 69 0 0
-0.1965 -0.2700 -1.8280 0.027 -0.816 0.577 69 47 23 0 0
-0.1973 -0.2748 -1.8415 -0.076 -0.973 0.220 74 54 27 0 0
-0.2023 -0.3059 -1.9211 -0.237 -0.971 -0.032 70 50 25 0 0
-0.2034 -0.3050 -1.9503 -0.400 -0.812 0.424 78 58 33 0 0
-0.2118 -0.3751 -2.0521 -0.290 -0.760 0.582 80 60 27 0 0
-0.2121 -0.3778 -2.0558 -0.440 -0.737 0.513 80 60 27 0 0
-0.2147 -0.3868 -2.1069 -0.292 -0.846 0.446 88 66 29 0 0
-0.2179 -0.4166 -2.1409 0.035 -0.924 0.381 97 75 38 0 0
-0.2237 -0.4649 -2.2116 -0.211 -0.719 0.663 105 80 39 0 0
-0.2283 -0.5023 -2.2674 -0.463 -0.686 0.562 120 113 104 0 0
-0.1420 0.1127 -0.9260 -0.632 -0.148 0.761 180 180 181 0 0
-0.1492 0.0234 -0.9648 -0.433 -0.818 0.377 83 64 38 0 0
-0.1496 0.0187 -0.9680 -0.536 -0.707 0.460 60 45 18 0 0
-0.1802 -0.1349 -1.5079 -0.263 -0.944 0.199 87 64 33 0 0
-0.1805 -0.1370 -1.5120 -0.256 -0.805 0.535 88 65 34 0 0
-0.1807 -0.1381 -1.5167 -0.438 -0.825 0.357 85 64 33 0 0
-0.1954 -0.2977 -1.6306 -0.077 -0.779 0.622 72 51 24 0 0
-0.1956 -0.2988 -1.6352 0.034 -0.893 0.448 78 56 28 0 0
-0.1940 -0.2235 -1.7199 -0.351 -0.879 0.322 69 47 22 0 0
-0.2018 -0.2752 -1.8352 -0.151 -0.774 0.614 70 50 23 0 0
-0.2238 -0.4200 -2.1671 0.124 -0.833 0.540 98 74 34 0 0
-0.2325 -0.4860 -2.2820 -0.364 -0.779 0.510 129 123 116 0 0
-0.1536 0.0266 -0.9656 -0.316 -0.747 0.585 68 50 27 0 0
-0.1539 0.0237 -0.9694 -0.316 -0.747 0.585 51 34 14 0 0
-0.1552 0.0119 -0.9845 -0.185 -0.738 0.648 91 75 44 0 0
-0.1555 0.0096 -0.9885 -0.185 -0.792 0.581 83 67 37 0 0
-0.1559 0.0060 -0.9921 -0.076 -0.774 0.628 90 73 46 0 0
-0.1561 0.0061 -0.9969 -0.219 -0.936 0.275 88 72 47 0 0
-0.1564 0.0077 -1.0070 -0.122 -0.978 0.169 77 57 33 0 0
-0.1666 0.0704 -1.3703 -0.065 -0.985 0.161 115 95 64 0 0
-0.1668 0.0696 -1.3752 -0.065 -0.985 0.161 118 96 65 0 0
-0.1730 -0.0224 -1.3854 0.127 -0.700 0.703 101 84 56 0 0
-0.1737 -0.0234 -1.4007 0.519 -0.480 0.707 113 94 63 0 0
-0.1777 -0.0737 -1.4234 -0.409 -0.603 0.685 153 123 84 0 0
-0.1842 -0.1289 -1.5002 -0.382 -0.914 0.135 87 65 34 0 0
-0.1851 -0.1362 -1.5121 -0.213 -0.693 0.689 89 68 37 0 0
-0.1854 -0.1368 -1.5171 -0.427 -0.744 0.514 91 70 39 0 0
-0.1905 -0.1818 -1.5771 -0.757 -0.563 0.331 93 73 39 0 0
-0.1992 -0.2901 -1.6243 -0.421 -0.682 0.598 67 47 25 0 0
-0.1994 -0.2904 -1.6294 -0.453 -0.741 0.496 68 49 22 0 0
-0.1987 -0.2189 -1.7279 -0.190 -0.876 0.443 91 72 40 0 0
-0.1991 -0.2225 -1.7311 -0.236 -0.720 0.652 93 74 43 0 0
-0.2048 -0.2592 -1.8178 0.092 -0.975 0.200 68 46 22 0 0
-0.2237 -0.3821 -2.1039 -0.292 -0.846 0.446 86 64 25 0 0
-0.2240 -0.3847 -2.1077 0.173 -0.754 0.634 87 65 26 0 0
-0.2246 -0.3895 -2.1155 0.033 -0.854 0.520 90 68 31 0 0
-0.2249 -0.3917 -2.1196 -0.099 -0.963 0.251 89 67 30 0 0
-0.2371 -0.4847 -2.2827 -0.199 -0.803 0.562 135 132 126 0 0
-0.1603 0.0094 -0.9930 -0.470 -0.758 0.451 70 51 19 0 0
-0.1622 0.0084 -1.0406 -0.316 -0.947 0.052 68 52 27 0 0
-0.1763 0.0019 -1.3860 -0.082 -0.440 0.894 112 91 61 0 0
-0.1781 -0.0204 -1.3965 -0.396 -0.691 0.604 110 90 60 0 0
-0.1785 -0.0259 -1.3991 -0.317 -0.569 0.759 111 91 61 0 0
-0.1789 -0.0300 -1.4024 -0.317 -0.569 0.759 113 92 58 0 0
-0.1794 -0.0355 -1.4050 -0.270 -0.623 0.734 127 106 69 0 0
-0.1818 -0.0681 -1.4153 -0.371 -0.760 0.534 126 103 69 0 0
-0.1823 -0.0714 -1.4242 -0.409 -0.603 0.685 122 95 60 0 0
-0.1849 -0.0923 -1.4557 -0.443 -0.766 0.466 124 100 65 0 0
-0.1893 -0.1294 -1.5101 -0.483 -0.830 0.281 80 59 28 0 0
-0.1910 -0.1393 -1.5366 -0.311 -0.900 0.306 77 56 28 0 0
-0.1940 -0.1724 -1.5607 -0.211 -0.846 0.490 87 67 32 0 0
-0.1950 -0.1772 -1.5793 -0.582 -0.770 0.262 100 80 45 0 0
-0.1953 -0.1796 -1.5833 -0.276 -0.952 -0.137 96 74 40 0 0
-0.1955 -0.1746 -1.5968 -0.107 -0.925 -0.365 122 97 60 0 0
-0.1957 -0.1735 -1.6029 -0.188 -0.596 0.781 133 108 68 0 0
-0.2016 -0.2683 -1.6055 -0.419 -0.719 0.554 157 130 90 0 0
-0.2020 -0.2719 -1.6087 -0.191 -0.851 0.490 113 90 52 0 0
-0.2023 -0.2742 -1.6126 -0.417 -0.852 0.317 124 106 68 0 0
-0.2025 -0.2753 -1.6171 -0.214 -0.964 0.159 105 86 54 0 0
-0.2028 -0.2760 -1.6220 -0.214 -0.964 0.159 114 95 66 0 0
-0.2031 -0.2800 -1.6249 -0.184 -0.698 0.692 69 49 25 0 0
-0.2033 -0.2145 -1.7302 -0.208 -0.858 0.471 90 71 39 0 0
-0.2094 -0.2556 -1.8198 -0.074 -0.833 0.548 69 47 23 0 0
-0.2194 -0.3088 -1.9922 -0.023 -0.940 0.341 68 49 24 0 0
-0.1570 0.1054 -0.9422 -0.784 -0.119 0.610 179 180 184 0 0
-0.1576 0.0973 -0.9445 -0.784 -0.119 0.610 179 180 182 0 0
-0.1666 0.0090 -1.0357 -0.429 -0.860 0.275 66 51 27 0 0
-0.1668 0.0078 -1.0401 -0.308 -0.949 0.062 57 43 19 0 0
-0.1674 0.0077 -1.0546 -0.194 -0.966 0.169 53 38 18 0 0
-0.1677 0.0062 -1.0589 -0.337 -0.886 0.319 63 48 25 0 0
-0.1680 0.0035 -1.0627 -0.416 -0.816 0.403 71 57 32 0 0
-0.1827 -0.0169 -1.3978 -0.432 -0.721 0.542 106 86 60 0 0
-0.1830 -0.0195 -1.4018 -0.510 -0.474 0.717 104 84 59 0 0
-0.1882 -0.0781 -1.4415 0.159 -0.845 0.511 116 94 64 0 0
-0.1885 -0.0768 -1.4527 -0.236 -0.969 0.076 124 100 64 0 0
-0.1949 -0.1319 -1.5296 -0.007 -0.940 0.342 86 65 34 0 0
-0.1952 -0.1335 -1.5341 -0.007 -0.940 0.342 86 65 35 0 0
-0.1974 -0.1615 -1.5452 0.104 -0.709 0.698 89 69 36 0 0
-0.1977 -0.1647 -1.5488 0.066 -0.782 0.619 101 81 47 0 0
-0.1996 -0.1758 -1.5797 -0.345 -0.933 0.102 100 80 43 0 0
-0.1999 -0.1768 -1.5845 -0.515 -0.844 -0.148 100 80 42 0 0
-0.2099 -0.2194 -1.7710 -0.375 -0.679 0.631 80 61 29 0 0
-0.2102 -0.2224 -1.7746 -0.412 -0.770 0.486 83 64 32 0 0
-0.2105 -0.2243 -1.7789 -0.414 -0.779 0.471 85 66 35 0 0
-0.2135 -0.2450 -1.8210 -0.460 -0.874 0.156 73 51 27 0 0
-0.2241 -0.3061 -1.9937 -0.462 -0.820 0.337 71 51 26 0 0
-0.2245 -0.3129 -1.9944 0.008 -0.845 0.534 68 48 23 0 0
-0.2304 -0.3607 -2.0676 -0.550 -0.826 0.121 82 66 34 0 0
-0.2330 -0.3791 -2.1055 -0.275 -0.792 0.545 83 60 25 0 0
-0.2407 -0.4461 -2.1965 -0.223 -0.793 0.567 113 90 49 0 0
-0.2410 -0.4483 -2.2005 -0.089 -0.888 0.451 113 90 49 0 0
-0.2413 -0.4507 -2.2043 -0.251 -0.823 0.510 115 91 50 0 0
-0.2475 -0.4978 -2.2876 0.247 -0.644 0.724 199 200 202 0 0
-0.1702 0.0165 -1.0236 -0.070 -0.734 0.675 62 45 23 0 0
-0.1706 0.0133 -1.0273 -0.089 -0.729 0.679 61 46 24 0 0
-0.1708 0.0120 -1.0317 -0.025 -0.984 0.174 58 43 22 0 0
-0.1710 0.0117 -1.0364 -0.137 -0.929 0.342 61 46 25 0 0
-0.1714 0.0093 -1.0404 -0.199 -0.971 0.132 55 39 21 0 0
-0.1722 0.0088 -1.0595 -0.552 -0.827 0.108 70 56 35 0 0
-0.1725 0.0050 -1.0630 -0.342 -0.862 0.373 49 34 13 0 0
-0.1728 0.0033 -1.0673 -0.329 -0.856 0.399 47 33 11 0 0
-0.1730 0.0038 -1.0723 -0.309 -0.951 0.028 60 47 24 0 0
-0.1909 -0.0618 -1.4178 -0.511 -0.495 0.703 114 90 58 0 0
-0.1934 -0.0802 -1.4506 -0.362 -0.798 0.482 111 86 50 0 0
-0.1937 -0.0821 -1.4549 -0.353 -0.828 0.436 119 95 58 0 0
-0.1985 -0.1260 -1.5112 -0.332 -0.933 0.136 89 68 38 0 0
-0.1988 -0.1281 -1.5154 -0.092 -0.974 0.205 94 72 42 0 0
-0.1991 -0.1285 -1.5205 -0.066 -0.916 0.395 89 68 37 0 0
-0.1996 -0.1319 -1.5293 -0.260 -0.881 0.396 83 62 32 0 0
-0.1999 -0.1338 -1.5336 -0.260 -0.881 0.396 88 67 35 0 0
-0.2002 -0.1370 -1.5372 0.147 -0.622 0.769 92 72 40 0 0
-0.2034 -0.1640 -1.5754 -0.014 -0.665 0.746 101 81 48 0 0
-0.2037 -0.1671 -1.5790 0.128 -0.638 0.760 97 76 41 0 0
-0.2041 -0.1707 -1.5823 -0.521 -0.839 0.158 103 82 44 0 0
-0.2043 -0.1717 -1.5870 -0.505 -0.861 -0.052 102 82 43 0 0
-0.2045 -0.1714 -1.5926 -0.267 -0.733 0.626 129 107 68 0 0
-0.2146 -0.2191 -1.7708 -0.428 -0.880 0.207 84 65 33 0 0
-0.2203 -0.2451 -1.8712 0.352 -0.863 0.362 72 51 27 0 0
-0.2292 -0.3127 -1.9940 0.008 -0.845 0.534 71 51 25 0 0
-0.2329 -0.3408 -2.0420 -0.009 -0.924 0.382 78 59 27 0 0
-0.2378 -0.3833 -2.1015 -0.223 -0.950 0.217 86 63 29 0 0
-0.2521 -0.4989 -2.2860 0.151 -0.687 0.711 201 201 203 0 0
-0.1755 0.0135 -1.0368 -0.485 -0.702 0.521 64 49 27 0 0
-0.1759 0.0097 -1.0402 -0.078 -0.987 0.139 63 45 27 0 0
-0.1763 0.0064 -1.0439 -0.048 -0.994 0.094 64 48 29 0 0
-0.1766 0.0082 -1.0542 -0.027 -0.939 0.342 61 48 28 0 0
-0.1768 0.0067 -1.0585 -0.027 -0.939 0.342 57 44 24 0 0
-0.1771 0.0058 -1.0630 0.012 -0.985 0.174 59 47 27 0 0
-0.1772 0.0082 -1.0688 -0.324 -0.942 -0.086 57 45 25 0 0
-0.1955 -0.0564 -1.4201 -0.568 -0.397 0.721 114 94 65 0 0
-0.1959 -0.0617 -1.4227 -0.566 -0.309 0.765 102 81 54 0 0
-0.1966 -0.0706 -1.4288 -0.151 -0.435 0.888 93 75 51 0 0
-0.1977 -0.0761 -1.4471 -0.240 -0.968 0.071 118 98 65 0 0
-0.1988 -0.0886 -1.4565 0.467 -0.615 0.636 119 96 63 0 0
-0.1998 -0.0963 -1.4684 -0.213 -0.462 0.861 91 70 41 0 0
-0.2006 -0.0884 -1.4990 0.307 -0.928 0.213 95 74 42 0 0
-0.2031 -0.1219 -1.5131 -0.688 -0.531 0.494 84 63 33 0 0
-0.2042 -0.1295 -1.5302 -0.417 -0.663 0.622 82 61 31 0 0
-0.2046 -0.1329 -1.5337 -0.269 -0.794 0.546 91 70 37 0 0
-0.2077 -0.1590 -1.5725 -0.100 -0.888 0.449 93 73 38 0 0
-0.2083 -0.1642 -1.5803 0.067 -0.473 0.878 92 70 35 0 0
-0.2086 -0.1665 -1.5843 -0.363 -0.807 0.466 102 79 40 0 0
-0.2088 -0.1665 -1.5897 -0.227 -0.908 0.353 110 88 51 0 0
-0.2131 -0.2296 -1.6063 -0.164 -0.260 0.952 138 113 80 0 0
-0.2564 -0.4908 -2.2870 0.304 -0.561 0.770 198 198 198 0 0
-0.1720 0.1090 -0.9716 -0.928 -0.110 0.357 179 180 182 0 0
-0.2013 -0.0629 -1.4376 -0.666 -0.480 0.570 96 80 54 0 0
-0.2028 -0.0808 -1.4496 -0.087 -0.795 0.600 103 83 53 0 0
-0.2031 -0.0840 -1.4533 0.003 -0.730 0.684 106 85 55 0 0
-0.2038 -0.0917 -1.4599 -0.131 -0.603 0.787 103 82 53 0 0
-0.2041 -0.0940 -1.4640 0.003 -0.730 0.684 109 89 59 0 0
-0.2044 -0.0958 -1.4683 -0.537 -0.779 0.325 84 65 35 0 0
-0.2088 -0.1256 -1.5320 -0.294 -0.798 0.526 86 65 34 0 0
-0.2121 -0.1640 -1.5587 -0.317 -0.928 0.196 94 74 41 0 0
-0.2124 -0.1595 -1.5719 -0.116 -0.955 0.272 104 84 50 0 0
-0.2126 -0.1606 -1.5766 -0.194 -0.620 0.760 100 80 48 0 0
-0.2130 -0.1640 -1.5800 -0.528 -0.776 0.345 77 57 25 0 0
-0.2179 -0.2335 -1.6036 -0.052 -0.457 0.888 143 119 82 0 0
-0.2208 -0.2697 -1.6243 -0.253 -0.851 0.461 76 57 27 0 0
-0.2264 -0.2291 -1.8136 0.387 -0.740 0.551 77 57 30 0 0
-0.2282 -0.2485 -1.8286 -0.503 -0.626 0.596 77 56 29 0 0
-0.2358 -0.2764 -1.9740 0.047 -0.993 0.105 68 51 25 0 0
-0.2424 -0.3351 -2.0514 -0.345 -0.872 0.348 79 59 26 0 0
-0.2447 -0.3497 -2.0867 -0.424 -0.896 0.136 109 86 51 0 0
-0.2450 -0.3507 -2.0918 -0.416 -0.817 0.399 88 63 30 0 0
-0.2453 -0.3541 -2.0950 -0.228 -0.964 0.136 86 62 28 0 0
-0.2467 -0.3711 -2.1047 -0.073 -0.918 0.389 88 65 31 0 0
-0.2608 -0.4905 -2.2807 -0.012 -0.483 0.875 189 189 189 0 0
-0.2612 -0.4984 -2.2794 0.032 -0.655 0.755 198 198 198 0 0
-0.1988 0.0366 -1.3953 -0.741 -0.323 0.589 92 75 55 0 0
-0.2074 -0.0778 -1.4508 -0.617 -0.718 0.323 101 80 56 0 0
-0.2088 -0.0804 -1.4812 -0.441 -0.893 0.089 93 76 46 0 0
-0.2091 -0.0811 -1.4861 -0.127 -0.982 -0.139 115 96 65 0 0
-0.2101 -0.0899 -1.4975 0.321 -0.717 0.619 101 81 50 0 0
-0.2161 -0.1436 -1.5698 -0.777 -0.529 0.342 98 78 45 0 0
-0.2283 -0.2018 -1.7808 -0.438 -0.618 0.652 94 75 43 0 0
-0.2396 -0.2746 -1.9518 -0.288 -0.905 0.313 68 48 23 0 0
-0.2398 -0.2758 -1.9567 -0.240 -0.938 0.251 71 51 26 0 0
-0.2471 -0.3335 -2.0522 -0.345 -0.862 0.371 77 56 26 0 0
-0.2531 -0.3810 -2.1314 -0.311 -0.913 0.266 88 63 30 0 0
-0.2658 -0.5013 -2.2762 -0.213 -0.732 0.647 200 200 200 0 0
-0.2669 -0.5379 -2.2540 0.080 -0.944 0.319 208 208 210 0 0
-0.2037 0.0409 -1.4023 -0.637 -0.459 0.619 92 77 53 0 0
-0.2042 0.0321 -1.4035 -0.520 -0.443 0.730 90 76 51 0 0
-0.2051 0.0179 -1.4074 -0.215 -0.201 0.956 96 79 56 0 0
-0.2123 -0.0759 -1.4567 -0.719 -0.541 0.435 99 79 54 0 0
-0.2125 -0.0769 -1.4615 -0.717 -0.697 0.019 98 78 51 0 0
-0.2130 -0.0846 -1.4629 -0.842 -0.433 0.322 95 75 48 0 0
-0.2135 -0.0785 -1.4819 -0.532 -0.764 0.366 83 63 35 0 0
-0.2139 -0.0855 -1.4835 0.257 -0.897 0.360 99 80 48 0 0
-0.2146 -0.0914 -1.4910 0.218 -0.888 0.404 92 73 41 0 0
-0.2148 -0.0906 -1.4968 -0.055 -0.856 0.513 97 77 46 0 0
-0.2217 -0.1510 -1.5813 -0.518 -0.577 0.632 84 62 31 0 0
-0.2219 -0.1507 -1.5868 -0.181 -0.388 0.904 83 60 31 0 0
-0.2223 -0.1573 -1.5885 -0.213 -0.506 0.836 111 89 53 0 0
-0.2422 -0.2689 -1.9097 -0.395 -0.776 0.492 75 55 29 0 0
-0.2518 -0.3319 -2.0530 -0.345 -0.862 0.371 64 45 22 0 0
-0.2569 -0.3752 -2.1181 -0.154 -0.972 0.177 89 67 33 0 0
-0.2712 -0.5152 -2.2747 0.317 -0.506 0.802 208 208 210 0 0
-0.2100 0.0212 -1.4140 -0.764 -0.338 0.550 95 79 55 0 0
-0.2105 0.0152 -1.4165 -0.748 -0.546 0.377 92 76 51 0 0
-0.2108 0.0121 -1.4203 -0.763 -0.554 0.332 100 84 58 0 0
-0.2167 -0.0664 -1.4612 -0.870 -0.336 0.360 97 80 52 0 0
-0.2187 -0.0882 -1.4818 -0.024 -0.734 0.679 102 83 51 0 0
-0.2193 -0.0909 -1.4910 -0.163 -0.964 0.213 95 76 44 0 0
-0.2195 -0.0899 -1.4968 -0.333 -0.934 0.130 95 76 44 0 0
-0.2198 -0.0926 -1.5007 -0.055 -0.856 0.513 98 79 47 0 0
-0.2204 -0.0983 -1.5083 -0.102 -0.454 0.885 90 71 39 0 0
-0.2233 -0.1166 -1.5518 -0.104 -0.732 0.673 96 77 44 0 0
-0.2236 -0.1186 -1.5562 -0.481 -0.873 0.085 96 77 45 0 0
-0.2262 -0.1453 -1.5842 -0.663 -0.402 0.631 79 61 30 0 0
-0.2383 -0.2033 -1.7901 -0.325 -0.641 0.695 75 58 31 0 0
-0.2387 -0.2095 -1.7917 0.033 -0.702 0.712 95 75 45 0 0
-0.2390 -0.2129 -1.7951 0.033 -0.702 0.712 99 78 46 0 0
-0.2394 -0.2187 -1.7969 0.047 -0.921 0.387 95 74 42 0 0
-0.2440 -0.2382 -1.8796 -0.256 -0.694 0.673 77 57 30 0 0
-0.2450 -0.2482 -1.8897 -0.370 -0.923 -0.104 80 60 34 0 0
-0.2567 -0.3295 -2.0603 -0.583 -0.788 0.200 59 41 20 0 0
-0.2593 -0.3470 -2.0993 -0.223 -0.895 0.387 75 53 24 0 0
-0.2706 -0.4576 -2.2250 0.165 -0.682 0.712 107 84 43 0 0
-0.2715 -0.4634 -2.2378 -0.170 -0.887 0.430 104 81 40 0 0
-0.2717 -0.4592 -2.2476 -0.349 -0.805 0.481 102 79 39 0 0
-0.2734 -0.4645 -2.2789 -0.283 -0.540 0.792 121 112 102 0 0
-0.2737 -0.4690 -2.2809 -0.347 -0.547 0.762 149 144 137 0 0
-0.2754 -0.5066 -2.2763 -0.311 -0.738 0.599 206 206 208 0 0
-0.2273 -0.1099 -1.5445 0.082 -0.458 0.885 96 76 44 0 0
-0.2277 -0.1139 -1.5476 0.139 -0.462 0.876 90 71 39 0 0
-0.2280 -0.1160 -1.5518 -0.019 -0.866 0.500 91 72 40 0 0
-0.2314 -0.1480 -1.5930 -0.839 -0.453 0.302 106 82 45 0 0
-0.2369 -0.2446 -1.6062 0.034 -0.757 0.653 124 100 68 0 0
-0.2372 -0.2461 -1.6106 -0.226 -0.753 0.618 157 132 96 0 0
-0.2415 -0.1901 -1.7704 -0.428 -0.849 0.312 95 75 44 0 0
-0.2434 -0.2082 -1.7921 -0.108 -0.541 0.834 97 75 46 0 0
-0.2437 -0.2132 -1.7944 0.010 -0.634 0.773 97 76 43 0 0
-0.2486 -0.2323 -1.8832 -0.202 -0.830 0.519 79 59 33 0 0
-0.2546 -0.2788 -1.9647 -0.124 -0.689 0.714 82 61 36 0 0
-0.2753 -0.4571 -2.2249 -0.131 -0.705 0.697 102 79 38 0 0
-0.2756 -0.4612 -2.2273 0.149 -0.645 0.750 101 78 37 0 0
-0.2759 -0.4634 -2.2313 -0.151 -0.725 0.672 101 78 37 0 0
-0.2761 -0.4624 -2.2382 0.011 -0.863 0.504 102 79 39 0 0
-0.2779 -0.4719 -2.2656 -0.531 -0.808 0.254 100 90 77 0 0
-0.2780 -0.4628 -2.2800 -0.409 -0.871 0.273 130 122 115 0 0
