ply
format ascii 1.0
element vertex 886
property float x
property float y
property float z
property float nx
property float ny
property float nz
property uchar diffuse_red
property uchar diffuse_green
property uchar diffuse_blue
property uchar class
property uchar detection
end_header
0.4708 0.1365 -2.1369 0.900 0.147 0.411 81 60 29 0 0
0.4809 0.1401 -2.1451 0.817 0.053 0.574 84 61 29 0 0
0.4828 0.1407 -2.1492 0.789 0.127 0.602 82 59 28 0 0
0.4850 0.1410 -2.1647 0.875 0.166 0.454 80 58 31 0 0
0.4948 0.1444 -2.1731 0.878 0.228 0.421 77 55 29 0 0
0.4966 0.1450 -2.1772 0.878 0.228 0.421 79 58 32 0 0
0.4992 0.1456 -2.1866 0.919 0.113 0.378 86 66 34 0 0
0.5017 0.1465 -2.1900 0.826 0.204 0.525 88 66 33 0 0
0.5039 0.1472 -2.1938 0.826 0.204 0.525 99 77 43 0 0
0.5055 0.1477 -2.1982 0.714 0.274 0.644 98 76 42 0 0
0.5084 0.1487 -2.2013 0.717 0.114 0.687 99 77 43 0 0
0.5260 0.1550 -2.2137 0.790 0.185 0.585 62 46 30 0 0
0.1249 0.0426 -0.9367 0.383 0.120 0.916 181 182 183 0 0
0.1283 0.0438 -0.9398 0.442 -0.306 0.843 180 181 181 0 0
0.1359 0.0467 -0.9415 0.411 -0.219 0.885 180 179 179 0 0
0.1417 0.0489 -0.9439 0.428 -0.281 0.859 179 178 177 0 0
0.1454 0.0502 -0.9469 0.432 -0.391 0.813 176 174 175 0 0
0.1556 0.0540 -0.9520 0.635 -0.416 0.650 162 157 153 0 0
0.1573 0.0546 -0.9556 0.653 -0.397 0.645 157 151 143 0 0
0.1623 0.0564 -0.9582 0.572 0.795 0.202 153 147 137 0 0
0.1636 0.0567 -0.9621 0.516 0.828 0.220 149 143 134 0 0
0.1641 0.0568 -0.9662 0.395 0.879 0.266 143 136 127 0 0
0.1653 0.0571 -0.9700 0.311 0.907 0.286 143 136 128 0 0
0.1924 0.0649 -1.0426 0.876 0.465 0.129 70 59 47 0 0
0.1915 0.0637 -1.0649 0.860 0.508 -0.052 67 52 41 0 0
0.2034 0.0658 -1.1314 0.814 0.479 0.328 64 43 23 0 0
0.2036 0.0657 -1.1358 0.870 0.439 0.226 63 44 24 0 0
0.1944 0.0608 -1.1716 0.857 0.496 -0.137 74 56 37 0 0
0.1942 0.0605 -1.1762 0.798 0.603 -0.012 76 58 37 0 0
0.1805 0.0533 -1.2240 0.758 0.058 0.650 82 60 34 0 0
0.1821 0.0538 -1.2280 0.922 0.081 0.380 91 72 45 0 0
0.1355 0.0331 -1.2926 0.660 0.657 0.364 73 54 31 0 0
0.1364 0.0333 -1.2970 0.782 0.496 0.376 63 45 23 0 0
0.1368 0.0333 -1.3016 0.872 -0.044 0.488 70 54 31 0 0
0.1370 0.0330 -1.3112 0.875 0.396 0.279 82 65 44 0 0
0.1398 0.0338 -1.3196 0.742 0.670 0.010 57 40 25 0 0
0.1619 0.0410 -1.3574 0.774 0.190 0.604 91 74 54 0 0
0.1650 0.0421 -1.3606 0.763 0.401 0.508 72 54 38 0 0
0.1666 0.0426 -1.3647 0.860 0.210 0.465 75 57 42 0 0
0.2004 0.0547 -1.3912 0.746 0.117 0.656 91 68 41 0 0
0.2040 0.0560 -1.3942 0.656 0.133 0.743 86 63 35 0 0
0.2163 0.0597 -1.4219 0.906 -0.055 0.419 108 84 54 0 0
0.2200 0.0611 -1.4248 0.950 -0.019 0.312 106 84 52 0 0
0.2214 0.0615 -1.4290 0.950 -0.019 0.312 104 84 52 0 0
0.2215 0.0613 -1.4339 0.796 0.076 0.600 75 53 25 0 0
0.2241 0.0622 -1.4374 0.709 0.257 0.656 85 64 37 0 0
0.2301 0.0643 -1.4440 0.642 0.202 0.740 99 76 45 0 0
0.2344 0.0658 -1.4465 0.755 0.625 0.195 101 81 47 0 0
0.2366 0.0666 -1.4502 0.755 0.496 0.429 111 89 55 0 0
0.2395 0.0674 -1.4585 0.828 0.496 0.261 87 66 31 0 0
0.2676 0.0766 -1.5020 0.910 -0.318 0.264 75 56 27 0 0
0.2732 0.0782 -1.5187 0.881 -0.330 0.339 84 64 40 0 0
0.2793 0.0796 -1.5452 0.855 -0.090 0.511 196 167 111 0 0
0.2821 0.0805 -1.5486 0.724 0.353 0.592 125 94 50 0 0
0.2855 0.0814 -1.5617 0.633 0.737 0.238 83 60 30 0 0
0.3045 0.0883 -1.5752 0.795 0.568 0.215 59 42 24 0 0
0.3058 0.0886 -1.5794 0.699 0.512 0.500 73 54 28 0 0
0.3146 0.0917 -1.5891 0.777 0.335 0.533 133 106 71 0 0
0.3237 0.0950 -1.5934 0.430 0.285 0.856 122 97 65 0 0
0.3307 0.0977 -1.5940 0.705 0.029 0.709 103 83 52 0 0
0.3370 0.0940 -1.7562 0.933 0.096 0.346 89 72 40 0 0
0.3370 0.0938 -1.7616 0.925 0.375 -0.055 59 43 22 0 0
0.3377 0.0939 -1.7664 0.866 0.336 0.371 40 25 12 0 0
0.3876 0.1067 -1.9417 0.750 0.013 0.661 62 40 19 0 0
0.4075 0.1129 -1.9814 0.850 0.025 0.526 50 30 10 0 0
0.4121 0.1144 -1.9889 0.850 0.025 0.526 72 50 27 0 0
0.4145 0.1152 -1.9925 0.858 0.049 0.511 74 52 28 0 0
0.4663 0.1303 -2.1249 0.941 0.189 0.282 78 55 23 0 0
0.4676 0.1307 -2.1296 0.941 0.189 0.282 79 56 24 0 0
0.4697 0.1314 -2.1334 0.852 0.148 0.502 84 60 29 0 0
0.4718 0.1320 -2.1374 0.900 0.147 0.411 86 64 32 0 0
0.4761 0.1336 -2.1392 0.781 0.130 0.611 88 65 34 0 0
0.4786 0.1345 -2.1427 0.781 0.130 0.611 90 67 35 0 0
0.4838 0.1362 -2.1496 0.789 0.127 0.602 81 59 28 0 0
0.4864 0.1371 -2.1529 0.879 0.200 0.433 75 53 24 0 0
0.5027 0.1420 -2.1905 0.905 0.107 0.412 91 68 37 0 0
0.5049 0.1427 -2.1942 0.806 0.284 0.519 99 76 42 0 0
0.5070 0.1434 -2.1982 0.727 0.272 0.630 97 74 41 0 0
0.5107 0.1448 -2.2004 0.608 0.454 0.652 94 72 39 0 0
0.5301 0.1510 -2.2348 0.945 0.325 0.026 60 50 38 0 0
0.5311 0.1512 -2.2398 0.964 0.251 0.090 59 50 40 0 0
0.5322 0.1515 -2.2447 0.953 0.176 0.245 67 58 51 0 0
0.5348 0.1524 -2.2481 0.910 0.037 0.413 65 57 49 0 0
0.1502 0.0475 -0.9499 0.466 -0.178 0.867 181 182 184 0 0
0.1548 0.0492 -0.9526 0.665 -0.272 0.695 182 182 184 0 0
0.1558 0.0495 -0.9566 0.656 -0.464 0.596 181 182 183 0 0
0.1666 0.0537 -0.9571 0.475 0.853 0.216 182 181 182 0 0
0.1691 0.0545 -0.9605 0.214 0.969 0.121 182 181 181 0 0
0.1701 0.0548 -0.9645 0.214 0.969 0.121 181 180 181 0 0
0.1707 0.0548 -0.9686 0.311 0.907 0.286 182 180 181 0 0
0.1742 0.0561 -0.9716 0.228 0.879 0.418 182 181 182 0 0
0.2035 0.0626 -1.1005 0.849 0.336 0.407 91 77 59 0 0
0.2009 0.0601 -1.1375 0.919 -0.394 0.008 87 69 47 0 0
0.1966 0.0573 -1.1666 0.909 0.343 -0.236 83 66 44 0 0
0.1964 0.0570 -1.1712 0.900 0.432 -0.058 80 62 39 0 0
0.1962 0.0568 -1.1759 0.900 0.432 -0.058 89 72 47 0 0
0.1368 0.0291 -1.2878 0.845 0.484 0.229 78 61 35 0 0
0.1385 0.0297 -1.2918 0.765 0.525 0.373 61 43 20 0 0
0.1355 0.0282 -1.2981 0.825 0.053 0.562 64 46 24 0 0
0.1371 0.0287 -1.3021 0.860 -0.109 0.499 67 51 28 0 0
0.1649 0.0373 -1.3614 0.771 0.140 0.622 75 58 44 0 0
0.1678 0.0383 -1.3648 0.860 0.210 0.465 73 59 42 0 0
0.1698 0.0389 -1.3686 0.966 0.162 0.203 83 67 45 0 0
0.1917 0.0470 -1.3817 0.817 -0.078 0.571 86 65 39 0 0
0.2174 0.0554 -1.4221 0.840 0.373 0.393 98 78 43 0 0
0.2204 0.0565 -1.4254 0.829 0.219 0.514 108 85 54 0 0
0.2219 0.0569 -1.4295 0.882 0.357 0.307 113 92 62 0 0
0.2232 0.0573 -1.4337 0.882 0.357 0.307 63 40 14 0 0
0.2245 0.0576 -1.4379 0.882 0.357 0.307 93 73 43 0 0
0.2281 0.0589 -1.4408 0.861 0.177 0.477 103 82 52 0 0
0.2312 0.0600 -1.4441 0.710 0.118 0.694 101 77 47 0 0
0.2330 0.0605 -1.4480 0.968 0.223 0.120 112 90 55 0 0
0.2354 0.0613 -1.4517 0.738 0.191 0.647 113 90 55 0 0
0.2376 0.0621 -1.4554 0.851 0.337 0.404 99 76 40 0 0
0.2403 0.0630 -1.4588 0.856 0.409 0.315 82 61 27 0 0
0.2417 0.0634 -1.4630 0.850 0.481 0.215 80 59 28 0 0
0.2621 0.0703 -1.4910 0.910 -0.318 0.264 98 75 42 0 0
0.2865 0.0785 -1.5265 0.737 0.175 0.653 78 54 26 0 0
0.3011 0.0823 -1.5731 0.823 0.560 0.089 47 29 15 0 0
0.3057 0.0840 -1.5752 0.764 0.544 0.346 47 29 14 0 0
0.3155 0.0873 -1.5893 0.638 0.537 0.552 135 109 76 0 0
0.3257 0.0912 -1.5930 0.363 0.333 0.870 129 105 70 0 0
0.3306 0.0930 -1.5948 0.516 0.404 0.755 109 89 58 0 0
0.3372 0.0905 -1.7252 0.931 0.326 0.166 67 45 20 0 0
0.3380 0.0905 -1.7352 0.963 0.111 0.244 69 48 22 0 0
0.3399 0.0909 -1.7445 0.780 0.188 0.597 78 57 28 0 0
0.3377 0.0895 -1.7567 0.821 -0.035 0.570 80 62 32 0 0
0.3402 0.0903 -1.7603 0.939 0.210 0.272 55 40 19 0 0
0.3400 0.0901 -1.7657 0.803 0.219 0.554 39 24 11 0 0
0.3541 0.0939 -1.8092 0.773 -0.050 0.633 72 50 26 0 0
0.3487 0.0912 -1.8241 0.869 0.283 0.405 72 50 26 0 0
0.3597 0.0941 -1.8595 0.894 0.246 0.375 69 47 24 0 0
0.3591 0.0932 -1.8765 0.878 0.175 0.445 73 51 27 0 0
0.3736 0.0978 -1.9039 0.837 0.410 0.362 70 50 25 0 0
0.3792 0.0996 -1.9160 0.684 0.360 0.634 68 48 24 0 0
0.3827 0.1008 -1.9188 0.783 0.250 0.570 68 47 25 0 0
0.3851 0.1016 -1.9225 0.783 0.250 0.570 67 44 25 0 0
0.3820 0.0999 -1.9361 0.798 -0.037 0.601 68 46 25 0 0
0.3847 0.1008 -1.9395 0.803 0.050 0.593 68 46 25 0 0
0.3875 0.1018 -1.9429 0.836 -0.165 0.524 62 40 19 0 0
0.4211 0.1109 -2.0451 0.934 0.100 0.343 110 82 52 0 0
0.4664 0.1255 -2.1261 0.944 0.089 0.316 79 56 24 0 0
0.4687 0.1262 -2.1298 0.880 0.136 0.455 81 58 26 0 0
0.4707 0.1269 -2.1339 0.880 0.136 0.455 82 59 27 0 0
0.4727 0.1275 -2.1378 0.900 0.147 0.411 87 64 32 0 0
0.4827 0.1311 -2.1461 0.889 0.196 0.414 77 55 23 0 0
0.4852 0.1319 -2.1496 0.785 0.303 0.540 76 55 25 0 0
0.4876 0.1327 -2.1532 0.871 0.200 0.448 77 56 27 0 0
0.4918 0.1341 -2.1609 0.864 0.084 0.496 77 56 27 0 0
0.4936 0.1346 -2.1651 0.859 0.206 0.469 82 61 32 0 0
0.4981 0.1359 -2.1785 0.908 0.270 0.319 80 59 32 0 0
0.4996 0.1363 -2.1830 0.830 0.427 0.358 85 64 37 0 0
0.5176 0.1424 -2.2069 0.718 0.190 0.669 77 56 27 0 0
0.5204 0.1434 -2.2100 0.820 0.164 0.549 71 49 25 0 0
0.5275 0.1462 -2.2090 0.908 0.206 0.364 67 47 26 0 0
0.5322 0.1468 -2.2401 0.964 0.251 0.090 64 56 45 0 0
0.1999 0.0552 -1.1384 0.897 -0.206 -0.391 117 99 74 0 0
0.1876 0.0496 -1.1574 0.780 0.122 -0.614 121 101 76 0 0
0.1965 0.0527 -1.1671 0.901 0.355 -0.249 98 82 60 0 0
0.1983 0.0532 -1.1710 0.900 0.432 -0.058 99 84 60 0 0
0.1873 0.0480 -1.1942 0.740 -0.671 0.044 85 69 43 0 0
0.1860 0.0471 -1.2041 0.710 -0.630 0.313 81 65 38 0 0
0.1642 0.0322 -1.3624 0.766 0.044 0.641 73 56 38 0 0
0.1689 0.0340 -1.3649 0.860 0.210 0.465 84 68 46 0 0
0.1708 0.0346 -1.3688 0.936 0.256 0.241 109 92 67 0 0
0.1752 0.0362 -1.3714 0.516 0.269 0.813 117 98 67 0 0
0.2178 0.0511 -1.4176 0.815 0.110 0.570 115 93 55 0 0
0.2184 0.0511 -1.4222 0.876 0.388 0.286 98 77 40 0 0
0.2211 0.0521 -1.4257 0.885 0.116 0.450 113 91 58 0 0
0.2227 0.0525 -1.4298 0.870 0.264 0.416 116 91 63 0 0
0.2241 0.0529 -1.4339 0.869 0.318 0.380 64 40 13 0 0
0.2257 0.0534 -1.4380 0.869 0.318 0.380 105 85 52 0 0
0.2276 0.0540 -1.4419 0.837 0.233 0.495 101 78 47 0 0
0.2340 0.0562 -1.4482 0.968 0.223 0.120 115 92 54 0 0
0.2382 0.0576 -1.4558 0.550 0.624 0.555 93 70 37 0 0
0.2417 0.0588 -1.4588 0.689 0.606 0.398 79 58 26 0 0
0.2842 0.0744 -1.4888 0.865 0.497 0.072 77 54 26 0 0
0.2842 0.0741 -1.4938 0.800 0.575 0.172 82 63 33 0 0
0.3080 0.0803 -1.5746 0.764 0.544 0.346 46 29 13 0 0
0.3179 0.0836 -1.5886 0.690 0.526 0.496 120 94 63 0 0
0.3277 0.0873 -1.5925 0.331 0.353 0.875 134 109 73 0 0
0.3383 0.0862 -1.7253 0.959 0.254 0.123 76 55 27 0 0
0.3410 0.0865 -1.7446 0.806 0.222 0.549 84 63 33 0 0
0.3424 0.0869 -1.7490 0.746 0.351 0.566 87 66 34 0 0
0.3401 0.0857 -1.7560 0.890 -0.125 0.439 86 68 40 0 0
0.3431 0.0865 -1.7645 0.633 0.184 0.752 40 25 11 0 0
0.3544 0.0892 -1.8100 0.773 -0.050 0.633 73 52 26 0 0
0.3493 0.0868 -1.8192 0.917 0.137 0.376 76 54 28 0 0
0.3510 0.0873 -1.8234 0.797 0.211 0.566 78 54 29 0 0
0.3598 0.0895 -1.8550 0.791 0.356 0.497 77 56 30 0 0
0.3613 0.0899 -1.8593 0.812 0.427 0.397 74 52 28 0 0
0.3630 0.0905 -1.8635 0.812 0.427 0.397 71 49 26 0 0
0.3621 0.0892 -1.8862 0.968 0.153 0.198 68 47 22 0 0
0.3649 0.0901 -1.8896 0.864 0.410 0.291 69 49 24 0 0
0.3749 0.0935 -1.9039 0.793 0.450 0.411 69 49 24 0 0
0.4190 0.1058 -2.0309 0.881 0.284 0.379 143 119 70 0 0
0.4198 0.1059 -2.0360 0.946 0.239 0.220 178 147 97 0 0
0.4706 0.1222 -2.1293 0.862 -0.096 0.499 81 58 26 0 0
0.4718 0.1225 -2.1341 0.900 0.147 0.411 83 60 28 0 0
0.4736 0.1230 -2.1383 0.900 0.147 0.411 85 62 31 0 0
0.4776 0.1245 -2.1405 0.804 0.087 0.588 81 58 27 0 0
0.4883 0.1279 -2.1597 0.832 0.292 0.472 78 57 28 0 0
0.4921 0.1291 -2.1679 0.794 0.248 0.554 81 60 31 0 0
0.4935 0.1295 -2.1724 0.775 0.474 0.417 80 59 30 0 0
0.4965 0.1305 -2.1755 0.863 0.170 0.475 80 59 32 0 0
0.5137 0.1363 -2.2002 0.609 0.461 0.645 81 60 28 0 0
0.5164 0.1372 -2.2035 0.694 0.281 0.663 77 56 25 0 0
0.5189 0.1381 -2.2070 0.840 0.116 0.529 73 52 25 0 0
0.5211 0.1388 -2.2108 0.935 0.020 0.354 72 50 26 0 0
0.5224 0.1391 -2.2154 0.920 0.099 0.379 69 48 25 0 0
0.5303 0.1416 -2.2315 0.908 0.296 0.298 49 37 22 0 0
0.5317 0.1419 -2.2361 0.908 0.296 0.298 64 54 42 0 0
0.5406 0.1446 -2.2571 0.808 0.169 0.565 108 104 98 0 0
0.1698 0.0296 -1.3651 0.683 0.188 0.706 120 99 73 0 0
0.1732 0.0308 -1.3683 0.757 0.306 0.578 85 63 35 0 0
0.1819 0.0342 -1.3687 0.832 -0.065 0.551 105 83 50 0 0
0.1954 0.0386 -1.3910 0.777 -0.080 0.625 168 142 99 0 0
0.1986 0.0398 -1.3942 0.752 -0.093 0.653 150 124 82 0 0
0.2191 0.0469 -1.4176 0.789 0.319 0.524 124 100 59 0 0
0.2223 0.0478 -1.4258 0.824 0.287 0.489 112 89 52 0 0
0.2239 0.0483 -1.4298 0.809 0.478 0.343 92 67 36 0 0
0.2263 0.0491 -1.4334 0.592 0.525 0.611 90 66 35 0 0
0.2341 0.0517 -1.4440 0.565 0.411 0.716 107 80 51 0 0
0.2510 0.0580 -1.4542 0.622 0.312 0.718 87 65 33 0 0
0.2488 0.0569 -1.4604 0.893 -0.115 0.436 96 75 39 0 0
0.3081 0.0766 -1.5501 0.984 0.096 0.150 80 61 30 0 0
0.3070 0.0754 -1.5710 0.801 0.597 0.053 51 35 13 0 0
0.3069 0.0751 -1.5761 0.894 0.408 0.182 41 24 6 0 0
0.3161 0.0784 -1.5856 0.787 -0.007 0.616 132 110 71 0 0
0.3183 0.0791 -1.5892 0.784 0.210 0.584 130 105 69 0 0
0.3745 0.0997 -1.6286 0.786 -0.322 0.528 152 128 93 0 0
0.3772 0.1006 -1.6320 0.786 -0.322 0.528 117 96 68 0 0
0.3417 0.0825 -1.7345 0.916 0.005 0.401 71 49 23 0 0
0.3487 0.0817 -1.8207 0.959 -0.137 0.247 77 55 28 0 0
0.3518 0.0828 -1.8239 0.904 0.347 0.249 78 54 28 0 0
0.3620 0.0863 -1.8379 0.790 0.377 0.484 79 55 27 0 0
0.3537 0.0825 -1.8497 0.617 0.172 0.768 79 55 27 0 0
0.3570 0.0837 -1.8527 0.617 0.172 0.768 78 55 27 0 0
0.3601 0.0848 -1.8558 0.630 0.124 0.767 78 57 29 0 0
0.3632 0.0859 -1.8589 0.812 0.427 0.397 75 53 28 0 0
0.3627 0.0848 -1.8814 0.898 0.173 0.405 68 46 22 0 0
0.3654 0.0857 -1.8848 0.864 0.410 0.291 69 48 23 0 0
0.3667 0.0861 -1.8893 0.864 0.410 0.291 71 51 26 0 0
0.4005 0.0962 -1.9682 0.663 0.550 0.507 63 41 20 0 0
0.4027 0.0969 -1.9720 0.910 0.217 0.353 63 41 20 0 0
0.4044 0.0974 -1.9763 0.900 0.195 0.389 60 38 16 0 0
0.4057 0.0977 -1.9808 0.959 0.211 0.187 66 45 22 0 0
0.4078 0.0984 -1.9847 0.942 0.211 0.261 68 47 23 0 0
0.4089 0.0987 -1.9894 0.945 0.230 0.232 74 51 27 0 0
0.4110 0.0991 -1.9990 0.955 0.125 0.270 70 48 23 0 0
0.4196 0.1012 -2.0315 0.885 0.120 0.450 153 129 76 0 0
0.4210 0.1015 -2.0361 0.972 0.149 0.182 175 146 93 0 0
0.4214 0.1015 -2.0415 0.885 0.053 0.463 172 147 101 0 0
0.4407 0.1072 -2.0880 0.871 0.137 0.473 79 59 30 0 0
0.4466 0.1095 -2.0885 0.778 0.247 0.578 115 92 57 0 0
0.4491 0.1103 -2.0921 0.778 0.247 0.578 129 104 67 0 0
0.4515 0.1111 -2.0957 0.778 0.247 0.578 121 99 65 0 0
0.4705 0.1172 -2.1307 0.880 0.136 0.455 81 58 26 0 0
0.4780 0.1197 -2.1414 0.582 0.067 0.811 84 60 31 0 0
0.5134 0.1315 -2.1960 0.498 0.445 0.744 87 64 33 0 0
0.5170 0.1328 -2.1984 0.926 0.038 0.376 80 59 28 0 0
0.5186 0.1333 -2.2028 0.933 0.084 0.351 79 58 29 0 0
0.5231 0.1345 -2.2161 0.918 0.008 0.396 73 52 28 0 0
0.5353 0.1383 -2.2399 0.627 0.671 0.395 58 50 40 0 0
0.5194 0.1300 -2.2923 0.988 0.137 0.070 162 163 164 0 0
0.1726 0.0260 -1.3643 0.739 0.038 0.673 117 95 64 0 0
0.1764 0.0274 -1.3673 0.862 0.292 0.414 104 80 51 0 0
0.1790 0.0283 -1.3708 0.875 -0.030 0.484 121 99 65 0 0
0.1813 0.0290 -1.3745 0.656 0.095 0.749 125 103 61 0 0
0.1902 0.0321 -1.3846 0.730 0.124 0.672 136 110 74 0 0
0.2004 0.0358 -1.3940 0.716 0.197 0.669 145 117 74 0 0
0.2150 0.0409 -1.4107 0.742 0.168 0.649 132 102 58 0 0
0.2208 0.0429 -1.4174 0.750 0.504 0.428 132 106 65 0 0
0.2221 0.0432 -1.4217 0.832 0.393 0.392 115 91 52 0 0
0.2242 0.0439 -1.4254 0.772 0.380 0.509 108 83 45 0 0
0.2256 0.0443 -1.4296 0.812 0.418 0.407 97 72 38 0 0
0.2280 0.0451 -1.4332 0.688 0.359 0.631 109 86 47 0 0
0.2307 0.0460 -1.4366 0.688 0.359 0.631 123 99 58 0 0
0.2353 0.0475 -1.4440 0.675 0.503 0.540 106 79 48 0 0
0.2434 0.0507 -1.4444 0.930 -0.008 0.368 126 101 64 0 0
0.2456 0.0514 -1.4481 0.680 0.180 0.711 102 80 42 0 0
0.2486 0.0525 -1.4513 0.680 0.180 0.711 75 52 21 0 0
0.2520 0.0537 -1.4544 0.836 -0.055 0.546 89 66 35 0 0
0.3023 0.0689 -1.5697 0.550 0.499 0.670 61 39 15 0 0
0.3056 0.0701 -1.5727 0.998 0.059 0.014 56 39 18 0 0
0.3085 0.0711 -1.5760 0.928 0.272 0.255 46 30 11 0 0
0.3692 0.0932 -1.6229 0.739 -0.094 0.668 158 128 93 0 0
0.3705 0.0935 -1.6271 0.847 0.302 0.437 164 135 101 0 0
0.3718 0.0939 -1.6314 0.867 0.354 0.351 134 112 81 0 0
0.3739 0.0945 -1.6350 0.547 0.315 0.775 120 99 72 0 0
0.3773 0.0958 -1.6379 0.870 0.151 0.469 120 96 70 0 0
0.3836 0.0980 -1.6438 0.631 0.498 0.596 78 56 32 0 0
0.3692 0.0913 -1.6691 0.894 -0.240 -0.378 100 81 42 0 0
0.3395 0.0780 -1.7053 0.892 0.320 0.319 78 55 24 0 0
0.3483 0.0767 -1.8220 0.959 -0.137 0.247 77 56 29 0 0
0.3541 0.0790 -1.8231 0.910 0.404 0.087 79 58 31 0 0
0.3637 0.0803 -1.8817 0.898 0.173 0.405 67 45 22 0 0
0.3672 0.0816 -1.8844 0.864 0.410 0.291 69 48 24 0 0
0.3685 0.0820 -1.8889 0.864 0.410 0.291 72 52 27 0 0
0.3769 0.0846 -1.9045 0.865 0.043 0.500 73 53 28 0 0
0.4057 0.0931 -1.9763 0.808 0.237 0.540 55 35 12 0 0
0.4072 0.0935 -1.9807 0.967 0.147 0.208 68 47 23 0 0
0.4082 0.0937 -1.9855 0.967 0.147 0.208 71 49 25 0 0
0.4102 0.0941 -1.9952 0.865 0.101 0.491 62 40 16 0 0
0.4117 0.0945 -1.9995 0.955 0.125 0.270 64 42 16 0 0
0.4131 0.0949 -2.0041 0.947 0.157 0.282 67 46 19 0 0
0.4142 0.0944 -2.0260 0.794 0.361 0.490 104 84 44 0 0
0.4225 0.0973 -2.0360 0.831 0.215 0.513 174 143 94 0 0
0.4208 0.0951 -2.0721 0.779 0.306 0.547 77 56 27 0 0
0.4359 0.1004 -2.0878 0.743 -0.152 0.652 90 71 41 0 0
0.4417 0.1027 -2.0883 0.880 0.095 0.465 82 60 30 0 0
0.4445 0.1037 -2.0917 0.906 0.296 0.302 120 95 58 0 0
0.4498 0.1057 -2.0927 0.815 0.135 0.564 150 124 83 0 0
0.4522 0.1065 -2.0963 0.815 0.135 0.564 135 110 69 0 0
0.4769 0.1149 -2.1319 0.638 0.439 0.632 82 59 27 0 0
0.4813 0.1163 -2.1395 0.697 0.316 0.644 83 60 29 0 0
0.4820 0.1164 -2.1447 0.925 0.172 0.339 72 49 20 0 0
0.4900 0.1189 -2.1607 0.877 0.368 0.309 76 56 29 0 0
0.5341 0.1334 -2.2305 0.755 0.283 0.591 57 44 29 0 0
0.5363 0.1342 -2.2342 0.767 0.396 0.505 69 59 47 0 0
0.5382 0.1348 -2.2383 0.793 0.482 0.373 53 44 38 0 0
0.1550 0.0187 -1.2577 0.857 -0.494 -0.146 69 49 24 0 0
0.1356 0.0089 -1.3102 0.956 0.062 0.286 49 32 14 0 0
0.1794 0.0237 -1.3713 0.847 0.021 0.531 122 98 62 0 0
0.1822 0.0246 -1.3748 0.656 0.095 0.749 141 116 76 0 0
0.2120 0.0353 -1.4032 0.744 0.047 0.666 125 99 55 0 0
0.2225 0.0389 -1.4172 0.854 0.250 0.456 132 102 61 0 0
0.2240 0.0393 -1.4213 0.812 0.418 0.407 116 87 48 0 0
0.2321 0.0421 -1.4317 0.569 0.484 0.665 133 109 66 0 0
0.2349 0.0431 -1.4350 0.629 0.546 0.552 130 107 61 0 0
0.2443 0.0464 -1.4446 0.865 0.134 0.484 113 89 53 0 0
0.2472 0.0474 -1.4480 0.699 0.238 0.675 86 63 28 0 0
0.2498 0.0483 -1.4514 0.680 0.180 0.711 79 55 24 0 0
0.2518 0.0489 -1.4552 0.922 0.013 0.388 83 60 28 0 0
0.2703 0.0538 -1.5143 0.951 0.251 0.179 82 61 34 0 0
0.2711 0.0539 -1.5189 0.951 0.251 0.179 77 57 30 0 0
0.3349 0.0761 -1.5955 0.634 -0.254 0.731 131 105 68 0 0
0.3724 0.0896 -1.6268 0.806 0.354 0.474 164 138 106 0 0
0.3743 0.0903 -1.6305 0.806 0.354 0.474 115 94 67 0 0
0.3811 0.0927 -1.6361 0.693 0.342 0.634 122 98 70 0 0
0.3837 0.0936 -1.6395 0.693 0.342 0.634 82 56 30 0 0
0.3860 0.0942 -1.6481 0.971 -0.133 0.201 80 59 32 0 0
0.3667 0.0855 -1.6717 0.858 -0.296 -0.420 94 74 37 0 0
0.3616 0.0831 -1.6804 0.858 -0.296 -0.420 90 68 35 0 0
0.3421 0.0730 -1.7361 0.925 0.065 0.373 82 59 29 0 0
0.3407 0.0722 -1.7425 1.000 0.003 -0.010 71 50 22 0 0
0.3345 0.0684 -1.7737 0.955 0.178 0.237 51 33 18 0 0
0.3696 0.0799 -1.8342 0.881 0.184 0.437 76 52 26 0 0
0.3662 0.0768 -1.8752 0.746 0.363 0.558 67 45 22 0 0
0.3686 0.0776 -1.8789 0.746 0.363 0.558 67 45 22 0 0
0.3709 0.0784 -1.8826 0.746 0.363 0.558 71 50 26 0 0
0.3679 0.0759 -1.9128 0.800 0.115 0.589 71 51 26 0 0
0.3695 0.0763 -1.9171 0.671 0.271 0.690 69 49 24 0 0
0.4070 0.0888 -1.9763 0.967 0.147 0.208 51 33 14 0 0
0.4080 0.0890 -1.9812 0.967 0.147 0.208 62 41 19 0 0
0.4112 0.0896 -1.9955 0.915 0.144 0.376 60 38 14 0 0
0.4114 0.0894 -2.0011 0.966 0.144 0.215 69 48 21 0 0
0.4076 0.0876 -2.0100 0.812 0.123 0.571 70 49 22 0 0
0.4141 0.0892 -2.0330 0.921 0.387 0.046 99 79 31 0 0
0.4232 0.0929 -2.0309 0.794 0.184 0.579 156 133 81 0 0
0.4249 0.0934 -2.0352 0.821 0.250 0.512 171 143 95 0 0
0.4422 0.1004 -2.0315 0.526 0.439 0.728 97 73 42 0 0
0.4472 0.1023 -2.0329 0.873 0.274 0.404 81 61 33 0 0
0.4428 0.0983 -2.0886 0.785 0.268 0.558 87 62 32 0 0
0.4704 0.1084 -2.1100 0.827 -0.429 0.362 80 57 26 0 0
0.4820 0.1117 -2.1402 0.939 0.312 0.142 86 63 32 0 0
0.4835 0.1121 -2.1446 0.925 0.287 0.248 75 52 22 0 0
0.4840 0.1121 -2.1501 0.905 0.195 0.378 75 52 21 0 0
0.4847 0.1121 -2.1553 0.974 0.166 0.152 74 52 22 0 0
0.4840 0.1116 -2.1619 0.803 0.406 0.436 75 54 26 0 0
0.4897 0.1138 -2.1624 0.686 0.572 0.449 76 56 29 0 0
0.4917 0.1144 -2.1664 0.686 0.572 0.449 77 56 26 0 0
0.1515 0.0126 -1.2599 0.882 -0.403 -0.246 71 51 26 0 0
0.1494 0.0115 -1.2657 0.882 -0.403 -0.246 71 51 26 0 0
0.1310 0.0034 -1.2840 0.981 -0.060 -0.187 68 51 24 0 0
0.1229 -0.0006 -1.3024 0.551 0.544 0.632 76 56 31 0 0
0.1288 0.0016 -1.3044 0.746 -0.020 0.666 78 62 35 0 0
0.1343 0.0035 -1.3115 0.874 -0.110 0.474 74 58 32 0 0
0.1798 0.0191 -1.3718 0.847 0.021 0.531 104 82 49 0 0
0.1856 0.0211 -1.3786 0.543 0.196 0.816 123 100 67 0 0
0.1887 0.0222 -1.3818 0.553 0.204 0.808 137 110 74 0 0
0.1924 0.0236 -1.3848 0.563 0.463 0.685 146 117 77 0 0
0.1957 0.0247 -1.3880 0.615 0.335 0.714 137 111 70 0 0
0.2349 0.0385 -1.4308 0.753 0.271 0.600 135 109 65 0 0
0.2374 0.0394 -1.4344 0.753 0.271 0.600 129 106 65 0 0
0.2406 0.0405 -1.4375 0.727 0.305 0.615 111 89 50 0 0
0.2432 0.0414 -1.4410 0.727 0.305 0.615 103 81 44 0 0
0.2458 0.0423 -1.4445 0.727 0.305 0.615 93 70 35 0 0
0.2485 0.0432 -1.4479 0.699 0.238 0.675 76 51 20 0 0
0.2510 0.0441 -1.4515 0.680 0.180 0.711 79 54 23 0 0
0.2840 0.0544 -1.5170 0.859 -0.126 0.496 66 45 20 0 0
0.2887 0.0554 -1.5392 0.438 0.520 0.734 164 133 80 0 0
0.3336 0.0708 -1.5972 0.581 0.025 0.814 151 123 85 0 0
0.3406 0.0734 -1.6028 0.919 -0.010 0.394 177 150 105 0 0
0.3674 0.0831 -1.6259 0.558 0.109 0.822 161 131 94 0 0
0.3768 0.0869 -1.6247 0.553 -0.137 0.822 167 139 105 0 0
0.3808 0.0883 -1.6271 0.553 -0.137 0.822 121 98 70 0 0
0.3856 0.0900 -1.6340 0.976 -0.112 0.185 128 105 73 0 0
0.3576 0.0767 -1.6841 0.885 -0.290 -0.364 88 66 34 0 0
0.3418 0.0697 -1.7003 0.888 0.026 0.459 77 54 22 0 0
0.3426 0.0685 -1.7367 0.925 0.065 0.373 86 63 34 0 0
0.3354 0.0640 -1.7740 0.955 0.178 0.237 53 36 21 0 0
0.3548 0.0703 -1.8084 0.815 -0.069 0.576 77 56 29 0 0
0.3657 0.0705 -1.9044 0.951 0.307 0.041 74 54 29 0 0
0.3961 0.0808 -1.9471 0.811 0.041 0.583 63 41 20 0 0
0.4109 0.0848 -1.9913 0.967 0.147 0.208 58 36 13 0 0
0.4114 0.0848 -1.9965 0.851 0.215 0.480 75 53 29 0 0
0.4085 0.0831 -2.0104 0.812 0.123 0.571 70 49 22 0 0
0.4241 0.0884 -2.0313 0.762 0.334 0.555 161 134 85 0 0
0.4263 0.0891 -2.0351 0.858 0.225 0.461 183 152 104 0 0
0.4358 0.0908 -2.0845 0.879 -0.256 0.403 93 73 41 0 0
0.4691 0.1029 -2.1125 0.898 0.289 0.332 81 58 27 0 0
0.4856 0.1078 -2.1499 0.897 0.416 0.149 75 52 21 0 0
0.4864 0.1080 -2.1550 0.897 0.416 0.149 75 53 22 0 0
0.4923 0.1101 -2.1612 0.877 0.337 0.342 72 52 25 0 0
0.4939 0.1105 -2.1656 0.844 0.448 0.296 72 50 25 0 0
0.5000 0.1124 -2.1775 0.836 0.014 0.549 66 44 20 0 0
0.5024 0.1132 -2.1811 0.836 0.014 0.549 67 45 21 0 0
0.5240 0.1207 -2.2075 0.906 -0.094 0.413 75 54 27 0 0
0.5285 0.1222 -2.2150 0.759 0.567 0.320 63 45 23 0 0
0.5407 0.1263 -2.2326 0.929 0.223 0.294 57 47 35 0 0
0.1279 -0.0031 -1.2958 0.974 0.131 0.185 76 58 33 0 0
0.2189 0.0283 -1.4107 0.644 0.392 0.658 151 123 80 0 0
0.2240 0.0303 -1.4129 0.715 0.596 0.366 140 111 72 0 0
0.2264 0.0311 -1.4165 0.748 0.306 0.588 123 93 57 0 0
0.2333 0.0333 -1.4275 0.584 0.455 0.673 142 115 70 0 0
0.2362 0.0344 -1.4308 0.584 0.455 0.673 140 113 72 0 0
0.2422 0.0365 -1.4374 0.725 0.344 0.596 111 87 51 0 0
0.2447 0.0373 -1.4409 0.725 0.344 0.596 97 74 38 0 0
0.2480 0.0385 -1.4440 0.699 0.425 0.575 87 64 30 0 0
0.2504 0.0393 -1.4476 0.733 0.353 0.581 77 51 19 0 0
0.2529 0.0401 -1.4512 0.699 0.425 0.575 82 57 24 0 0
0.2499 0.0387 -1.4578 0.961 0.004 0.278 83 59 25 0 0
0.2835 0.0495 -1.5181 0.764 -0.222 0.605 76 54 27 0 0
0.2860 0.0504 -1.5215 0.859 -0.126 0.496 99 78 49 0 0
0.2901 0.0519 -1.5241 0.954 -0.058 0.296 82 58 30 0 0
0.2903 0.0516 -1.5340 0.963 0.145 0.226 141 111 67 0 0
0.2914 0.0518 -1.5384 0.560 0.765 0.319 174 142 93 0 0
0.2957 0.0534 -1.5409 0.539 0.130 0.832 121 89 53 0 0
0.3343 0.0664 -1.5976 0.581 0.025 0.814 158 132 91 0 0
0.3419 0.0692 -1.6028 0.766 0.113 0.633 193 163 122 0 0
0.3726 0.0806 -1.6233 0.751 -0.002 0.661 158 128 89 0 0
0.3851 0.0853 -1.6301 0.684 -0.121 0.719 158 136 100 0 0
0.3404 0.0643 -1.7022 0.800 0.176 0.574 80 57 26 0 0
0.3619 0.0685 -1.8041 0.767 0.141 0.627 78 58 29 0 0
0.3639 0.0651 -1.9014 0.739 0.486 0.466 73 52 28 0 0
0.3896 0.0743 -1.9255 0.931 0.346 0.115 67 43 23 0 0
0.3912 0.0748 -1.9298 0.949 0.238 0.208 65 42 21 0 0
0.3917 0.0745 -1.9406 0.811 0.041 0.583 59 37 16 0 0
0.3942 0.0753 -1.9442 0.811 0.041 0.583 60 38 17 0 0
0.4024 0.0784 -1.9487 0.748 0.575 0.330 64 42 21 0 0
0.4163 0.0825 -1.9822 0.909 0.372 0.185 48 27 6 0 0
0.4136 0.0809 -1.9958 0.875 0.172 0.452 72 50 26 0 0
0.4105 0.0793 -2.0042 0.621 0.366 0.693 70 48 23 0 0
0.4369 0.0863 -2.0848 0.815 0.091 0.572 90 69 34 0 0
0.4774 0.1024 -2.0888 0.990 -0.138 -0.018 82 60 26 0 0
0.4712 0.0989 -2.1119 0.965 0.085 0.249 81 58 27 0 0
0.4803 0.1019 -2.1268 0.841 0.070 0.536 84 61 30 0 0
0.4825 0.1026 -2.1306 0.973 0.106 0.204 82 59 28 0 0
0.4854 0.1034 -2.1396 0.963 0.267 0.041 86 63 31 0 0
0.4877 0.1034 -2.1610 0.779 0.387 0.493 70 49 22 0 0
0.4940 0.1056 -2.1669 0.952 0.020 0.306 65 43 19 0 0
0.5033 0.1087 -2.1816 0.825 0.100 0.556 69 48 24 0 0
0.5076 0.1103 -2.1834 0.945 0.136 0.296 76 55 28 0 0
0.5122 0.1119 -2.1907 0.921 0.176 0.347 82 60 29 0 0
0.5245 0.1160 -2.2084 0.788 0.226 0.572 75 52 28 0 0
0.2211 0.0245 -1.4103 0.653 0.449 0.610 150 121 80 0 0
0.2267 0.0267 -1.4121 0.715 0.596 0.366 141 112 72 0 0
0.2272 0.0267 -1.4168 0.771 0.187 0.609 123 94 54 0 0
0.2298 0.0276 -1.4203 0.771 0.187 0.609 127 99 56 0 0
0.2310 0.0278 -1.4246 0.902 -0.079 0.424 131 106 63 0 0
0.2454 0.0329 -1.4412 0.724 0.238 0.648 88 64 28 0 0
0.2482 0.0339 -1.4447 0.724 0.238 0.648 86 62 28 0 0
0.2499 0.0344 -1.4486 0.859 0.233 0.456 79 53 20 0 0
0.2518 0.0350 -1.4525 0.859 0.233 0.456 82 57 23 0 0
0.2526 0.0351 -1.4570 0.911 0.345 0.227 81 57 23 0 0
0.2564 0.0358 -1.4747 0.818 0.359 0.449 77 54 22 0 0
0.2786 0.0431 -1.5117 0.814 0.081 0.575 69 49 23 0 0
0.3295 0.0598 -1.5965 0.512 -0.221 0.830 144 119 75 0 0
0.3625 0.0723 -1.6156 0.949 -0.082 0.303 130 108 77 0 0
0.3809 0.0791 -1.6287 0.698 -0.110 0.707 139 116 84 0 0
0.3852 0.0807 -1.6309 0.678 -0.191 0.710 154 130 95 0 0
0.3854 0.0806 -1.6359 0.870 -0.157 0.467 96 69 39 0 0
0.3414 0.0600 -1.7024 0.800 0.176 0.574 86 63 32 0 0
0.3487 0.0622 -1.7185 0.971 0.101 0.216 84 61 30 0 0
0.3442 0.0600 -1.7269 0.958 0.252 0.137 84 61 30 0 0
0.3596 0.0629 -1.8014 0.597 -0.251 0.762 80 61 31 0 0
0.3581 0.0617 -1.8134 0.935 0.288 0.206 76 55 26 0 0
0.3898 0.0700 -1.9153 0.764 0.562 0.316 64 42 21 0 0
0.3924 0.0706 -1.9243 0.933 0.326 0.156 68 45 24 0 0
0.3933 0.0708 -1.9292 0.904 0.373 0.209 66 44 23 0 0
0.3958 0.0712 -1.9440 0.802 0.158 0.577 61 39 18 0 0
0.3994 0.0725 -1.9467 0.801 0.147 0.580 64 42 21 0 0
0.4030 0.0738 -1.9493 0.874 0.158 0.459 64 42 21 0 0
0.4104 0.0753 -1.9826 0.967 0.147 0.208 62 41 19 0 0
0.4114 0.0755 -1.9875 0.967 0.147 0.208 66 46 22 0 0
0.4125 0.0757 -1.9923 0.967 0.147 0.208 69 48 24 0 0
0.4143 0.0755 -2.0135 0.891 0.207 0.404 75 51 25 0 0
0.4420 0.0847 -2.0583 0.872 0.284 0.399 77 53 25 0 0
0.4377 0.0817 -2.0854 0.742 0.259 0.618 92 69 34 0 0
0.4695 0.0932 -2.1147 0.940 0.299 0.161 81 58 27 0 0
0.4824 0.0979 -2.1262 0.815 -0.108 0.569 80 57 26 0 0
0.4833 0.0980 -2.1312 0.904 0.302 0.303 78 55 24 0 0
0.4882 0.0991 -2.1501 0.867 0.386 0.316 74 53 24 0 0
0.4895 0.0992 -2.1606 0.803 0.406 0.436 68 46 21 0 0
0.5041 0.1042 -2.1821 0.799 0.281 0.532 73 53 28 0 0
0.5064 0.1049 -2.1859 0.799 0.281 0.532 79 58 30 0 0
0.5076 0.1052 -2.1906 0.690 0.295 0.660 82 61 32 0 0
0.5258 0.1117 -2.2085 0.788 0.226 0.572 70 46 23 0 0
0.5282 0.1125 -2.2121 0.788 0.226 0.572 72 53 30 0 0
0.5298 0.1129 -2.2165 0.910 0.359 0.209 58 42 21 0 0
0.1328 -0.0070 -1.2132 0.050 0.303 0.952 131 112 79 0 0
0.1395 -0.0043 -1.2150 0.195 0.640 0.743 115 96 65 0 0
0.1450 -0.0022 -1.2172 0.180 0.484 0.856 114 93 65 0 0
0.1567 0.0025 -1.2167 0.511 -0.314 0.800 126 104 72 0 0
0.2255 0.0214 -1.4135 0.895 -0.071 0.440 143 115 73 0 0
0.2265 0.0216 -1.4179 0.616 0.201 0.762 127 101 57 0 0
0.2297 0.0228 -1.4210 0.828 0.124 0.547 124 99 55 0 0
0.2511 0.0302 -1.4487 0.859 0.233 0.456 79 53 20 0 0
0.2535 0.0310 -1.4523 0.799 0.466 0.381 81 55 22 0 0
0.2550 0.0312 -1.4613 0.727 0.683 -0.065 90 65 33 0 0
0.2814 0.0394 -1.5159 0.754 -0.106 0.648 64 44 20 0 0
0.2831 0.0399 -1.5199 0.950 0.220 0.221 90 69 38 0 0
0.3101 0.0479 -1.5842 0.822 0.293 0.488 62 46 21 0 0
0.3343 0.0570 -1.5993 0.615 -0.091 0.783 145 121 77 0 0
0.3584 0.0658 -1.6192 0.802 0.381 0.460 134 112 80 0 0
0.3850 0.0759 -1.6320 0.678 -0.191 0.710 150 124 93 0 0
0.3804 0.0737 -1.6402 0.863 -0.066 0.502 80 54 24 0 0
0.3825 0.0744 -1.6439 0.699 -0.121 0.705 79 55 29 0 0
0.3855 0.0755 -1.6470 0.692 0.038 0.721 75 53 29 0 0
0.3425 0.0556 -1.7026 0.800 0.176 0.574 81 58 27 0 0
0.3476 0.0574 -1.7096 0.973 0.149 0.175 88 65 34 0 0
0.3483 0.0574 -1.7144 0.971 0.101 0.216 85 62 31 0 0
0.3492 0.0576 -1.7190 0.971 0.101 0.216 84 61 30 0 0
0.3330 0.0489 -1.7679 0.412 0.798 0.440 68 50 27 0 0
0.3557 0.0571 -1.7891 0.829 0.557 -0.054 93 78 48 0 0
0.3543 0.0562 -1.7955 0.703 0.182 0.688 68 50 29 0 0
0.3518 0.0549 -1.8028 0.969 -0.214 0.125 78 61 34 0 0
0.3656 0.0572 -1.8745 0.893 0.437 0.105 69 47 24 0 0
0.3890 0.0650 -1.9115 0.825 0.279 0.491 52 31 11 0 0
0.3948 0.0668 -1.9235 0.933 0.023 0.358 63 41 21 0 0
0.3955 0.0666 -1.9342 0.933 0.326 0.156 66 44 23 0 0
0.4037 0.0692 -1.9498 0.860 0.056 0.507 64 42 21 0 0
0.4159 0.0736 -1.9623 0.669 0.304 0.679 59 39 18 0 0
0.4088 0.0689 -2.0023 0.772 0.344 0.535 72 50 26 0 0
0.4142 0.0708 -2.0091 0.730 0.485 0.482 71 49 25 0 0
0.4331 0.0776 -2.0271 0.796 0.543 0.268 165 139 85 0 0
0.4452 0.0811 -2.0568 0.957 0.065 0.282 76 52 24 0 0
0.4517 0.0827 -2.0799 0.834 0.492 0.249 87 64 25 0 0
0.4799 0.0921 -2.1239 0.760 0.043 0.649 79 56 25 0 0
0.4830 0.0933 -2.1269 0.878 0.115 0.465 77 54 23 0 0
0.4847 0.0938 -2.1312 0.904 0.302 0.303 74 51 20 0 0
0.4888 0.0948 -2.1450 0.807 0.502 0.311 76 53 22 0 0
0.4899 0.0950 -2.1498 0.867 0.386 0.316 72 50 21 0 0
0.4944 0.0962 -2.1632 0.841 0.387 0.378 66 44 20 0 0
0.4961 0.0967 -2.1675 0.921 0.232 0.314 66 43 19 0 0
0.4985 0.0975 -2.1711 0.762 0.315 0.566 66 45 21 0 0
0.5008 0.0983 -2.1748 0.766 0.134 0.629 67 47 22 0 0
0.5029 0.0990 -2.1787 0.710 0.212 0.671 70 50 25 0 0
0.5057 0.0999 -2.1820 0.648 0.176 0.741 75 55 29 0 0
0.5085 0.1009 -2.1852 0.710 0.212 0.671 72 51 24 0 0
0.5273 0.1074 -2.2084 0.720 0.405 0.563 65 40 18 0 0
0.5296 0.1082 -2.2120 0.720 0.405 0.563 60 40 18 0 0
0.5344 0.1098 -2.2192 0.684 0.449 0.575 48 32 16 0 0
0.1411 -0.0084 -1.2148 0.278 -0.213 0.937 131 110 78 0 0
0.1495 -0.0050 -1.2158 0.401 -0.298 0.867 124 101 71 0 0
0.1413 -0.0149 -1.3597 0.637 0.144 0.757 114 91 60 0 0
0.1484 -0.0121 -1.3610 0.856 -0.050 0.514 112 91 65 0 0
0.2262 0.0167 -1.4188 0.796 0.068 0.602 125 100 58 0 0
0.2349 0.0194 -1.4387 0.962 -0.016 0.272 94 68 29 0 0
0.2348 0.0191 -1.4437 0.953 -0.045 0.299 96 68 29 0 0
0.2477 0.0244 -1.4414 0.865 0.176 0.470 95 67 29 0 0
0.2792 0.0339 -1.5130 0.879 -0.022 0.476 51 31 8 0 0
0.2815 0.0347 -1.5166 0.835 0.097 0.542 71 51 23 0 0
0.2838 0.0354 -1.5203 0.986 0.137 0.099 109 89 56 0 0
0.3121 0.0440 -1.5838 0.870 0.172 0.462 62 46 23 0 0
0.3141 0.0446 -1.5877 0.870 0.172 0.462 127 108 77 0 0
0.3152 0.0449 -1.5920 0.800 0.170 0.575 138 115 80 0 0
0.3174 0.0456 -1.5957 0.536 0.150 0.831 131 106 73 0 0
0.3305 0.0508 -1.5975 0.459 0.018 0.888 144 121 80 0 0
0.3349 0.0525 -1.5998 0.459 0.018 0.888 159 134 90 0 0
0.3615 0.0627 -1.6129 0.528 0.522 0.670 152 124 88 0 0
0.3791 0.0687 -1.6369 0.901 0.176 0.397 133 108 78 0 0
0.3805 0.0691 -1.6410 0.863 -0.066 0.502 73 51 20 0 0
0.3479 0.0527 -1.7103 0.947 0.317 0.054 85 63 31 0 0
0.3492 0.0530 -1.7147 0.973 0.149 0.175 87 64 32 0 0
0.3496 0.0530 -1.7197 0.977 -0.062 0.206 82 60 28 0 0
0.3663 0.0532 -1.8639 0.833 0.416 0.365 77 55 31 0 0
0.3869 0.0602 -1.8921 0.974 0.092 0.208 70 50 26 0 0
0.3849 0.0591 -1.8991 0.827 0.487 0.280 67 47 23 0 0
0.3884 0.0601 -1.9075 0.887 0.259 0.383 53 33 13 0 0
0.3913 0.0611 -1.9107 0.948 0.080 0.309 44 24 5 0 0
0.3967 0.0625 -1.9287 0.913 0.038 0.406 66 44 23 0 0
0.4178 0.0695 -1.9618 0.661 0.146 0.736 61 41 20 0 0
0.4104 0.0647 -2.0021 0.843 0.159 0.514 71 49 25 0 0
0.4137 0.0656 -2.0107 0.873 -0.005 0.488 72 50 26 0 0
0.4366 0.0745 -2.0196 0.872 0.393 0.293 131 108 66 0 0
0.4771 0.0865 -2.1162 0.809 -0.014 0.588 78 55 24 0 0
0.4812 0.0878 -2.1241 0.775 0.074 0.627 74 51 20 0 0
0.4861 0.0892 -2.1371 0.942 0.209 0.261 79 56 25 0 0
0.4905 0.0909 -2.1388 0.856 0.471 0.211 69 46 15 0 0
0.4966 0.0923 -2.1625 0.943 0.285 0.170 65 43 18 0 0
0.4975 0.0924 -2.1675 0.943 0.285 0.170 66 43 19 0 0
0.4987 0.0927 -2.1723 0.804 0.368 0.466 70 49 24 0 0
0.5049 0.0949 -2.1782 0.784 0.327 0.528 73 53 27 0 0
0.5073 0.0957 -2.1818 0.814 0.398 0.424 75 55 27 0 0
0.5111 0.0969 -2.1900 0.657 0.477 0.584 69 47 22 0 0
0.5292 0.1034 -2.2079 0.720 0.405 0.563 68 43 20 0 0
0.5315 0.1042 -2.2116 0.720 0.405 0.563 68 46 23 0 0
0.5363 0.1058 -2.2188 0.720 0.405 0.563 45 29 14 0 0
0.1415 -0.0130 -1.2152 0.384 -0.322 0.865 127 104 73 0 0
0.1488 -0.0101 -1.2167 0.480 -0.316 0.819 147 123 86 0 0
0.1275 -0.0214 -1.2742 0.880 -0.393 0.268 66 48 26 0 0
0.1248 -0.0246 -1.3193 0.874 -0.390 0.291 72 55 33 0 0
0.1482 -0.0170 -1.3618 0.857 0.262 0.443 119 94 58 0 0
0.1961 0.0008 -1.3962 0.578 0.037 0.816 130 102 65 0 0
0.2009 0.0027 -1.3986 0.714 0.144 0.685 147 117 81 0 0
0.2043 0.0039 -1.4017 0.748 0.269 0.607 166 138 95 0 0
0.2068 0.0048 -1.4053 0.748 0.269 0.607 165 136 90 0 0
0.2268 0.0123 -1.4191 0.796 0.068 0.602 117 95 54 0 0
0.2294 0.0131 -1.4227 0.796 0.068 0.602 107 83 43 0 0
0.2308 0.0135 -1.4268 0.873 0.152 0.464 105 81 45 0 0
0.2334 0.0144 -1.4304 0.826 0.380 0.416 92 68 32 0 0
0.2387 0.0165 -1.4323 0.820 0.557 0.135 88 64 28 0 0
0.2684 0.0247 -1.5151 0.897 0.441 0.007 56 38 14 0 0
0.2844 0.0310 -1.5207 0.986 0.137 0.099 93 71 34 0 0
0.3138 0.0398 -1.5886 0.862 0.007 0.507 123 105 79 0 0
0.3227 0.0429 -1.5983 0.432 0.104 0.896 123 98 63 0 0
0.3665 0.0602 -1.6104 0.297 0.383 0.875 146 118 81 0 0
0.3776 0.0638 -1.6285 0.582 0.227 0.781 157 132 98 0 0
0.3784 0.0639 -1.6331 0.944 0.300 0.139 132 108 82 0 0
0.3802 0.0645 -1.6370 0.890 0.257 0.377 111 87 59 0 0
0.3421 0.0459 -1.7048 0.924 0.065 0.378 82 59 28 0 0
0.3495 0.0486 -1.7101 0.914 0.406 0.013 79 60 29 0 0
0.3495 0.0484 -1.7154 0.910 0.414 0.004 86 66 33 0 0
0.3521 0.0485 -1.7348 0.987 0.003 0.159 76 55 25 0 0
0.3870 0.0551 -1.8986 0.827 0.487 0.280 68 48 24 0 0
0.3882 0.0554 -1.9032 0.957 0.236 0.171 65 45 21 0 0
0.3897 0.0558 -1.9076 0.887 0.259 0.383 55 37 16 0 0
0.4034 0.0595 -1.9468 0.562 0.365 0.742 67 45 24 0 0
0.4074 0.0610 -1.9491 0.441 0.501 0.744 66 44 23 0 0
0.4100 0.0619 -1.9526 0.523 0.481 0.704 63 41 20 0 0
0.4383 0.0703 -2.0193 0.954 0.035 0.299 141 117 75 0 0
0.4396 0.0707 -2.0239 0.918 0.007 0.397 163 134 84 0 0
0.4440 0.0721 -2.0315 0.940 -0.122 0.317 110 87 47 0 0
0.4776 0.0818 -2.1170 0.809 -0.014 0.588 76 53 22 0 0
0.4921 0.0864 -2.1445 0.852 0.436 0.291 75 52 21 0 0
0.4931 0.0866 -2.1494 0.802 0.460 0.381 75 52 22 0 0
0.4927 0.0858 -2.1616 0.824 0.314 0.472 76 52 24 0 0
0.5066 0.0910 -2.1720 0.659 0.390 0.643 72 48 21 0 0
0.5120 0.0929 -2.1786 0.901 0.390 0.193 77 56 26 0 0
0.5308 0.0992 -2.2077 0.666 0.479 0.572 73 49 23 0 0
0.5332 0.1000 -2.2112 0.666 0.479 0.572 70 46 20 0 0
0.5357 0.1008 -2.2148 0.666 0.479 0.572 65 44 19 0 0
0.5398 0.1022 -2.2226 0.659 0.393 0.641 46 30 14 0 0
0.5507 0.1065 -2.2236 0.668 0.390 0.634 51 35 21 0 0
0.1185 -0.0271 -1.2166 0.079 -0.251 0.965 138 117 86 0 0
0.1475 -0.0153 -1.2178 0.578 -0.345 0.739 141 116 80 0 0
0.1272 -0.0263 -1.2749 0.859 -0.114 0.499 82 65 44 0 0
0.1157 -0.0315 -1.2852 0.904 0.424 -0.050 83 67 46 0 0
0.1179 -0.0331 -1.3381 0.806 -0.436 0.400 71 59 40 0 0
0.1171 -0.0337 -1.3435 0.688 -0.107 0.718 72 60 40 0 0
0.1968 -0.0036 -1.3965 0.503 0.137 0.853 162 133 84 0 0
0.2682 0.0198 -1.5161 0.759 0.533 0.373 54 35 11 0 0
0.2817 0.0255 -1.5130 0.842 -0.020 0.539 55 35 12 0 0
0.2857 0.0258 -1.5409 0.973 -0.076 0.217 175 147 94 0 0
0.2866 0.0260 -1.5454 0.902 -0.094 0.422 107 78 41 0 0
0.2881 0.0264 -1.5496 0.949 -0.030 0.313 70 45 20 0 0
0.2898 0.0269 -1.5536 0.949 0.312 0.048 59 39 15 0 0
0.2936 0.0283 -1.5563 0.935 0.350 0.046 62 42 18 0 0
0.3178 0.0362 -1.5972 0.403 -0.083 0.911 160 135 92 0 0
0.3225 0.0381 -1.5993 0.388 0.085 0.918 161 135 90 0 0
0.3320 0.0420 -1.5983 0.336 0.072 0.939 147 118 75 0 0
0.3836 0.0615 -1.6305 0.860 0.282 0.425 125 105 79 0 0
0.3799 0.0596 -1.6381 0.935 0.108 0.338 95 72 47 0 0
0.3422 0.0411 -1.7056 0.909 -0.150 0.388 82 60 29 0 0
0.3451 0.0396 -1.7621 0.919 -0.003 0.394 59 39 17 0 0
0.3789 0.0482 -1.8728 0.671 0.433 0.602 67 45 22 0 0
0.3811 0.0489 -1.8767 0.757 0.420 0.500 71 49 26 0 0
0.3830 0.0495 -1.8807 0.837 0.403 0.370 71 49 26 0 0
0.3882 0.0510 -1.8932 0.969 0.091 0.231 65 43 22 0 0
0.3893 0.0512 -1.8979 0.969 0.091 0.231 66 44 25 0 0
0.4016 0.0544 -1.9382 0.828 0.396 0.397 67 46 25 0 0
0.4320 0.0629 -2.0203 0.909 -0.162 0.383 99 76 38 0 0
0.4439 0.0671 -2.0329 0.940 -0.122 0.317 93 69 33 0 0
0.4800 0.0777 -2.1219 0.880 0.176 0.441 77 54 23 0 0
0.4877 0.0803 -2.1323 0.800 0.134 0.585 77 54 23 0 0
0.4942 0.0827 -2.1380 0.838 0.268 0.475 78 55 24 0 0
0.4959 0.0832 -2.1422 0.829 0.163 0.534 77 54 23 0 0
0.4904 0.0804 -2.1533 0.919 0.232 0.318 79 56 25 0 0
0.4914 0.0806 -2.1583 0.721 0.376 0.582 80 57 24 0 0
0.4942 0.0816 -2.1615 0.824 0.314 0.472 78 55 23 0 0
0.5018 0.0842 -2.1720 0.868 0.043 0.494 80 56 26 0 0
0.5409 0.0986 -2.2050 0.760 0.366 0.537 81 58 27 0 0
0.5429 0.0992 -2.2090 0.708 0.354 0.610 78 55 25 0 0
0.5461 0.1004 -2.2118 0.694 0.223 0.685 71 51 26 0 0
0.1169 -0.0326 -1.2179 0.079 -0.251 0.965 137 116 85 0 0
0.1460 -0.0207 -1.2191 0.613 -0.418 0.670 133 108 77 0 0
0.1396 -0.0297 -1.3526 0.589 0.186 0.786 87 71 47 0 0
0.1432 -0.0284 -1.3558 0.675 0.041 0.737 101 83 56 0 0
0.1482 -0.0267 -1.3631 0.801 0.495 0.337 126 102 64 0 0
0.1652 -0.0200 -1.3693 0.687 -0.246 0.684 161 135 95 0 0
0.1975 -0.0081 -1.3968 0.578 0.037 0.816 169 138 89 0 0
0.2036 -0.0057 -1.3985 0.580 0.404 0.708 94 68 39 0 0
0.2672 0.0146 -1.5174 0.701 0.545 0.460 55 35 9 0 0
0.2824 0.0203 -1.5285 0.952 -0.223 0.210 78 52 22 0 0
0.2838 0.0207 -1.5327 0.971 -0.101 0.218 79 49 17 0 0
0.2848 0.0209 -1.5372 0.971 -0.101 0.218 137 106 59 0 0
0.2854 0.0209 -1.5419 0.949 -0.030 0.313 150 122 74 0 0
0.2987 0.0245 -1.5795 0.623 0.567 0.539 45 30 12 0 0
0.3123 0.0296 -1.5913 0.634 0.024 0.773 127 110 86 0 0
0.3190 0.0320 -1.5973 0.388 0.085 0.918 164 138 90 0 0
0.3237 0.0338 -1.5994 0.388 0.085 0.918 158 130 80 0 0
0.3576 0.0468 -1.6181 0.606 0.643 0.469 140 112 78 0 0
0.3853 0.0576 -1.6302 0.754 0.521 0.401 123 101 76 0 0
0.3419 0.0361 -1.7068 0.909 -0.150 0.388 82 62 32 0 0
0.3514 0.0386 -1.7372 0.966 0.005 0.259 79 59 32 0 0
0.3464 0.0353 -1.7622 0.657 -0.073 0.750 56 35 13 0 0
0.3614 0.0376 -1.8434 0.838 0.425 0.342 75 54 27 0 0
0.3814 0.0444 -1.8720 0.732 0.397 0.554 70 48 25 0 0
0.3830 0.0449 -1.8762 0.757 0.420 0.500 72 50 27 0 0
0.3850 0.0455 -1.8802 0.779 0.439 0.448 75 53 30 0 0
0.3929 0.0469 -1.9184 0.860 0.034 0.508 69 45 25 0 0
0.4018 0.0498 -1.9335 0.923 0.232 0.308 67 45 24 0 0
0.4033 0.0502 -1.9379 0.903 0.173 0.394 68 47 26 0 0
0.4065 0.0514 -1.9409 0.724 0.403 0.560 68 47 26 0 0
0.4466 0.0634 -2.0317 0.970 0.092 0.224 87 62 30 0 0
0.4820 0.0736 -2.1214 0.696 0.359 0.622 88 65 34 0 0
0.4881 0.0756 -2.1333 0.842 0.066 0.535 81 58 27 0 0
0.4885 0.0752 -2.1446 0.742 0.503 0.443 79 56 25 0 0
0.4905 0.0758 -2.1486 0.742 0.503 0.443 79 56 25 0 0
0.4958 0.0774 -2.1614 0.824 0.314 0.472 80 57 24 0 0
0.5025 0.0795 -2.1727 0.868 0.043 0.494 83 59 29 0 0
0.5049 0.0804 -2.1763 0.821 -0.014 0.571 81 58 27 0 0
0.5063 0.0807 -2.1809 0.789 0.048 0.612 84 63 30 0 0
0.5101 0.0819 -2.1891 0.787 0.146 0.599 88 68 33 0 0
0.5152 0.0836 -2.1961 0.700 0.400 0.592 95 72 36 0 0
0.5545 0.0990 -2.2106 0.841 0.172 0.513 75 58 32 0 0
0.5807 0.1067 -2.2738 -0.289 0.480 0.828 205 206 209 0 0
0.0670 -0.0582 -1.2262 -0.131 0.042 0.990 140 119 89 0 0
0.1153 -0.0380 -1.2192 0.079 -0.251 0.965 137 117 85 0 0
0.1347 -0.0301 -1.2200 0.407 -0.392 0.825 135 111 80 0 0
0.1573 -0.0285 -1.3790 0.890 -0.056 0.453 122 96 64 0 0
0.2048 -0.0100 -1.3986 0.501 0.214 0.839 129 102 65 0 0
0.2085 -0.0086 -1.4016 0.583 0.464 0.667 127 104 76 0 0
0.2406 0.0018 -1.4583 0.600 0.135 0.788 79 55 20 0 0
0.2803 0.0146 -1.5306 0.843 -0.290 0.453 77 52 23 0 0
0.2799 0.0142 -1.5359 0.489 0.027 0.872 91 61 23 0 0
0.2828 0.0152 -1.5392 0.549 0.055 0.834 150 118 68 0 0
0.2866 0.0167 -1.5420 0.427 0.103 0.898 150 120 76 0 0
0.3209 0.0281 -1.5969 0.475 -0.098 0.874 166 140 91 0 0
0.3253 0.0298 -1.5992 0.516 -0.206 0.831 151 122 74 0 0
0.3401 0.0356 -1.6049 0.440 -0.165 0.883 152 124 80 0 0
0.3550 0.0415 -1.6105 0.471 0.097 0.877 170 146 101 0 0
0.3605 0.0434 -1.6171 0.606 0.643 0.469 145 116 85 0 0
0.3668 0.0459 -1.6180 0.530 0.288 0.798 155 129 97 0 0
0.3984 0.0592 -1.6120 0.924 0.043 0.380 150 121 88 0 0
0.3489 0.0318 -1.7560 0.973 0.039 0.227 70 52 25 0 0
0.3632 0.0335 -1.8430 0.827 0.462 0.320 74 53 26 0 0
0.3636 0.0334 -1.8482 0.975 0.029 0.221 76 55 28 0 0
0.3652 0.0328 -1.8746 0.986 0.102 0.131 75 53 29 0 0
0.3954 0.0428 -1.9231 0.800 0.060 0.597 70 48 27 0 0
0.3980 0.0437 -1.9266 0.800 0.060 0.597 75 53 32 0 0
0.4010 0.0448 -1.9297 0.803 0.189 0.566 64 42 21 0 0
0.4056 0.0463 -1.9372 0.853 -0.096 0.513 67 45 24 0 0
0.4488 0.0595 -2.0309 0.803 -0.066 0.593 80 57 27 0 0
0.4796 0.0682 -2.1132 0.927 0.229 0.296 75 52 21 0 0
0.4919 0.0715 -2.1486 0.912 0.001 0.409 81 58 27 0 0
0.4937 0.0720 -2.1529 0.933 0.060 0.354 83 60 29 0 0
0.4972 0.0734 -2.1554 0.842 0.266 0.469 89 66 35 0 0
0.5066 0.0765 -2.1701 0.824 0.258 0.504 81 58 28 0 0
0.5099 0.0774 -2.1788 0.853 0.039 0.521 88 66 32 0 0
0.5131 0.0783 -2.1876 0.883 0.191 0.428 90 69 32 0 0
0.5173 0.0797 -2.1953 0.653 0.451 0.608 96 73 37 0 0
0.5546 0.0936 -2.2239 0.892 0.160 0.424 75 58 34 0 0
0.0780 -0.0583 -1.2219 0.014 -0.162 0.987 142 120 90 0 0
0.0817 -0.0569 -1.2251 -0.016 -0.147 0.989 141 120 90 0 0
0.1069 -0.0464 -1.2235 0.155 -0.267 0.951 128 107 79 0 0
0.1458 -0.0372 -1.3608 0.899 -0.333 0.285 127 102 71 0 0
0.2067 -0.0142 -1.4032 0.793 -0.012 0.610 159 129 90 0 0
0.2154 -0.0108 -1.4084 0.666 0.086 0.741 158 127 86 0 0
0.2184 -0.0098 -1.4117 0.686 0.153 0.712 178 146 101 0 0
0.2443 -0.0008 -1.4470 0.896 0.442 0.049 84 60 26 0 0
0.2447 -0.0009 -1.4518 0.896 0.442 0.049 83 59 25 0 0
0.2462 -0.0005 -1.4559 0.791 -0.192 0.580 79 55 21 0 0
0.2694 0.0070 -1.4975 0.905 0.084 0.417 65 47 19 0 0
0.2692 0.0065 -1.5077 0.854 -0.062 0.517 63 44 19 0 0
0.3148 0.0209 -1.5965 0.642 -0.041 0.766 155 132 88 0 0
0.3203 0.0231 -1.5981 0.444 0.010 0.896 153 128 79 0 0
0.3245 0.0247 -1.6006 0.462 -0.095 0.882 155 127 79 0 0
0.3948 0.0529 -1.6153 0.931 0.218 0.292 146 121 89 0 0
0.4008 0.0551 -1.6215 0.857 -0.118 0.501 110 89 63 0 0
0.3546 0.0263 -1.8178 0.960 0.216 0.176 79 58 29 0 0
0.3639 0.0289 -1.8436 0.942 0.316 0.115 73 52 25 0 0
0.3671 0.0282 -1.8853 0.945 0.242 0.219 73 51 27 0 0
0.3967 0.0385 -1.9231 0.856 0.112 0.505 69 47 26 0 0
0.3990 0.0392 -1.9269 0.856 0.120 0.503 75 53 32 0 0
0.4030 0.0402 -1.9404 0.767 0.440 0.466 68 46 25 0 0
0.4486 0.0545 -2.0324 0.749 0.330 0.574 73 52 24 0 0
0.4498 0.0548 -2.0370 0.933 0.304 0.191 67 45 23 0 0
0.4428 0.0504 -2.0663 0.750 0.355 0.559 70 49 22 0 0
0.4436 0.0502 -2.0772 0.996 -0.040 -0.076 76 55 27 0 0
0.4496 0.0521 -2.0894 0.744 0.109 0.659 129 102 60 0 0
0.4905 0.0662 -2.1454 0.911 -0.097 0.402 79 56 25 0 0
0.5156 0.0742 -2.1924 0.616 0.237 0.751 86 64 27 0 0
0.5191 0.0755 -2.1949 0.704 0.390 0.594 98 76 39 0 0
0.5215 0.0764 -2.1986 0.721 0.274 0.636 93 71 34 0 0
0.5522 0.0882 -2.2157 0.875 0.175 0.451 83 64 34 0 0
0.5561 0.0894 -2.2238 0.850 0.204 0.486 80 63 37 0 0
0.1198 -0.0459 -1.2231 0.393 -0.554 0.734 115 93 70 0 0
0.1220 -0.0451 -1.2269 0.721 -0.659 0.213 129 107 78 0 0
0.1430 -0.0433 -1.3628 0.760 -0.239 0.605 113 89 57 0 0
0.2604 -0.0005 -1.4785 0.895 -0.221 0.387 82 58 27 0 0
0.2633 0.0006 -1.4818 0.889 -0.135 0.438 118 92 52 0 0
0.2662 0.0013 -1.4902 0.975 -0.108 0.195 137 110 71 0 0
0.2671 0.0015 -1.4946 0.975 -0.108 0.195 75 52 23 0 0
0.2697 0.0024 -1.4981 0.930 -0.122 0.346 70 52 25 0 0
0.2715 0.0029 -1.5021 0.547 0.323 0.772 62 44 20 0 0
0.3219 0.0190 -1.5980 0.817 -0.359 0.451 165 138 88 0 0
0.3298 0.0223 -1.5980 0.753 -0.182 0.633 155 128 79 0 0
0.3704 0.0381 -1.6173 0.555 0.517 0.652 162 136 92 0 0
0.3959 0.0487 -1.6155 0.931 0.218 0.292 134 111 78 0 0
0.3976 0.0493 -1.6194 0.935 0.202 0.291 121 99 69 0 0
0.3997 0.0499 -1.6231 0.867 0.141 0.479 105 84 54 0 0
0.3663 0.0237 -1.8703 0.891 0.124 0.436 77 55 31 0 0
0.3660 0.0230 -1.8817 0.962 0.205 0.180 75 53 29 0 0
0.3683 0.0238 -1.8855 0.920 0.232 0.316 75 53 29 0 0
0.3693 0.0240 -1.8902 0.945 0.242 0.219 80 58 34 0 0
0.3992 0.0350 -1.9166 0.912 0.337 0.232 66 44 23 0 0
0.4001 0.0351 -1.9215 0.876 0.442 0.191 66 44 23 0 0
0.3983 0.0340 -1.9286 0.943 0.274 0.187 65 43 22 0 0
0.4072 0.0366 -1.9494 0.915 0.303 0.266 64 42 21 0 0
0.4285 0.0435 -1.9881 0.671 0.505 0.543 69 49 24 0 0
0.4502 0.0503 -2.0322 0.749 0.330 0.574 69 47 22 0 0
0.4516 0.0507 -2.0367 0.954 0.299 0.010 67 45 22 0 0
0.4412 0.0447 -2.0690 0.830 0.009 0.558 70 49 22 0 0
0.4826 0.0596 -2.1130 0.949 0.259 0.180 75 52 21 0 0
0.4856 0.0593 -2.1455 0.676 0.527 0.515 79 56 25 0 0
0.5053 0.0663 -2.1681 0.836 0.451 0.312 77 54 22 0 0
0.5531 0.0837 -2.2162 0.857 0.135 0.497 87 66 32 0 0
0.5795 0.0917 -2.2734 0.957 -0.231 0.178 203 204 208 0 0
0.1169 -0.0529 -1.2441 0.837 -0.537 -0.110 110 90 58 0 0
0.1122 -0.0552 -1.2511 0.847 -0.391 -0.360 120 104 80 0 0
0.1693 -0.0383 -1.3848 0.883 0.050 0.466 172 139 89 0 0
0.2544 -0.0064 -1.4528 0.956 0.234 0.179 86 62 28 0 0
0.2555 -0.0062 -1.4571 0.991 0.130 -0.019 75 51 19 0 0
0.2719 -0.0017 -1.5027 0.722 0.024 0.691 66 48 24 0 0
0.2801 -0.0011 -1.5586 0.725 -0.140 0.674 62 39 17 0 0
0.2902 0.0029 -1.5626 0.917 0.383 0.112 68 48 20 0 0
0.2908 0.0029 -1.5673 0.917 0.383 0.112 74 55 27 0 0
0.2914 0.0029 -1.5721 0.917 0.383 0.112 51 33 9 0 0
0.3272 0.0166 -1.5954 0.370 0.222 0.902 151 123 73 0 0
0.3317 0.0183 -1.5976 0.370 0.222 0.902 154 128 80 0 0
0.3647 0.0313 -1.6118 0.421 0.255 0.871 168 139 99 0 0
0.3679 0.0325 -1.6148 0.593 0.748 0.298 173 145 104 0 0
0.3722 0.0342 -1.6170 0.534 0.333 0.777 157 130 89 0 0
0.3515 0.0165 -1.7949 0.987 0.023 0.156 75 56 32 0 0
0.3543 0.0172 -1.8036 0.925 0.101 0.366 98 77 48 0 0
0.3659 0.0186 -1.8717 0.963 0.170 0.210 77 55 31 0 0
0.3646 0.0177 -1.8783 0.595 0.568 0.569 74 52 28 0 0
0.3692 0.0195 -1.8803 0.894 0.218 0.391 74 52 28 0 0
0.3694 0.0194 -1.8856 0.920 0.232 0.316 74 52 28 0 0
0.3711 0.0198 -1.8899 0.903 0.428 0.021 78 56 32 0 0
0.3719 0.0193 -1.9060 0.940 0.307 0.150 70 49 25 0 0
0.3725 0.0190 -1.9168 0.744 0.255 0.617 68 48 24 0 0
0.3772 0.0209 -1.9186 0.836 0.408 0.368 69 49 24 0 0
0.4086 0.0324 -1.9494 0.915 0.303 0.266 64 42 21 0 0
0.4319 0.0402 -1.9864 0.557 0.564 0.610 68 48 23 0 0
0.4564 0.0479 -2.0337 0.881 0.134 0.453 67 45 22 0 0
0.4813 0.0544 -2.1097 0.855 -0.071 0.514 75 52 21 0 0
0.4849 0.0558 -2.1122 0.787 0.135 0.602 73 50 19 0 0
0.4888 0.0573 -2.1144 0.841 0.488 0.235 73 50 19 0 0
0.4889 0.0555 -2.1496 0.900 0.030 0.434 79 56 25 0 0
0.5076 0.0624 -2.1672 0.868 0.375 0.324 79 56 24 0 0
0.5086 0.0623 -2.1781 0.946 0.284 0.156 84 61 26 0 0
0.5110 0.0628 -2.1877 0.937 0.206 0.281 88 66 27 0 0
0.5124 0.0631 -2.1924 0.937 0.206 0.281 95 73 34 0 0
0.1126 -0.0591 -1.2371 0.695 -0.680 0.233 127 105 74 0 0
0.1686 -0.0432 -1.3808 0.667 0.178 0.723 186 153 107 0 0
0.1700 -0.0428 -1.3851 0.810 0.106 0.576 165 132 82 0 0
0.1745 -0.0411 -1.3877 0.953 0.247 0.175 179 146 92 0 0
0.2511 -0.0124 -1.4504 0.711 0.324 0.624 86 63 29 0 0
0.2541 -0.0113 -1.4537 0.979 0.201 0.013 84 61 27 0 0
0.2548 -0.0125 -1.4833 0.507 -0.265 0.820 93 70 32 0 0
0.2594 -0.0107 -1.4856 0.561 -0.186 0.806 152 130 78 0 0
0.2637 -0.0091 -1.4882 0.407 -0.136 0.903 156 128 84 0 0
