ply
format ascii 1.0
element vertex 676
property float x
property float y
property float z
property uchar diffuse_red
property uchar diffuse_green
property uchar diffuse_blue
end_header
-0.2414558727057758 0.33449414684883766 -1.592892408054338 213 214 218
-0.23746763820572853 0.33724141714609035 -1.5958469314561194 213 214 218
-0.23091600480240693 0.34161854791438917 -1.5971790544405078 213 214 218
-0.22738665165246058 0.34407304783032655 -1.6003979864638518 213 214 218
-0.22022931129214807 0.3488339138207601 -1.6013108585879936 213 214 218
-0.2166692018649723 0.35130705145331464 -1.6044865481030226 213 214 218
-0.21231896944701506 0.35428210404322097 -1.6071502150090133 213 214 218
-0.20406409730363473 0.35973828093013455 -1.607303113461529 213 214 218
-0.19839922197603072 0.3635475109484411 -1.6090907148753577 213 214 218
-0.19166434700654122 0.3680359184308414 -1.6101713147547057 213 214 218
-0.1886257970646052 0.37017523968146 -1.6136201491388158 213 214 218
-0.18154731740855695 0.3748805081992151 -1.6144415741032894 213 214 218
-0.1824565474226747 0.3745117315676581 -1.6204402905558453 213 214 218
-0.22026033444093307 0.3507142241347918 -1.6505560004643587 213 214 218
-0.21896303665315459 0.35175054273080963 -1.655213640812328 214 215 219
-0.22091012208481892 0.3507272130692106 -1.6620074766663389 214 215 219
-0.21283326389128204 0.3560674461324163 -1.6622015630941842 214 215 219
-0.23279860985744943 0.3436085796979031 -1.6809391176235766 214 215 219
-0.22927884495979584 0.3460571178555117 -1.684167606483464 214 215 219
-0.22496165492152187 0.3490113286501577 -1.686856518335429 214 215 219
-0.22049996504457975 0.3520567707763801 -1.689437275607252 213 214 218
-0.19321925077741947 0.36957676724985544 -1.6766885855976807 214 215 219
-0.18804273345912054 0.3730726688166174 -1.6787121976915302 214 215 219
-0.18104229690744478 0.37772463994352296 -1.6794877797952825 214 215 219
-0.18792892169303305 0.37357019764749755 -1.689655203748618 214 215 219
-0.2632697033656123 0.33506984301307935 -1.9809445284484761 212 213 215
-0.27348217668798125 0.3288659801376709 -1.9949066308629375 212 213 215
-0.2524894028013217 0.34233025689382357 -1.9846422225971798 212 213 215
-0.2626297812978039 0.33617340130204043 -1.9985889542644597 211 212 216
-0.27420260313794304 0.3291162976996006 -2.0137150550894365 211 212 216
-0.29944055020756477 0.31345358759597397 -2.039639103758671 210 211 215
-0.3119273768668544 0.30582708723163765 -2.055647994848699 208 209 212
-0.3392238842578544 0.28887693575567697 -2.0834301954240035 207 208 210
-0.2931641682593295 0.3190779121212426 -2.077991443640848 149 141 130
-0.2809304684510201 0.3270152154676641 -2.0743646055224105 148 139 127
-0.2679041080065275 0.3354492186517132 -2.070047225378058 147 139 127
-0.2589132321217421 0.3413428199923252 -2.068943040539481 143 133 123
-0.24790365296979544 0.3485046332560785 -2.0661642895142944 138 128 118
-0.24086907123072204 0.35316521724964 -2.066578939413562 134 124 114
-0.2322348882437379 0.35883050198365257 -2.065661023047984 131 121 111
-0.22098692492902172 0.36613755639773254 -2.06256744517163 133 123 113
-0.21311832618566762 0.3713188257017326 -2.0622055382937123 135 124 113
-0.20653984304579626 0.3756882060252662 -2.062877586232913 135 123 110
-0.19890052507320716 0.3807232326904822 -2.06264884160603 133 120 105
-0.19073160789840304 0.38608985981758753 -2.0619520191340066 130 115 99
-0.1826068586779963 0.3914275285313827 -2.061260467749647 129 113 99
-0.18176254166117722 0.39219157977446895 -2.066612770036596 127 111 95
-0.17940393455718973 0.39390670845206954 -2.070702543462635 125 110 93
-0.17016363106961624 0.3999423959003103 -2.0690128880300263 125 110 94
-0.1659773182005022 0.4028039994977919 -2.071541285975684 126 110 93
-0.1694612625227036 0.40085086468069925 -2.0805348174278273 127 109 91
-0.16286123502254413 0.40522704049356145 -2.081014392981875 126 107 88
-0.15841187444620008 0.40825282769650273 -2.0832968360682775 119 99 77
-0.16419813093826818 0.40485663264971433 -2.0942863011015618 114 94 69
-0.15778397006365813 0.4091148460669183 -2.0948890923108836 108 88 60
-0.1514587804042586 0.4133163649223369 -2.0955449589934543 104 85 53
-0.14606120350012225 0.4169353232213264 -2.096975343570236 108 89 59
-0.1416049521536053 0.41996339275973704 -2.0991990463825245 111 92 64
-0.13780174967829045 0.4225815621932334 -2.101973937302452 115 95 70
-0.13385850239090552 0.42528711771515604 -2.1046172579185485 114 96 71
-0.12484576996741059 0.4311692119539857 -2.1028410830772777 113 96 70
-0.12574886998208767 0.4308367837064073 -2.109676644863883 115 98 72
-0.11795852457452816 0.435951209799501 -2.108921550499261 117 98 73
-0.11752594512250625 0.43645564091076344 -2.1145906878931466 118 98 71
-0.11164982867162837 0.44036956903015095 -2.1154773823045714 118 98 71
-0.1029701764588159 0.44603823889327754 -2.113869391495745 116 96 69
-0.10201335679933482 0.446870344804838 -2.1190604147215697 116 96 68
-0.09955448501187192 0.4486428883957502 -2.122922594531681 115 96 67
-0.09744871997498278 0.4501942911657453 -2.127095607805986 115 95 66
-0.09551160978293588 0.45164008695593105 -2.131417520214093 115 95 66
-0.09292215614920168 0.45349402033722264 -2.1351546486209294 116 97 67
-0.09011091978414432 0.455486539578332 -2.1386885033621974 116 97 66
-0.09048554090022876 0.45548611438177733 -2.1450855808423874 113 94 62
-0.08882578066740693 0.45675841342339385 -2.1496568138188765 113 92 61
-0.08387513338605873 0.4600885143730479 -2.1512485439412115 115 94 63
-0.07692803431280304 0.4646661530720219 -2.1510107113486057 114 93 62
-0.07378057632193052 0.46686761866264626 -2.1542066312204464 114 93 62
-0.06860407832209992 0.4703369476916069 -2.1555421410101667 112 92 59
-0.0678619562362533 0.4710345785931963 -2.1609217450876184 110 90 57
-0.06620337912888691 0.47230501234282657 -2.16546489066954 109 89 56
-0.06610821163504266 0.4725988203701014 -2.1714488839036377 109 88 54
-0.06069119109489046 0.4762169487079354 -2.172525172383837 110 87 53
-0.05399579636807911 0.48063267087798794 -2.1723979951234926 109 86 54
-0.05082963496845322 0.4828437834557842 -2.1755239142847485 109 86 54
-0.046757333907304854 0.4856203031142538 -2.177798217506197 109 87 56
-0.047746995174003715 0.4852367547320024 -2.184790051528054 109 88 57
-0.04130742410003191 0.48949022422986027 -2.184835283833914 109 88 57
-0.03253629626078497 0.4951975867897227 -2.182664991740861 111 90 59
-0.029542496984455158 0.4972991662421612 -2.1859015076894144 111 90 59
-0.0152685732793853 0.506436764894548 -2.178472419716567 112 91 60
-0.016503687610607887 0.5058992205538256 -2.1856731811602432 112 91 60
-0.02104071832607668 0.5033033107017748 -2.1960275064559953 110 90 58
-0.02047873040286391 0.5038877694945934 -2.2015563745741242 109 89 56
-0.020246071567716517 0.5042671823673394 -2.2074063281100815 109 89 56
-0.016780054268998368 0.5066621387182072 -2.2101660180181235 110 90 57
-0.011317838974322925 0.510300689902994 -2.21099833474271 111 91 58
-0.0051447250298725655 0.5143814032030646 -2.2111257459256564 112 92 59
-0.00034839828434624076 0.5176035292556407 -2.2125598319675523 112 92 59
0.0034441739642629976 0.5201998372137265 -2.214950178497549 110 91 58
0.002262580218035326 0.5196980910371782 -2.2221628891993856 109 90 57
0.003373211092789097 0.5206241841458125 -2.227157879874727 110 91 58
0.0075389080925997165 0.5234522961838073 -2.229171234680326 111 92 60
0.0147697231003307 0.5281877265584296 -2.228168306154146 110 94 61
0.01279189628685412 0.5271912336438511 -2.236183267490095 111 95 62
0.013630644933218694 0.5279480535106043 -2.241443471543194 110 94 61
0.015989408567307795 0.529650689929499 -2.245206922020807 110 94 60
0.018642248775985193 0.531536116807545 -2.248675712745037 109 94 62
0.02211249112995306 0.5339297001083765 -2.251327558298618 104 90 59
0.025042845516021317 0.5359872174648213 -2.2545077862204908 97 83 56
0.028832960787070483 0.5385789932589937 -2.256822742813795 97 88 65
0.0326987054205129 0.5412173466496735 -2.25905073633849 115 107 90
0.03299121959115653 0.54163454863798 -2.264855860785502 146 141 134
0.03328409451975528 0.5420522822828254 -2.2706685882624074 170 170 170
0.03406370892985355 0.5427727209398581 -2.275997762190153 184 185 187
0.03961758297117257 0.5464589632089467 -2.2764977725908526 191 192 194
0.04127724848798492 0.5477258660635334 -2.2809308230582657 195 196 197
0.049329821883549785 0.5529624665370555 -2.278855434086349 198 198 198
0.07366661099810395 0.5683076693095875 -2.260120293543574 200 200 200
0.08272564439742691 0.5741645686388869 -2.256899374290649 201 201 201
0.08675322744749053 0.5768972275332556 -2.25880227230395 202 202 202
0.0925835490846687 0.5807480275211703 -2.2588368080358316 203 203 203
0.09528185661773764 0.5826547948650569 -2.2620807379267713 203 203 203
0.1136170133329335 0.5942609856461634 -2.2491375907396725 204 204 204
0.11512257534124348 0.5954258981455902 -2.2535643303448234 205 205 205
0.13147000021086608 0.6057941457066692 -2.2425501585320258 205 205 205
0.12958840361376228 0.6048575550220803 -2.2504709785564643 205 205 205
1.0848747296965544 1.215653879745165 -1.734105141538258 214 214 214
1.0821028900143874 1.2141377297998 -1.742239007984565 214 214 214
1.072069526967622 1.208237634363696 -1.7610072429693062 214 214 214
-0.2607727134228812 0.30025640144162136 -1.180219647309673 189 190 193
-0.25553932583787625 0.3038171780536968 -1.1827469444889895 190 191 195
-0.2637677060483305 0.29869842534169305 -1.1914494910848161 190 191 195
-0.2654388385502933 0.2978082092387156 -1.1971632073120513 191 192 196
-0.39677623481197155 0.2135374831368161 -1.2682321458222656 192 193 195
-0.3924944334911925 0.21649447830966317 -1.271453751181063 193 194 196
-0.021411914615032668 0.4557963289411809 -1.1024149760108235 193 194 196
-0.026203080859031863 0.45287972400402243 -1.1091706542986106 194 194 196
-0.02907188479099307 0.45120243502328056 -1.1150409321010177 195 195 197
-0.04342019485826393 0.44213165066527327 -1.1263875165870914 196 196 198
-0.047479055828644534 0.4396900930413328 -1.1328836340513253 196 195 199
-0.06787629060852446 0.42672799487917706 -1.1472363112280906 196 196 200
-0.07913677075332043 0.41965228363245405 -1.1572769238180924 196 197 201
-0.12044933664922167 0.39323046569366715 -1.1818983340324807 197 198 202
-0.3520929652641878 0.25659749006613786 -1.6242192388941106 213 214 218
-0.3555365661322052 0.2546110712050519 -1.631977265794919 212 213 217
-0.3403486051930184 0.264528402202863 -1.6283081489969404 212 213 217
-0.32688617784109114 0.27334130825137487 -1.6256450986225213 213 213 217
-0.2654693808995041 0.3127803379966745 -1.5932525251898666 213 214 217
-0.2606901148044403 0.31604030073929823 -1.5957763294527991 214 214 218
-0.25317448290498956 0.32104700631773664 -1.5965814948759633 214 214 219
-0.24879086924896887 0.32405314249978423 -1.599320399056194 214 214 219
-0.24389275352415818 0.3273872810404326 -1.6017248776397124 213 214 219
-0.2374912477765198 0.33168047819604013 -1.6031686980663737 213 214 218
-0.23294952095997518 0.3347860015542209 -1.6057675193047678 213 214 217
-0.2256641508230891 0.33964181042059344 -1.6066139932563201 214 214 218
-0.2203333361334941 0.34324963473344305 -1.608679995023958 214 214 218
-0.21664685215137242 0.34580786796183677 -1.611780280210296 213 214 218
-0.20924619910815762 0.3507349003638342 -1.612491823230281 213 215 218
-0.20332015557789684 0.35472051233360896 -1.6141265646066927 212 214 217
-0.19751468021251634 0.35862853628681135 -1.6158205447244556 212 214 216
-0.19426132437293425 0.3609086197684515 -1.6191488785834292 211 214 215
-0.18763530555148222 0.36533860701242266 -1.6202792619956312 212 212 216
-0.18727539406063642 0.3657734911769262 -1.6254728077696288 212 214 217
-0.20239243183718325 0.35634425460285446 -1.6407964574366978 212 215 218
-0.20241693572240388 0.3565359268303066 -1.6462889681773323 213 214 217
-0.19981034778607082 0.3584043985160827 -1.6500565083868004 214 215 218
-0.20282249460504675 0.356693004233054 -1.657533205962506 213 214 218
-0.20978447728216582 0.35246629274723135 -1.6676501854758066 212 214 219
-0.20497832562691903 0.35573658887152104 -1.6699766891812584 214 214 219
-0.2005806504954813 0.35874622692455344 -1.6725621368109849 213 215 219
-0.1847952789148854 0.3690066937707928 -1.6675081130208333 212 216 219
-0.18538745597368683 0.36883752202321896 -1.6733975019159828 212 216 219
-0.18549953803369534 0.36897437251609994 -1.6789736376222821 213 216 220
-0.1689906301513241 0.379690939348192 -1.6733128689882952 213 215 219
-0.16561105746341315 0.38204916819036094 -1.6764978777666588 214 215 218
-0.15579360243277063 0.38850377742736547 -1.675290594185442 214 215 219
-0.15052685368065366 0.39206160429661085 -1.677156382064285 214 215 219
-0.2407676261967543 0.34278961589574486 -1.9539786309948257 213 214 216
-0.24882061842113012 0.33791913486847713 -1.96617235358355 213 214 216
-0.2533782991501479 0.33526230325066375 -1.9757067884960589 212 213 215
-0.26076036412244674 0.33081960287493933 -1.9874658630033974 212 213 215
-0.25634913690528666 0.33383930534730394 -1.9900801434732693 211 213 215
-0.2667290010128313 0.32750268499762225 -2.004242711024897 209 213 216
-0.28315375287756794 0.3173452580121723 -2.0232035127057117 209 211 215
-0.29894143761143305 0.30759402430253213 -2.0417516470998285 209 210 214
-0.3161973871738222 0.2969177017124328 -2.0615434640511876 207 208 212
-0.3312499371789101 0.2876378064590476 -2.0796845567782176 201 202 204
-0.2615153006716815 0.3328809333418906 -2.0551309523364685 150 141 128
-0.2531455125225273 0.338400275010859 -2.0545381213478775 144 134 121
-0.2427359673383674 0.3452065597438987 -2.052264613364186 138 127 115
-0.2374949621791687 0.34874769479635137 -2.054139739438307 139 126 114
-0.22677417204160766 0.35574778086447156 -2.0515418191648855 137 123 111
-0.21937651647126777 0.36064851229936645 -2.051610939794897 135 123 111
-0.2143359662887948 0.36406052321981114 -2.0535811906050943 135 123 110
-0.2003744192343156 0.3731015802080851 -2.0482147774555957 133 121 107
-0.19640133703305307 0.375838027457784 -2.0510099818013057 132 119 106
-0.1910042326672619 0.37947244306713174 -2.0526189211650676 132 116 103
-0.18539438487055598 0.38324038164559493 -2.0540339916017913 129 113 99
-0.17954780911445717 0.3871569083157643 -2.0552336494758014 128 112 97
-0.17516728310538432 0.3901482060042214 -2.057634540630088 127 111 95
-0.1699850430099466 0.3936444950360765 -2.05935282355882 127 111 95
-0.16765465080125302 0.395342349435598 -2.0634441777329737 126 110 94
-0.1617373413641125 0.39930095208095345 -2.0645181316293884 126 110 94
-0.1591127687728665 0.401183665809581 -2.0683473372389516 126 109 93
-0.15797704738216878 0.40212807879623225 -2.073431288010302 126 109 92
-0.15287116908496773 0.4055738939856388 -2.0751518593700227 125 106 89
-0.14905402863785322 0.4082072752377669 -2.0779519704228027 125 106 86
-0.14075908622087796 0.41366052213339094 -2.076922211662056 123 105 82
-0.1497377119312231 0.40823478753138176 -2.090638335113319 118 100 75
-0.14488686091457653 0.4115186748865089 -2.0925419962713194 112 94 67
-0.1394641609524801 0.4151619831905845 -2.093938137980236 112 93 65
-0.1338805836422866 0.4189058621586898 -2.095177110556834 115 95 68
-0.12927286313961422 0.4220348596102405 -2.097241692356274 112 92 66
-0.11126661611883176 0.433594400795874 -2.0876592326600183 114 94 67
-0.11020264428090232 0.43449144976463955 -2.092746950753317 115 96 69
-0.10862836332389386 0.4357096537832066 -2.097392687531912 117 97 69
-0.10546838712423168 0.4379252460959891 -2.100650669072359 118 97 70
-0.10013491107937916 0.44150741893592704 -2.1019924192085764 117 98 70
-0.09900936681295835 0.44244307525058624 -2.1070230496935816 117 98 69
-0.09593724185621616 0.4446026255173306 -2.110337192985641 115 95 66
-0.0921467679924074 0.44721346363543046 -2.113008199437421 115 94 64
-0.09196471792630762 0.44755608650368983 -2.1188755413960827 114 94 64
-0.09047499455420138 0.44872074069552903 -2.123585667770777 113 94 64
-0.08809706597093464 0.45044349844751363 -2.127503411975905 114 95 66
-0.08824225085828852 0.45058115000727283 -2.1336797711225866 115 95 64
-0.084168257687326 0.453369202885754 -2.1360731554927677 109 89 57
-0.07980152378953231 0.4563406456127886 -2.1381907520132426 106 86 53
-0.07531967321185828 0.4593838618888 -2.140190856398066 107 86 54
-0.07084800842322048 0.46242015224669 -2.1421861595335003 115 94 63
-0.06653552016333641 0.46535599738521244 -2.14431219395783 115 94 63
-0.06620671078506729 0.4657911902434282 -2.1500579569386002 115 94 63
-0.06877570075389555 0.46440829913096615 -2.158461484651867 114 93 62
-0.06517162780533575 0.4668992536124733 -2.161225900143032 112 92 58
-0.06276576624333186 0.4686382057406541 -2.1650828656638437 107 87 52
-0.05648719107694594 0.4728060100746557 -2.1653642744976036 108 88 53
-0.051158912941509316 0.4763769850342987 -2.166501108829941 111 90 55
-0.042365909436051674 0.4821196491428141 -2.1644051251428165 110 90 55
-0.03949883318138098 0.4841459235412162 -2.1677850636010327 110 89 55
-0.035820211310094274 0.4866806582485734 -2.1704020613434043 110 89 56
-0.03373970690266159 0.4882134623698175 -2.174504108475491 109 89 56
-0.0319209397587934 0.48958219687217924 -2.1788500367879693 110 90 57
-0.022070868174083824 0.49598256628062176 -2.175639214616072 111 91 58
-0.025859720712910206 0.4938378367048783 -2.185254166869502 112 92 59
-0.013351885129751995 0.5019008912071719 -2.1794789108506447 112 92 59
-0.014693495807253043 0.5012892219907326 -2.1867874307515 111 91 59
-0.01722251485280224 0.49993473845267794 -2.195242268628875 110 90 58
-0.01711543188723119 0.5002313217687933 -2.2012046533151106 110 90 57
-0.015961439154909107 0.501183499158906 -2.2061741190309867 110 90 57
-0.011757840899664862 0.5040442361484303 -2.208220625655792 108 88 55
-0.00789486328333383 0.5066913515495948 -2.2105817665822984 112 93 60
0.005309511999565142 0.5151819689533773 -2.203918077328609 114 94 61
0.006437810635331664 0.5161167528314143 -2.2088774770253 109 90 57
0.010759591581489258 0.5190488379289673 -2.2107416186229742 108 88 55
0.009766206341518924 0.5186568825363846 -2.2177634286932078 111 91 58
0.007540509463935474 0.51749506263927 -2.2260023884147007 112 92 59
0.010458751948754508 0.5195494516079665 -2.2292300592544376 112 93 60
0.018790362142582395 0.5249868553874739 -2.2271403139510744 111 92 60
0.022866641088319428 0.5277638400318387 -2.2292012974263313 110 92 60
0.02211951575633203 0.5275267983136811 -2.2360080731384957 108 90 58
0.026849193162681084 0.5307114787828813 -2.2374104058279634 102 86 53
0.02816749524688722 0.5317649019544386 -2.2421805034179996 105 89 58
0.02948629970034844 0.5328187263733314 -2.2469524139090504 103 88 58
0.03100512453431764 0.5339975236273099 -2.25152712706814 105 91 61
0.032270073776157426 0.5350178831926444 -2.2563569914641843 103 91 64
0.04065440100240081 0.5404819351777586 -2.2540491102218283 108 96 73
0.041838985469640044 0.5414516007215424 -2.2589454691359983 118 107 94
0.04302396106551054 0.5424216255769967 -2.2638444789401726 144 140 134
0.04420980588193285 0.5433923081474391 -2.268745660132964 171 171 171
0.04720613635531895 0.5454923738697419 -2.271814110380061 185 186 189
0.04886263754183168 0.546756614868938 -2.276237859270792 192 193 195
0.05051958402480888 0.5480211505745523 -2.2806616046731074 195 196 197
0.07778618075587163 0.5652513401868758 -2.258905374737275 198 199 200
0.0710088489655849 0.5612559820945662 -2.271904525028647 200 201 202
0.09024508079146842 0.5734743810901193 -2.258212885241424 201 201 201
0.0971027688486899 0.5779759318795133 -2.257181402811997 202 202 202
0.09603046848583735 0.5775360055016363 -2.264316290050072 203 203 203
0.10873897008593947 0.5856806582316652 -2.2571866105082408 204 204 204
0.11872183717757195 0.5921254828990767 -2.2528273112343093 205 205 205
0.13965024571267798 0.6053841452116965 -2.237017995288122 205 205 205
0.1014498268612033 0.5818265173571706 -2.282869631666979 205 205 205
1.0897162331841141 1.2152344793815621 -1.729640368471258 214 214 214
1.0810007041551943 1.2100999205287113 -1.7464469017805937 214 214 214
1.0778081700561462 1.20831897788613 -1.7552416424647554 214 214 214
-0.320612377288028 0.2560176074967816 -1.2087944549579464 189 190 193
-0.25726794111840245 0.2971877245785755 -1.1848099996691306 190 191 195
-0.2829518644081608 0.2807553827943251 -1.201560950788783 190 191 195
-0.4061992390827633 0.2016079598412579 -1.273994866942164 192 193 195
-0.40479792151282096 0.202903763312905 -1.2838419492769657 193 194 196
-0.0014371295538583018 0.4638607052936793 -1.0986750407844375 194 194 196
-0.00863158657380067 0.45937601064007716 -1.1065545169169608 195 195 197
-0.03809961283822552 0.4404966165369614 -1.1250721995056225 196 196 198
-0.04473499791655963 0.43654708444573226 -1.137370467222941 196 196 201
-0.06731319478806444 0.4221290979985177 -1.1528327584658251 196 197 201
-0.10106263558966877 0.4004977173558487 -1.1737984058643982 197 198 202
-0.405809634795512 0.21571997074920102 -1.647381455083361 212 213 217
-0.3855869610192169 0.2289044733465208 -1.6408286118302127 212 213 217
-0.3583595073465904 0.24657834197141565 -1.6299167358942945 211 213 218
-0.3446822280768678 0.25555918664389043 -1.6272022347874433 213 214 218
-0.33995146405520543 0.25880196323114674 -1.6299407315715648 213 214 218
-0.31586054482849507 0.27445568112593255 -1.6207126656784006 212 214 218
-0.30284416312460155 0.28300702475400946 -1.6182495649252429 211 215 216
-0.2672790564487707 0.3060084433578774 -1.6017164913793678 212 215 215
-0.2606848957207413 0.310438722066609 -1.603113488712229 213 215 215
-0.2558778259137923 0.3137231271912053 -1.6056083953684013 213 214 216
-0.25036706704687794 0.31745787290497307 -1.607647773630114 212 212 213
-0.2441174086950299 0.3216653418216703 -1.6092047593850458 208 208 207
-0.2385505793686375 0.32543471803131935 -1.6111740696288084 202 201 198
-0.23179588512797855 0.3299642160149511 -1.6123723395085843 193 188 184
-0.22778002162100708 0.33273908998152774 -1.6152936622653882 182 177 173
-0.22155463365040245 0.3369282768975998 -1.6167922480642032 178 173 169
-0.21479496796964714 0.3414587654761464 -1.6179282464622933 175 170 166
-0.20895601468660885 0.3453990799800965 -1.619634795616263 177 173 169
-0.20427375340794368 0.3485984141262134 -1.6220704184267722 178 174 172
-0.19993667444734003 0.3515763679320244 -1.6247167259841186 182 177 176
-0.1949647174952308 0.3549601225236374 -1.626938499914211 180 177 173
-0.19273036414441658 0.3565918980970198 -1.6309326557680666 179 177 173
-0.20221290554847582 0.3507284101619031 -1.6425981649051766 178 176 173
-0.19951609161709688 0.3526567823785687 -1.6463100727405016 179 177 175
-0.18850760488265866 0.3599005116554794 -1.6445371007941771 178 176 174
-0.1862367723706692 0.36155548509813196 -1.6485036602029266 182 181 180
-0.18598283194928206 0.36192085263537865 -1.6538067436195165 189 188 189
-0.1793103145562447 0.3663897000261557 -1.654840975611506 202 201 203
-0.1740893229375418 0.3699299205274863 -1.6568231312824864 212 213 216
-0.16936741429375118 0.37315058970019876 -1.6591242492777363 213 216 219
-0.16812284319048215 0.374148655038272 -1.6637516329512811 213 215 219
-0.16795646812897724 0.37445789763530546 -1.6691090927155365 213 214 219
-0.16835852550609054 0.37440425477225253 -1.6748586412146094 214 215 220
-0.17030603246211973 0.3733637786163355 -1.6816681815791135 214 215 220
-0.17778786567635074 0.36878921094712774 -1.6922683202262645 214 215 219
-0.17479592099922742 0.37090479264026355 -1.6957442833560208 214 215 219
-0.17496296850093984 0.37100308351556954 -1.7013830517908004 214 215 219
-0.15339601310423828 0.384977449121735 -1.6920614846007063 214 215 219
-0.2347716020965419 0.3401375866626192 -1.9398284106688517 214 215 217
-0.23792855540689523 0.33835229946189094 -1.9482078893421306 213 214 216
-0.2439478534495293 0.33474916318658215 -1.9588167797530613 213 214 216
-0.2528693614849564 0.32930361725565205 -1.9717065483307907 213 214 216
-0.2558531622170957 0.3276317508847767 -1.9800442363491624 212 213 215
-0.2692081724309056 0.31937365110697824 -1.9964713277428905 211 212 214
-0.2762727692540565 0.31511295405350936 -2.00806415130416 210 212 214
-0.2812762380085964 0.3121625753153685 -2.0180870451159785 208 212 214
-0.2884149087155786 0.30785786453023467 -2.0298192280008402 209 210 212
-0.2955343739037853 0.30356696221714263 -2.0415798792122546 207 207 209
-0.3170927909224811 0.29011349961130006 -2.064788467552022 198 198 197
-0.3292649386771776 0.28262073230380536 -2.080674487675703 180 177 175
-0.25553826543931424 0.3300874658164048 -2.040597268228763 130 122 112
-0.24619540158103864 0.3362404221265748 -2.039233485014583 122 114 102
-0.23451964859951996 0.34387140317077164 -2.0359563972975043 119 109 97
-0.2255671738170456 0.3497739011513042 -2.0348286017106494 118 107 94
-0.22238970239488226 0.35201398332368555 -2.0383399494947563 116 103 90
-0.21430547353366736 0.35736406320661834 -2.0378613756111403 117 102 88
-0.204637614745601 0.36371667238013466 -2.0360625713904543 120 104 89
-0.19821378050972616 0.3680121552194669 -2.036874664110922 119 103 87
-0.1938356178251333 0.3710106696808698 -2.039339889693035 115 99 82
-0.19021076932836628 0.37353148897081034 -2.0424114701970812 114 98 80
-0.18728185833096783 0.3756111625841471 -2.046047683333564 114 99 80
-0.17714458358557827 0.38225582889572884 -2.0437198022678356 119 104 85
-0.1736762084333719 0.38467603418986684 -2.046879856135566 122 107 88
-0.1706853881099803 0.3867935776317464 -2.050428815888345 124 108 90
-0.1655545237778256 0.39026564268545694 -2.052186940535325 126 110 94
-0.16099426174712966 0.3933759308794021 -2.054405866590382 127 111 95
-0.15737980903556864 0.39588714682597004 -2.0574046565623765 127 110 96
-0.14901405510693178 0.40140448346414387 -2.0563958475872495 126 110 94
-0.15119069803306062 0.4002507233471185 -2.0642527684525236 126 109 91
-0.14691232070731663 0.4031810124589217 -2.0666649236197694 125 107 89
-0.14216422436653842 0.4064079308795631 -2.068665811395287 124 106 87
-0.1360926752849631 0.4104712406310158 -2.069524808569471 123 105 84
-0.1305182265888446 0.41421943582157544 -2.0707868704594965 122 104 81
-0.12390836124197457 0.4186215194264454 -2.0711428729669032 119 102 77
-0.13529809587467367 0.41164494781405797 -2.086939471524675 118 101 75
-0.13006482357618898 0.41517688253941976 -2.0884785219246123 118 98 71
-0.12475831558080058 0.41875445091251473 -2.0899368749007303 117 97 70
-0.10434200902190549 0.43187817107834225 -2.078280442506484 115 95 68
-0.10308522729051167 0.4328946372156692 -2.08318525419326 116 95 68
-0.10306484661185367 0.43313024147859397 -2.089170723013498 118 97 68
-0.09887653974828242 0.43599841541676176 -2.0915206328839453 117 96 65
-0.09504612041832972 0.4386401449898686 -2.0941721150786416 115 95 62
-0.09445609993923515 0.43923563972005125 -2.0996631641091117 116 96 63
-0.09192653808185453 0.4410557176225534 -2.103449439127076 116 95 66
-0.08900874992564928 0.4431206880914153 -2.106888419170308 112 92 65
-0.08733595978054115 0.4443997599056085 -2.1114261552517783 109 90 62
-0.08296825863903912 0.4473792737871475 -2.1135664847009035 110 92 63
-0.08340035918060573 0.4473301960465901 -2.119976740631742 112 93 63
-0.08108752059921676 0.4490130043818782 -2.12394177292453 113 94 64
-0.07972165310469381 0.45009846710576124 -2.128753998370575 114 93 62
-0.07639260508601059 0.4524219745089196 -2.1318012204905528 110 89 57
-0.07525725593610111 0.45336206619111746 -2.136820727261952 108 88 55
-0.07302527704260692 0.45499359609856294 -2.140850755939252 111 90 58
-0.06977020227445285 0.4572698984347604 -2.1439495207858323 114 93 61
-0.06312981970676429 0.4616793565702305 -2.1439581397989276 115 94 62
-0.06214378626978245 0.46252501540694724 -2.149104623837119 115 94 63
-0.0633614009614068 0.46198250135020114 -2.156273228981327 115 95 62
-0.058460916369743876 0.46529445181054946 -2.157838773507704 115 95 61
-0.059639166527575116 0.4647772982239266 -2.16498643272649 112 92 56
-0.05042727456764878 0.47080360563385437 -2.1625530237270882 111 91 55
-0.04669892922612817 0.4733758951216823 -2.1651596531191473 112 92 57
-0.04459666489316794 0.47492414274287825 -2.169266408614189 112 92 57
-0.031303538730774294 0.4835161609227553 -2.162946875613104 111 91 56
-0.020504728401669003 0.49053617379159775 -2.158896557488748 110 90 55
-0.015470326637976484 0.49392726572383444 -2.1601985568028734 111 91 56
-0.024264784424560704 0.4886175199248709 -2.1744747864478167 111 91 56
-0.011313216866613629 0.4969888523814959 -2.168319808705256 112 92 57
-0.018406556018531695 0.49275101413763833 -2.1810431266771806 113 93 58
-0.008800460233612861 0.4990161488463626 -2.1779919702121804 114 94 59
-0.008119780600390647 0.499667979437525 -2.183378960052639 113 93 59
-0.011811491193077617 0.49757136564270327 -2.1929375226579677 110 90 57
-0.011789882677274821 0.4978098015600952 -2.1989773388164213 110 90 57
-0.008101628252073056 0.5003528514218637 -2.201513359402389 110 90 57
-0.004177388168747631 0.5030437962286212 -2.203812279886616 110 90 57
0.0004395858841845235 0.5061695127597884 -2.205432103107604 109 90 57
0.007715129312599434 0.5109646156602761 -2.2044678636828317 112 93 60
0.010271123371126845 0.5127945400637569 -2.2080464890077725 113 94 61
0.011511278753750853 0.5137980325809124 -2.2128991761735404 109 89 56
0.01345675492111964 0.5152444560175895 -2.217067421142531 108 88 54
0.015031883738437724 0.5164583572958225 -2.2215964102865695 113 93 60
0.019344891872078662 0.5193906960273107 -2.223444041988565 112 93 60
0.019237351267773484 0.5195484489391996 -2.229620523678558 112 93 61
0.02129284337684184 0.5210637455920959 -2.2336762103807732 112 93 61
0.02627540879525042 0.5244152421604804 -2.2348386849293957 113 95 62
0.03213820752763241 0.5283181974247011 -2.235111548046631 108 92 59
0.03227551998870648 0.5286296657503851 -2.2410491133201607 104 88 57
0.035146997487278675 0.5306558717866092 -2.2442720746896816 104 89 58
0.035040921273835623 0.5308151256873039 -2.250462805009766 109 94 63
0.037763861783527974 0.5327480671642426 -2.25383029595172 108 94 65
0.0405667441098671 0.5347309100926967 -2.2571121036400634 101 89 64
0.04733427656525063 0.5391978862337558 -2.256395473098133 97 85 65
0.050025352170469106 0.5411098391446187 -2.259767528975867 110 104 87
0.051402994677003266 0.5421988348235751 -2.264464247421957 151 148 142
0.05172477338793868 0.5426265976468181 -2.2702350016873174 176 175 178
0.05191800086680687 0.5429741505500539 -2.2761444724529243 187 188 190
0.05262449196745911 0.5436433818927111 -2.2815385301765496 192 193 195
0.08174595126817236 0.5621008454258382 -2.2578509095862795 196 197 199
0.08257510427774772 0.562844341422658 -2.263051406520117 198 199 201
0.08863900665690516 0.5668639375231237 -2.2628690440373354 200 200 200
0.10062550164271145 0.574588388580946 -2.2565500794583278 201 201 201
0.09547015107318096 0.5715868630367287 -2.2679125572107366 202 202 202
0.08431747580123333 0.5648354951067733 -2.2855365320887078 203 203 203
0.09144393207023355 0.5695183255919094 -2.2842143521600806 204 204 204
0.09778474272298027 0.5737087783788315 -2.2836814070011573 205 205 205
0.10615501956026391 0.5791670416182094 -2.2809994570320127 205 205 205
0.1362404015340251 0.5986418719542872 -2.2674820447544373 206 206 206
1.09453258693694 1.2148172722921344 -1.7251987768943944 214 214 214
1.0858502246499953 1.2096744466845706 -1.7419678783969779 214 214 214
1.0826700951941295 1.2078884564747718 -1.7507431783955114 214 214 214
-0.31280150267349294 0.2554254340944734 -1.2065260968155722 189 190 193
-0.28792814286392027 0.27175599674030476 -1.2001520654193807 190 191 195
-0.2966447546972088 0.26627954028768025 -1.2091646563841223 191 192 196
-0.29343948576733847 0.26854237510514256 -1.2127013393279427 191 192 196
-0.3059612033283844 0.2611502819488421 -1.2387159744743206 193 194 196
-0.30829483861851276 0.25982086255805165 -1.244890831629216 195 195 197
-0.02014336510577544 0.44706807716281677 -1.117731927178561 196 196 198
-0.04159864033873087 0.43348571888480086 -1.1370966134363034 197 196 201
-0.053913297086598255 0.4256683043394694 -1.147618074707783 197 198 202
-0.3989178830140124 0.21381728193369381 -1.6393484127745002 212 213 217
-0.3933101649640168 0.2176362335520542 -1.6416860500302057 212 213 217
-0.37504321793615736 0.22960344628269447 -1.6362919112204253 212 213 217
-0.35725294400788576 0.2412612670288497 -1.6311180487085915 211 214 218
-0.3410719799637099 0.2518808942664878 -1.6268626551995853 214 215 219
-0.3250371496058779 0.262404216836396 -1.622634783292689 213 214 217
-0.3049019712266166 0.27556341809792967 -1.6158101877838353 214 214 217
-0.29181006594067244 0.28418868208984277 -1.6132749219529585 214 213 215
-0.27391842621726326 0.2958995001059846 -1.6077022136164774 207 204 201
-0.26844868409679806 0.2996185631507102 -1.6098193515959855 185 180 176
-0.2636673092900357 0.30289436571890305 -1.612351834807213 148 141 133
-0.2508227519078596 0.31135426909426206 -1.609798395280665 123 115 104
-0.24630852950041227 0.3144567090322551 -1.6124553432355488 121 112 98
-0.24421539370046313 0.31600235016045214 -1.616633967563355 126 114 98
-0.24107471556269727 0.31822124997677653 -1.6201451674548264 126 112 95
-0.23139041792240944 0.32464534290455016 -1.6194758926579718 121 106 90
-0.22410739956687264 0.32952511466171724 -1.620308725774278 126 112 95
-0.22235623680041017 0.3308497051997479 -1.6246704753755545 127 113 92
-0.21700831072920435 0.3344849736279684 -1.6267138404103587 125 112 89
-0.21100430943047788 0.3385410922122134 -1.6283168763484936 124 110 90
-0.1991480409499416 0.3463552653981388 -1.6261027783603719 121 107 88
-0.19480281957498918 0.34934427976248184 -1.6287351349077572 124 111 92
-0.19323160165832354 0.3505516575733385 -1.6331685742558528 126 113 95
-0.19166033193215964 0.3517590948290191 -1.6376026998743638 129 117 101
-0.18968161222233343 0.35322811956124933 -1.6417694709703574 137 126 112
-0.18771628843700128 0.35468850587985573 -1.6459439844682437 146 136 124
-0.17662787972603472 0.36200390428378604 -1.64407417031934 154 144 134
-0.17428957067827716 0.36370281564493306 -1.647978203441363 157 149 139
-0.16776285324531726 0.3680889962823616 -1.6490861905460794 152 147 140
-0.16221222307668864 0.37184819311865586 -1.6508257174572816 157 153 149
-0.1545809129835991 0.37694142877958087 -1.6511509772025497 170 168 166
-0.15105953679014011 0.37939768595564954 -1.654218295308003 194 191 190
-0.15020546995723422 0.38014312044161463 -1.659080372928239 215 213 215
-0.1501415423954814 0.3803820510178398 -1.6644822156989432 214 213 216
-0.1510724323579361 0.37998344844829074 -1.670568483850519 213 215 219
-0.15686770455859944 0.3764669933616991 -1.6799878690568084 214 215 219
-0.16025926210438424 0.37449247164042976 -1.6877948493489119 214 215 219
-0.16286121794343716 0.37302483650762647 -1.6950824385931695 214 215 219
-0.14731561956165684 0.38318681662632126 -1.6898757642205728 214 215 219
-0.14699494416616604 0.383591682312114 -1.695139401344063 214 215 219
-0.12066094467906552 0.40066171728269806 -1.68235252866607 214 215 219
-0.23386256420278778 0.3342727521846036 -1.929603692847894 214 215 219
-0.22797599408269614 0.33824493267653777 -1.9310486890018441 214 215 218
-0.23196283913963212 0.3359172363743344 -1.9400442332269556 213 214 216
-0.2412996715865296 0.33017776267270466 -1.9531822744251817 213 214 216
-0.24667078926562663 0.3269696427239887 -1.9633143196352123 213 214 216
-0.25251023096827135 0.32346411606957054 -1.97384341467993 212 213 215
-0.2577355254468314 0.3203515395601166 -1.9839326846770406 212 213 215
-0.2692346406929304 0.31324028744572896 -1.9989415610483159 211 212 214
-0.27623739673295766 0.3089976647855033 -2.0105026089384253 210 211 213
-0.28250492036123703 0.3052252219843762 -2.0215303957736177 207 208 210
-0.28899105931330604 0.30131488820138985 -2.0327693727547245 199 199 199
-0.2966094066085306 0.2966845787321466 -2.0449414879513412 180 179 177
-0.31898639131216655 0.28265297596198424 -2.068831149789524 158 155 151
-0.32363550644836303 0.2799188100141816 -2.07877609655534 148 143 137
-0.22872421175097285 0.3410403288728777 -2.021653840811826 143 135 124
-0.21670476901330943 0.3489135613699855 -2.0180754830585204 139 130 119
-0.20478368973779626 0.3567223645317684 -2.014526486627242 138 128 116
-0.20763633824653316 0.3551259657146096 -2.0228639295485538 132 120 107
-0.19983090007616866 0.3603132686029763 -2.022587329552229 131 117 103
-0.19194924355929743 0.36554800133005605 -2.022219365657615 129 114 99
-0.18448935087012358 0.370513311512238 -2.022165412232064 128 111 97
-0.1795389013903474 0.3738812602874001 -2.0241357553610317 127 110 92
-0.1758100756525005 0.3764716355174379 -2.0270926216062426 121 104 86
-0.1715998336310004 0.3793678260924146 -2.029643937034793 116 99 80
-0.16906055221316396 0.3812010756409866 -2.0335622197330956 109 92 73
-0.16731817483679406 0.38252754040911485 -2.0381364547376353 109 93 71
-0.1654318120619574 0.3839455467823539 -2.0425914904342943 108 92 69
-0.1625471416798387 0.3859980593846265 -2.046214902463576 112 96 72
-0.15770130464024656 0.3892967087026524 -2.048195098502934 119 102 80
-0.1520680813035486 0.3930951231671587 -2.0495005776939905 122 104 84
-0.14968035432117816 0.39483090141088806 -2.0535135831289764 125 108 90
-0.14389882213740307 0.39872242858405615 -2.0546638883178323 126 108 91
-0.1421871270322142 0.40002830839444325 -2.0592338662887966 124 107 88
-0.13718024649915167 0.40342681176469253 -2.061011071635098 123 106 85
-0.12964447485983532 0.40843046945336575 -2.0606221217103102 123 105 84
-0.13116901768807615 0.4076809817785211 -2.0679299932617994 122 104 82
-0.1261284282113878 0.4110994859385235 -2.069639944432459 120 102 79
-0.12145678470967664 0.4142832299430018 -2.0716499560729407 119 102 77
-0.12148699576314148 0.4144826881787532 -2.0776903234126705 119 101 75
-0.11393793063209906 0.4194915263557929 -2.0772003819550635 119 99 72
-0.1147281128914468 0.41920882616822064 -2.0838976403322262 118 98 71
-0.09527183975668796 0.43176922128586015 -2.073036100762872 117 97 70
-0.09490345230603364 0.43222039133301865 -2.0786995770263665 114 93 65
-0.09480234762701423 0.43250233068292043 -2.084603573119749 107 86 57
-0.09242255584268827 0.4342293516686102 -2.0885210247133177 106 85 55
-0.09239710142682145 0.43446374449813246 -2.094502768990658 117 96 66
-0.09125834902668323 0.4354041279442105 -2.0995130448620314 114 95 63
-0.08905098590721638 0.4370218703547311 -2.103582772168161 103 85 57
-0.0868447653119005 0.438638808975098 -2.1076513158868218 92 76 52
-0.08181999650120314 0.44204141512591283 -2.1092137175754586 89 74 49
-0.08151036737003375 0.442456484342833 -2.114960387747517 94 78 52
-0.07831119208372234 0.4447020165237492 -2.11813270593628 107 88 61
-0.07876002845868008 0.44463703825535467 -2.1245667571122064 112 92 63
-0.07498814881238675 0.44724501208475315 -2.1272191098933275 112 91 60
-0.07254090701057164 0.4490139819538451 -2.131055033748669 112 91 60
-0.06777678522109831 0.45224942316014016 -2.132793232465844 112 92 59
-0.06885817946677608 0.45178460814585325 -2.1398148996219746 112 92 59
-0.06669581997543628 0.4533730341966218 -2.143902505858929 113 93 60
-0.06304550790857638 0.4559028465229232 -2.1466314979089307 114 94 61
-0.061918899940928696 0.45683574094472257 -2.151658210975963 115 95 62
-0.06109311635840858 0.4575784779085573 -2.1569641600733016 115 95 62
-0.0600728018612407 0.45844442420587006 -2.16209620208498 116 96 61
-0.055275351559068264 0.46169895083782847 -2.1637489340578124 115 95 60
-0.05011943690126819 0.4651795372790734 -2.1650542614235446 115 95 60
-0.04319896841135301 0.46977493760647465 -2.1647052179044515 114 94 59
-0.040806565716128396 0.4715073715453419 -2.168540576112658 113 93 58
-0.021869446704477213 0.4836952399392296 -2.1569406606595516 111 91 56
-0.012582467388768226 0.4897822575192163 -2.154276527695008 112 92 57
-0.00470014187795631 0.4949804130759061 -2.152890093539905 114 94 59
-0.004476104959727778 0.49533988668337053 -2.1586751980495302 114 94 59
-0.005298871799204852 0.49503852228906015 -2.1654558836589173 115 95 60
-0.0027293192041321634 0.4968798195523358 -2.169041061592318 115 95 60
-0.001046366467375548 0.49816117765620466 -2.173462950752899 114 94 59
0.007336068059510259 0.5036718032807943 -2.171511628916269 113 93 58
0.004280021368418929 0.5019613552587743 -2.1804373948065696 108 88 55
-0.0012731750596723934 0.498675924302497 -2.191777889788454 107 87 54
0.004716866976372747 0.5026755714014453 -2.192083128048181 112 92 59
0.0015956718701745087 0.5009261913016778 -2.201131252563872 110 90 57
0.005626797264931427 0.5036893998071177 -2.2033052816322245 108 88 55
0.010083874804861281 0.5067208075224636 -2.2050549274793583 108 88 55
0.014094888171624909 0.5094703969358678 -2.2072227057672213 108 88 55
0.01679759395359076 0.5113946547730099 -2.2106510445153473 109 89 55
0.019457287846930293 0.5132916093947048 -2.2141161588774345 109 89 55
0.019958566303763636 0.5138279301891691 -2.219687848807228 109 89 54
0.02187379198855316 0.5152555703850084 -2.223879208561641 110 91 58
0.0251280061625212 0.5175268792164813 -2.226752451593604 113 94 62
0.027473285207043174 0.5192252551205438 -2.2305140816360485 115 96 64
0.03638031021542021 0.5250567947305874 -2.227781719752436 111 93 61
0.04233328188271995 0.5290264282378472 -2.227940338963054 107 91 58
0.03784655493482236 0.5264212702423196 -2.2384596698322192 106 89 58
0.040160273238232236 0.528098963251447 -2.242230440028506 108 93 63
0.04212862413736579 0.5295591300923762 -2.246343466643729 109 94 64
0.04502151664845472 0.5316011644847203 -2.249528020500045 104 89 58
0.04636620856119039 0.5326686734421613 -2.2542631438904035 95 82 54
0.05252138978880405 0.5367630554341777 -2.254149543481577 97 83 57
0.055987612936907405 0.539164908332433 -2.256730499020746 99 89 65
0.059328384765159836 0.5414875030331221 -2.259429064872911 122 116 100
0.05931679054391431 0.5417014529478177 -2.2655270755959473 156 154 147
0.05999055647487389 0.5423467122184185 -2.270936056654065 177 177 175
0.06016788982683641 0.5426800768985748 -2.2768584132637923 186 187 189
0.0853734983493179 0.5587465798709124 -2.2571342903384393 192 193 195
0.08965663612921654 0.5616585376668117 -2.2587840838337696 197 197 199
0.09039584991883781 0.5623429758377789 -2.2640720111483454 198 198 198
0.10347277661448367 0.5707793631956404 -2.25661523317452 201 201 201
0.1023764122992516 0.570309839886894 -2.263781592363008 202 202 202
0.10258596105811851 0.5706611238642434 -2.269606792060757 203 203 203
0.10601868471972709 0.573036839195102 -2.2720823459807082 203 203 203
0.10517466688791832 0.5727268843137903 -2.279015977698972 204 204 204
0.09769448582517992 0.5682513620775118 -2.292915335395074 204 204 204
0.12479370019338887 0.5854826388036456 -2.2705472960973503 205 205 205
0.1436172980913633 0.5975150775952767 -2.2567510297706597 206 206 206
0.14542744750759862 0.5988684319455324 -2.260823566068612 206 206 206
1.0993240749367796 1.2144022957447347 -1.7207800573095677 214 214 214
1.0908520557041568 1.209359872298553 -1.7372523081116773 214 214 214
1.087602436316594 1.207518701498186 -1.7461277385683562 214 214 214
-0.3053391044558981 0.25462760734510004 -1.204412213728672 189 190 193
-0.3065630024081375 0.25400944673709225 -1.2100047067959205 190 191 195
-0.32099468524840924 0.24478919177226832 -1.2217013819901839 191 192 196
-0.31352620370865164 0.2498336951558386 -1.2233160722374572 191 192 196
-0.6101375978385074 0.05686654818596237 -1.3663773219517539 192 193 195
-0.30705865117700204 0.2547667829536297 -1.2405757229245165 193 194 196
-0.3028671172030956 0.25767592076877216 -1.2436733497444346 195 195 197
-0.2826550439181809 0.27101131971583403 -1.2391491000199593 195 195 197
-0.027028735043562402 0.4378652714923431 -1.1313213985409605 197 196 200
-0.03671144335984902 0.43172842670478173 -1.140555051520765 197 198 202
-0.3858271063230516 0.2157439193343662 -1.621881938835585 212 213 217
-0.3745411961534061 0.22324062809788325 -1.620775957252041 212 213 217
-0.4160438650071606 0.1966252471370642 -1.651611274299729 212 213 217
-0.3782371464878683 0.22125813857192772 -1.6344126128302883 212 213 217
-0.36111196038987725 0.2325247902332187 -1.6296776326583555 213 213 217
-0.3441846623717575 0.2436612518202912 -1.62499737817283 213 213 218
-0.3274516650899993 0.25466988130814494 -1.620370797484009 212 213 216
-0.310257685533126 0.26597389266338234 -1.6153948953339925 214 212 214
-0.2940104608845341 0.2766641837099581 -1.6109377721970828 197 192 188
-0.2809994614654314 0.285262814903467 -1.608427464372497 160 150 137
-0.2703800955096674 0.29231576777083174 -1.607358672950877 132 121 103
-0.26068197178165026 0.2987727009587449 -1.6068273332020415 113 101 80
-0.25133526435792475 0.305001592031614 -1.6064817690549025 106 90 69
-0.23854469625172997 0.3134516880688222 -1.603933712508014 114 97 74
-0.23230859145055183 0.3176708445147103 -1.6054799534938313 128 109 83
-0.2303574778006302 0.3191247800121063 -1.6097242745363716 135 114 87
-0.22401384681840641 0.3234122280338216 -1.6111719677930694 132 111 86
-0.23764477508758447 0.3148152496664663 -1.6253568720466793 127 106 82
-0.22528242437855595 0.322984458144245 -1.6229507108797403 130 109 84
-0.21786826513612 0.327961161869703 -1.6236798079382686 133 112 85
-0.21144076266228923 0.33230080476590873 -1.6250204852219792 133 112 85
-0.21745895597647263 0.32861609411461734 -1.6343997060128008 135 114 86
-0.18925470957139096 0.3469927577345329 -1.6215761493543557 137 116 87
-0.18686136927924374 0.3487292893021586 -1.6254637929770486 134 112 82
-0.18211236208534382 0.3519838288134426 -1.627807277712271 132 111 82
-0.18143296141452153 0.35261554680508245 -1.6328088971589028 130 110 83
-0.17926934412486023 0.35420370122385414 -1.6368375172298317 127 108 84
-0.17693958199839527 0.3558988186396906 -1.6407543661986255 127 108 87
-0.17477714484612739 0.3574860602775829 -1.6447794818843695 122 105 84
-0.16387451650629048 0.3647023749874331 -1.6429863903450737 126 109 90
-0.16185202835053908 0.36619865316266453 -1.6470813508715385 137 126 111
-0.15172373239711534 0.3729141489368882 -1.6457443274007986 141 131 120
-0.14515386793281915 0.3773373327782908 -1.6467613959728784 139 131 122
-0.13845170067736856 0.3818449022606751 -1.6476672668483774 139 131 124
-0.13251974316194925 0.3858559209180896 -1.6490717698773034 156 151 144
-0.13248790748905892 0.3860691163301351 -1.6544633994963576 191 190 186
-0.1322697885493061 0.3864024533359477 -1.6597357104450976 213 215 214
-0.13969661409409678 0.38181721161410453 -1.6702405875442417 214 216 219
-0.1437794918242432 0.379384702930479 -1.6784936489233688 214 215 219
-0.13940729316890954 0.3823918282998886 -1.6809550268544844 214 215 218
-0.1388291051361381 0.38295834867703427 -1.6860236803758668 214 215 219
-0.13874530142710406 0.38320712394156364 -1.6914399901195072 214 215 219
-0.14210942491150624 0.3812391426605313 -1.699260027471422 214 215 219
-0.13037894433830327 0.38897661304127595 -1.6965782524859356 214 215 219
-0.23253648432944335 0.32826084490720525 -1.9072336983643963 215 216 220
-0.21481695542573287 0.3398268095511625 -1.8997583456238933 215 216 220
-0.22025005877863724 0.3365549164819831 -1.9097591602427826 215 216 219
-0.22251016590650602 0.3353170961816403 -1.9173815087706396 214 215 218
-0.22348758288110765 0.3349016403539026 -1.9240447855489025 214 215 218
-0.22647789220566472 0.33319740319620916 -1.9322618144620793 214 215 218
-0.23913888390195276 0.3253007418200936 -1.9479256649301184 213 214 217
-0.23241300888677024 0.3298205270132328 -1.9487299893763825 213 214 216
-0.24710893517937477 0.3206243070779711 -1.966058305699037 213 213 215
-0.24825804013767006 0.3201030211236658 -1.9729691508084588 211 212 214
-0.2571241683918949 0.31464279772732623 -1.9858926753909798 211 212 214
-0.265489811253378 0.3095047181111128 -1.9984776654612828 208 209 211
-0.2758904423033428 0.30306620762551584 -2.0127036229406943 200 200 201
-0.28347676878599204 0.2984304407591223 -2.024781020978116 184 184 183
