ply
format ascii 1.0
element vertex 879
property float x
property float y
property float z
property float nx
property float ny
property float nz
property uchar diffuse_red
property uchar diffuse_green
property uchar diffuse_blue
property uchar class
property uchar detection
end_header
0.1139 0.4949 -2.2051 0.551 0.734 0.397 86 72 54 0 0
0.1159 0.4957 -2.2094 0.551 0.734 0.397 73 61 46 0 0
0.1390 0.5056 -2.2499 0.598 0.736 0.319 85 76 57 0 0
0.1407 0.5063 -2.2545 0.664 0.664 0.343 81 72 53 0 0
-0.2083 0.3518 -1.6202 -0.308 0.692 0.653 217 216 217 0 0
-0.1280 0.3822 -1.6347 0.034 0.788 0.615 140 129 115 0 0
-0.1133 0.3881 -1.6479 0.009 0.927 0.376 161 153 145 0 0
-0.1054 0.3912 -1.6541 -0.108 0.961 0.256 151 145 140 0 0
-0.0347 0.4298 -2.0568 0.621 0.760 0.194 120 102 82 0 0
-0.0317 0.4311 -2.0605 0.564 0.825 -0.004 118 100 80 0 0
0.0729 0.4731 -2.1632 0.676 0.389 0.627 113 92 60 0 0
0.0817 0.4766 -2.1678 0.528 0.541 0.655 101 79 54 0 0
0.1539 0.5056 -2.2383 0.828 0.523 -0.202 85 76 56 0 0
0.1676 0.5115 -2.2625 0.222 0.495 0.840 82 70 54 0 0
-0.1829 0.3559 -1.6126 -0.201 0.669 0.716 135 124 104 0 0
-0.1678 0.3616 -1.6150 -0.058 0.564 0.823 128 113 87 0 0
-0.1615 0.3640 -1.6169 -0.028 0.592 0.805 130 113 87 0 0
0.0226 0.4478 -2.1155 0.499 0.863 0.086 117 96 66 0 0
0.0224 0.4479 -2.1217 0.368 0.929 0.045 115 96 64 0 0
0.1597 0.5026 -2.2349 0.664 0.712 -0.228 84 72 54 0 0
0.1568 0.5018 -2.2436 0.515 0.837 -0.183 89 78 58 0 0
0.1664 0.5058 -2.2593 0.189 0.673 0.715 75 66 49 0 0
0.1726 0.5081 -2.2598 0.244 0.737 0.630 81 72 55 0 0
0.1775 0.5100 -2.2614 0.257 0.832 0.491 81 72 56 0 0
0.2151 0.5247 -2.2814 0.039 0.793 0.608 200 201 203 0 0
-0.1957 0.3458 -1.6098 -0.159 0.412 0.897 136 116 93 0 0
-0.1160 0.3760 -1.6192 -0.084 0.803 0.590 123 102 72 0 0
-0.1071 0.3794 -1.6195 -0.005 0.914 0.406 128 106 77 0 0
-0.1099 0.3785 -1.6264 -0.111 0.871 0.479 122 98 71 0 0
0.0289 0.4448 -2.1121 0.368 0.929 0.045 116 96 64 0 0
0.0290 0.4450 -2.1180 0.323 0.943 0.084 106 87 55 0 0
0.0749 0.4631 -2.1467 0.736 0.630 0.248 115 96 64 0 0
0.0776 0.4642 -2.1505 0.420 0.584 0.694 111 92 60 0 0
0.0830 0.4664 -2.1580 0.389 0.447 0.806 103 83 54 0 0
0.2229 0.5224 -2.2759 0.154 0.750 0.644 199 200 202 0 0
-0.1699 0.3503 -1.6075 -0.102 0.548 0.830 145 120 88 0 0
-0.0646 0.3909 -1.6387 0.174 0.877 0.447 115 97 70 0 0
0.0607 0.4521 -2.1300 0.548 0.405 0.732 114 95 65 0 0
0.1709 0.4962 -2.2224 0.625 0.511 0.590 90 74 55 0 0
0.1722 0.4969 -2.2272 0.836 0.509 0.204 87 70 51 0 0
-0.2165 0.3274 -1.6071 -0.162 0.359 0.919 132 112 87 0 0
-0.0503 0.3913 -1.6420 0.123 0.701 0.703 113 96 71 0 0
-0.0243 0.4013 -1.6478 -0.059 0.492 0.869 125 110 95 0 0
0.0820 0.4548 -2.1261 0.479 0.870 -0.115 112 93 61 0 0
0.1653 0.4889 -2.2170 0.701 0.543 0.463 100 85 67 0 0
0.1674 0.4898 -2.2212 0.701 0.543 0.463 95 80 62 0 0
0.1730 0.4919 -2.2222 0.600 0.390 0.699 92 77 57 0 0
0.1741 0.4925 -2.2273 0.896 0.417 0.152 87 72 52 0 0
0.1731 0.4923 -2.2342 0.910 0.403 -0.094 87 72 51 0 0
-0.1606 0.3434 -1.6044 0.084 0.330 0.940 127 106 74 0 0
-0.1528 0.3464 -1.6055 0.142 0.329 0.934 123 102 73 0 0
0.0141 0.4218 -2.0509 0.229 0.379 0.896 115 95 67 0 0
0.0178 0.4233 -2.0540 0.539 0.449 0.712 116 96 70 0 0
0.0211 0.4247 -2.0573 0.539 0.449 0.712 119 99 74 0 0
0.1695 0.4853 -2.2150 0.471 0.693 0.546 91 75 57 0 0
0.1732 0.4868 -2.2177 0.550 0.573 0.608 92 77 58 0 0
0.1738 0.4872 -2.2233 0.744 0.446 0.498 84 69 50 0 0
0.1697 0.4862 -2.2451 0.875 0.425 -0.231 84 70 52 0 0
0.1818 0.4908 -2.2464 0.508 0.856 0.097 75 64 48 0 0
-0.3035 0.2841 -1.6176 -0.342 0.402 0.849 215 215 216 0 0
-0.2826 0.2920 -1.6176 0.534 -0.683 0.498 165 158 151 0 0
-0.1576 0.3395 -1.6093 -0.040 0.269 0.962 122 101 71 0 0
0.0160 0.4173 -2.0509 0.130 0.922 0.366 112 93 61 0 0
0.0202 0.4190 -2.0537 0.269 0.905 0.331 111 92 62 0 0
0.0231 0.4202 -2.0573 0.425 0.818 0.389 111 91 64 0 0
0.0252 0.4211 -2.0616 0.425 0.818 0.389 118 98 71 0 0
0.0287 0.4225 -2.0649 0.673 0.138 0.727 118 98 71 0 0
0.0310 0.4235 -2.0690 0.842 0.412 0.348 123 103 76 0 0
0.0328 0.4243 -2.0735 0.767 0.440 0.466 120 100 73 0 0
0.0943 0.4490 -2.1193 0.749 0.560 -0.354 112 93 61 0 0
0.2144 0.4982 -2.2487 0.670 0.706 0.229 65 58 40 0 0
0.2311 0.5056 -2.2877 0.253 0.571 0.781 198 198 200 0 0
-0.3096 0.2763 -1.6164 -0.338 0.347 0.875 215 215 217 0 0
-0.1613 0.3328 -1.6070 -0.039 0.308 0.951 125 104 75 0 0
0.0233 0.4148 -2.0468 0.239 0.839 0.488 110 91 58 0 0
0.0264 0.4161 -2.0504 0.280 0.901 0.331 115 96 64 0 0
0.0285 0.4170 -2.0547 0.280 0.901 0.331 113 94 63 0 0
0.0294 0.4175 -2.0599 0.322 0.943 -0.085 114 95 65 0 0
0.0278 0.4171 -2.0671 0.723 -0.358 0.592 118 98 68 0 0
0.0342 0.4197 -2.0740 0.886 -0.187 0.425 118 98 69 0 0
0.0694 0.4332 -2.0757 0.362 0.850 0.382 114 95 67 0 0
0.1013 0.4469 -2.1330 0.902 0.391 0.185 98 80 56 0 0
0.1111 0.4507 -2.1368 0.783 0.270 0.561 91 73 51 0 0
0.1687 0.4743 -2.1951 0.606 0.740 0.292 88 71 53 0 0
0.2354 0.5024 -2.2977 0.139 0.833 0.536 201 201 203 0 0
-0.1603 0.3281 -1.6075 0.072 0.054 0.996 136 114 80 0 0
-0.1518 0.3313 -1.6082 0.105 0.142 0.984 129 106 74 0 0
0.0293 0.4118 -2.0437 0.224 0.858 0.462 119 100 69 0 0
0.0980 0.4397 -2.1016 0.542 0.767 0.344 111 94 64 0 0
0.0937 0.4388 -2.1350 0.455 0.566 0.687 97 80 53 0 0
0.2340 0.4964 -2.2826 0.383 0.722 0.576 189 190 194 0 0
0.2362 0.4974 -2.2866 0.437 0.671 0.598 193 194 197 0 0
-0.1845 0.3133 -1.6003 0.031 0.282 0.959 144 121 90 0 0
-0.0413 0.3688 -1.6102 0.167 0.128 0.978 94 78 55 0 0
0.0422 0.4022 -1.6552 0.188 0.981 0.055 131 116 102 0 0
0.0448 0.4119 -2.0157 0.183 0.866 0.466 125 104 77 0 0
0.1018 0.4359 -2.1001 0.569 0.746 0.346 99 80 55 0 0
0.2382 0.4930 -2.2804 0.414 0.686 0.598 182 183 187 0 0
0.2513 0.4983 -2.2924 0.196 0.733 0.651 201 201 203 0 0
0.3179 0.5233 -2.2645 0.868 0.003 0.497 206 206 208 0 0
-0.1995 0.3023 -1.5987 0.212 0.126 0.969 137 115 89 0 0
-0.1908 0.3057 -1.5994 0.080 0.200 0.977 133 109 78 0 0
-0.1438 0.3239 -1.6004 0.275 0.433 0.858 138 117 83 0 0
-0.0510 0.3600 -1.6063 -0.015 0.521 0.853 100 81 56 0 0
-0.0444 0.3626 -1.6079 0.104 0.576 0.810 107 91 66 0 0
-0.0339 0.3666 -1.6070 0.631 0.041 0.775 112 94 68 0 0
-0.0011 0.3872 -1.9407 0.266 0.853 0.449 119 102 79 0 0
0.1761 0.4610 -2.1578 0.867 0.212 0.452 84 66 46 0 0
0.2419 0.4893 -2.2788 0.414 0.686 0.598 176 177 179 0 0
0.2438 0.4901 -2.2831 0.513 0.646 0.565 187 187 190 0 0
0.2464 0.4912 -2.2867 0.513 0.646 0.565 194 194 196 0 0
0.2512 0.4932 -2.2943 0.494 0.839 0.227 200 200 202 0 0
0.3039 0.5126 -2.2499 0.715 0.137 0.686 201 201 203 0 0
-0.1973 0.2979 -1.5986 0.212 0.126 0.969 122 101 74 0 0
-0.1885 0.3013 -1.5992 0.107 0.056 0.993 134 111 81 0 0
-0.1783 0.3053 -1.5990 0.073 0.145 0.987 135 112 82 0 0
-0.1419 0.3196 -1.6059 0.109 0.449 0.887 124 102 72 0 0
-0.0409 0.3589 -1.6069 0.397 -0.094 0.913 126 110 79 0 0
-0.0369 0.3605 -1.6098 0.592 -0.208 0.779 128 109 75 0 0
0.0752 0.4142 -2.0538 0.224 0.699 0.679 114 95 62 0 0
0.0786 0.4157 -2.0569 0.175 0.689 0.704 111 91 59 0 0
0.1144 0.4304 -2.0929 0.462 0.769 0.441 92 72 47 0 0
0.1126 0.4298 -2.1004 0.290 0.762 0.579 95 75 50 0 0
0.2453 0.4855 -2.2773 0.485 0.808 0.335 163 163 164 0 0
0.2481 0.4867 -2.2808 0.553 0.752 0.359 181 180 184 0 0
0.2508 0.4878 -2.2843 0.540 0.780 0.318 189 189 193 0 0
0.2523 0.4885 -2.2890 0.520 0.701 0.489 195 195 197 0 0
0.2590 0.4911 -2.2888 0.680 0.694 0.236 198 198 200 0 0
-0.1949 0.2936 -1.5983 0.193 0.117 0.974 120 100 72 0 0
-0.1871 0.2966 -1.5995 0.121 0.029 0.992 135 114 82 0 0
-0.1757 0.3011 -1.5986 0.132 0.005 0.991 132 110 79 0 0
-0.0425 0.3533 -1.6089 0.444 -0.175 0.879 131 110 79 0 0
-0.0390 0.3547 -1.6122 0.716 -0.227 0.660 129 109 77 0 0
0.0566 0.3924 -1.6286 0.293 0.911 0.290 122 102 74 0 0
0.0548 0.3996 -1.9834 0.435 0.628 0.645 123 103 77 0 0
0.0581 0.4009 -1.9867 0.616 0.566 0.549 123 103 76 0 0
0.0597 0.4016 -1.9913 0.661 0.750 -0.021 125 104 77 0 0
0.0845 0.4119 -2.0186 0.448 0.207 0.870 123 102 73 0 0
0.0786 0.4099 -2.0291 0.885 -0.059 0.461 114 93 62 0 0
0.0809 0.4108 -2.0332 0.885 -0.059 0.461 117 96 65 0 0
0.1157 0.4258 -2.0935 0.249 0.870 0.425 103 83 58 0 0
0.1175 0.4266 -2.0979 0.389 0.731 0.561 87 67 42 0 0
0.1522 0.4409 -2.1341 0.673 0.625 0.394 83 65 46 0 0
0.1543 0.4418 -2.1383 0.685 0.687 0.244 84 65 46 0 0
0.1584 0.4436 -2.1467 0.715 0.636 0.289 86 68 49 0 0
0.1819 0.4534 -2.1741 0.865 0.498 0.067 94 74 47 0 0
0.1892 0.4562 -2.1736 0.720 0.582 0.378 95 75 48 0 0
0.1875 0.4558 -2.1811 0.662 0.283 0.694 94 74 47 0 0
0.1901 0.4568 -2.1848 0.779 0.153 0.608 94 74 47 0 0
0.2212 0.4695 -2.2109 0.571 0.718 0.398 103 83 55 0 0
-0.1928 0.2891 -1.5982 0.193 0.117 0.974 128 107 78 0 0
0.0634 0.3900 -1.6202 0.260 0.613 0.746 100 79 54 0 0
0.0661 0.3911 -1.6238 0.523 0.677 0.518 110 88 65 0 0
0.0678 0.3919 -1.6280 0.615 0.621 0.486 117 96 69 0 0
0.0582 0.3957 -1.9823 0.313 0.764 0.564 119 100 72 0 0
0.0605 0.3967 -1.9863 0.297 0.876 0.380 121 102 73 0 0
0.0786 0.4045 -2.0190 0.279 0.784 0.554 120 99 70 0 0
0.0805 0.4053 -2.0233 0.729 0.510 0.458 107 86 57 0 0
0.0814 0.4058 -2.0285 0.911 0.275 0.306 112 91 61 0 0
0.1871 0.4501 -2.1653 0.851 0.450 0.271 94 73 46 0 0
0.1942 0.4532 -2.1770 0.803 0.488 0.342 97 76 49 0 0
0.1959 0.4539 -2.1814 0.879 0.389 0.274 94 73 46 0 0
0.2266 0.4665 -2.2078 0.651 0.594 0.473 102 80 53 0 0
0.2304 0.4682 -2.2163 0.568 0.607 0.556 106 84 56 0 0
0.2485 0.4757 -2.2356 0.483 0.776 0.407 91 82 61 0 0
0.2574 0.4794 -2.2454 0.510 0.480 0.714 81 74 56 0 0
-0.3425 0.2253 -1.6132 -0.268 0.210 0.940 212 212 210 0 0
-0.2140 0.2755 -1.5944 0.010 0.099 0.995 133 113 89 0 0
-0.2044 0.2792 -1.5947 0.038 0.133 0.990 105 88 61 0 0
-0.1847 0.2870 -1.5948 -0.002 0.229 0.974 127 107 77 0 0
0.0749 0.3974 -1.9942 0.608 0.786 -0.116 119 98 69 0 0
0.0824 0.4010 -2.0292 0.932 0.157 0.327 118 97 66 0 0
0.1269 0.4195 -2.0757 0.291 0.506 0.812 98 78 52 0 0
0.2604 0.4755 -2.2444 0.827 0.136 0.546 92 85 67 0 0
-0.3520 0.2160 -1.6136 -0.230 0.155 0.961 213 213 216 0 0
-0.2115 0.2711 -1.5942 0.048 -0.018 0.999 124 104 81 0 0
-0.2008 0.2753 -1.5938 0.022 0.220 0.975 112 94 71 0 0
0.0324 0.3678 -1.6099 0.142 -0.034 0.989 97 82 64 0 0
0.0813 0.3873 -1.6219 0.146 0.726 0.672 126 103 69 0 0
0.0861 0.3893 -1.6293 0.204 0.949 0.242 115 94 62 0 0
0.0335 0.3736 -1.8827 0.229 0.922 0.311 110 94 68 0 0
0.0867 0.3977 -2.0332 0.961 -0.034 0.276 109 90 60 0 0
0.1459 0.4223 -2.0970 0.416 0.759 0.501 80 62 36 0 0
0.2842 0.4793 -2.2180 0.693 0.667 -0.275 100 92 75 0 0
0.3441 0.5038 -2.2561 -0.092 0.481 0.872 206 206 208 0 0
-0.2708 0.2423 -1.5940 -0.151 0.207 0.967 127 106 82 0 0
0.0021 0.3507 -1.6029 0.189 0.143 0.972 100 83 60 0 0
0.0899 0.3859 -1.6229 0.546 0.768 0.334 132 109 76 0 0
0.0907 0.3863 -1.6276 0.760 0.611 0.224 123 100 68 0 0
-0.0150 0.3471 -1.7710 0.130 0.991 0.016 102 85 56 0 0
0.0459 0.3735 -1.8865 0.309 0.802 0.512 107 90 62 0 0
0.0948 0.3956 -2.0283 0.617 0.064 0.784 109 90 60 0 0
0.1446 0.4164 -2.0820 0.345 0.756 0.556 85 65 38 0 0
0.1501 0.4188 -2.0951 0.475 0.596 0.647 80 62 36 0 0
0.2429 0.4579 -2.2162 0.660 0.658 0.362 125 100 69 0 0
0.2453 0.4590 -2.2199 0.564 0.421 0.710 123 98 66 0 0
0.2663 0.4676 -2.2365 0.219 0.897 0.384 98 89 74 0 0
0.2822 0.4748 -2.2818 0.268 0.836 0.479 190 191 193 0 0
0.3445 0.4989 -2.2516 0.164 0.225 0.960 204 204 206 0 0
0.1489 0.4130 -2.0800 0.345 0.756 0.556 87 67 39 0 0
0.1533 0.4150 -2.0941 0.430 0.581 0.691 100 82 57 0 0
0.1565 0.4163 -2.0973 0.535 0.593 0.602 78 56 31 0 0
0.2511 0.4562 -2.2163 0.915 0.289 0.280 129 103 68 0 0
0.2586 0.4595 -2.2335 0.132 0.729 0.671 115 97 69 0 0
0.2804 0.4689 -2.2733 0.511 0.839 0.189 155 152 149 0 0
0.0864 0.3746 -1.6169 0.277 0.211 0.938 115 98 72 0 0
0.0974 0.3791 -1.6205 0.470 0.163 0.867 119 97 68 0 0
0.1210 0.3889 -1.6420 0.512 0.537 0.671 121 100 68 0 0
0.1573 0.4112 -2.0806 0.571 0.636 0.520 92 70 45 0 0
0.1584 0.4119 -2.0914 0.177 0.707 0.685 96 76 52 0 0
0.1594 0.4123 -2.0965 0.504 0.743 0.440 91 69 47 0 0
0.1643 0.4143 -2.0983 0.381 0.858 0.346 82 57 30 0 0
0.2528 0.4519 -2.2226 0.584 0.478 0.656 138 111 73 0 0
0.2935 0.4689 -2.2625 0.556 0.797 0.236 141 137 131 0 0
0.2947 0.4695 -2.2674 0.556 0.797 0.236 166 166 164 0 0
0.2929 0.4689 -2.2752 0.409 0.891 0.199 181 182 183 0 0
0.1240 0.3852 -1.6413 0.587 0.667 0.459 116 95 64 0 0
0.1272 0.3865 -1.6445 0.805 0.477 0.353 116 95 64 0 0
0.0912 0.3770 -1.9316 0.501 0.765 0.404 113 92 63 0 0
0.0948 0.3785 -1.9346 0.425 0.735 0.529 113 92 63 0 0
0.1549 0.4050 -2.0724 0.454 -0.007 0.891 83 66 38 0 0
0.1562 0.4056 -2.0772 0.907 0.185 0.377 83 65 38 0 0
0.1677 0.4105 -2.0971 0.632 0.653 0.417 85 62 36 0 0
0.1726 0.4128 -2.1106 0.498 0.867 -0.001 117 92 56 0 0
0.1767 0.4144 -2.1130 0.313 0.798 0.515 121 97 64 0 0
0.2446 0.4431 -2.1959 0.581 0.502 0.641 130 103 63 0 0
0.2448 0.4433 -2.2017 0.754 0.472 0.456 125 100 59 0 0
0.2618 0.4505 -2.2281 0.683 0.210 0.700 134 107 69 0 0
0.2950 0.4641 -2.2449 0.722 0.366 0.587 89 80 50 0 0
0.2944 0.4640 -2.2515 0.564 0.474 0.676 91 81 56 0 0
0.2988 0.4660 -2.2653 0.556 0.797 0.236 153 152 148 0 0
0.2997 0.4665 -2.2705 0.549 0.833 0.065 176 176 176 0 0
0.3009 0.4670 -2.2754 0.563 0.806 0.183 186 187 188 0 0
0.3019 0.4675 -2.2805 0.563 0.806 0.183 192 193 195 0 0
0.0719 0.3588 -1.6072 0.180 0.208 0.961 98 85 68 0 0
0.0842 0.3639 -1.6153 0.385 0.135 0.913 84 68 52 0 0
0.0922 0.3671 -1.6156 0.419 0.289 0.861 94 78 54 0 0
0.0964 0.3689 -1.6182 0.419 0.289 0.861 117 98 71 0 0
0.1281 0.3820 -1.6398 0.563 0.718 0.409 116 96 62 0 0
0.1280 0.3821 -1.6503 0.308 0.760 0.573 114 93 62 0 0
0.1080 0.3791 -1.9547 0.628 0.702 0.337 106 86 54 0 0
0.1085 0.3794 -1.9600 0.570 0.770 0.286 104 84 51 0 0
0.1107 0.3803 -1.9641 0.558 0.653 0.513 104 84 51 0 0
0.1131 0.3813 -1.9680 0.558 0.653 0.513 110 90 57 0 0
0.1156 0.3824 -1.9718 0.814 0.515 0.269 106 86 53 0 0
0.1174 0.3832 -1.9762 0.672 0.593 0.443 102 82 49 0 0
0.1309 0.3891 -2.0060 0.630 0.562 0.536 92 72 44 0 0
0.1494 0.3973 -2.0493 0.065 0.400 0.914 110 89 58 0 0
0.1594 0.4014 -2.0528 0.766 0.287 0.575 101 80 49 0 0
0.1618 0.4024 -2.0566 0.766 0.287 0.575 101 81 51 0 0
0.1645 0.4036 -2.0603 0.861 0.504 0.074 93 73 45 0 0
0.1715 0.4070 -2.0955 0.552 0.746 0.374 102 81 53 0 0
0.1777 0.4096 -2.1079 0.535 0.845 0.005 133 106 67 0 0
0.1803 0.4108 -2.1116 0.321 0.660 0.679 124 99 61 0 0
0.2039 0.4205 -2.1268 0.686 0.559 0.466 119 94 55 0 0
0.2361 0.4342 -2.1696 0.725 0.294 0.623 136 108 66 0 0
0.2378 0.4349 -2.1740 0.809 0.400 0.430 130 100 59 0 0
0.2397 0.4358 -2.1782 0.809 0.400 0.430 138 109 66 0 0
0.2445 0.4377 -2.1799 0.667 0.371 0.647 137 110 62 0 0
0.2539 0.4422 -2.2191 0.853 0.401 0.334 154 123 76 0 0
0.2555 0.4429 -2.2236 0.771 0.446 0.455 141 111 69 0 0
0.2626 0.4458 -2.2291 0.797 0.513 0.318 150 122 82 0 0
0.2912 0.4575 -2.2383 0.805 0.471 0.362 95 88 61 0 0
0.2970 0.4599 -2.2448 0.722 0.366 0.587 83 75 43 0 0
0.2974 0.4603 -2.2565 0.433 0.681 0.590 101 88 69 0 0
0.3029 0.4626 -2.2633 0.556 0.797 0.236 140 137 129 0 0
0.3047 0.4635 -2.2736 0.549 0.833 0.065 183 183 183 0 0
0.0268 0.3356 -1.5990 0.179 0.468 0.865 145 118 78 0 0
0.0447 0.3456 -1.7765 -0.071 0.758 0.648 114 94 63 0 0
0.0525 0.3489 -1.7822 0.206 0.833 0.513 111 94 68 0 0
0.1125 0.3759 -1.9584 0.570 0.770 0.286 102 82 47 0 0
0.1153 0.3770 -1.9621 0.345 0.830 0.438 101 81 46 0 0
0.1177 0.3781 -1.9660 0.345 0.830 0.438 101 81 46 0 0
0.1828 0.4064 -2.0935 0.573 0.819 0.037 100 77 48 0 0
0.2043 0.4156 -2.1282 0.685 0.256 0.682 114 89 50 0 0
0.2104 0.4181 -2.1287 0.847 0.485 0.217 116 90 53 0 0
0.3082 0.4597 -2.2600 0.496 0.821 0.282 127 122 112 0 0
-0.0949 0.2798 -1.5058 0.527 -0.313 0.790 126 109 85 0 0
-0.0890 0.2823 -1.5079 0.334 -0.088 0.938 117 99 76 0 0
-0.0813 0.2854 -1.5090 0.249 -0.058 0.967 121 103 82 0 0
0.0744 0.3500 -1.6080 0.084 0.360 0.929 96 83 64 0 0
0.0805 0.3525 -1.6094 0.096 0.145 0.985 97 82 60 0 0
0.0922 0.3573 -1.6126 0.217 0.694 0.686 91 74 57 0 0
0.0990 0.3601 -1.6136 0.278 0.549 0.788 95 78 56 0 0
0.0595 0.3466 -1.7843 0.442 0.765 0.469 118 99 73 0 0
0.0791 0.3556 -1.8485 0.436 0.768 0.469 115 96 66 0 0
0.1508 0.3872 -2.0163 0.729 0.189 0.657 84 64 37 0 0
0.1555 0.3892 -2.0241 0.358 0.367 0.858 88 69 40 0 0
0.1670 0.3942 -2.0497 0.505 0.544 0.670 113 92 63 0 0
-0.0852 0.2786 -1.5015 -0.022 0.859 0.511 113 93 67 0 0
-0.0106 0.3099 -1.5653 0.157 0.898 0.410 108 87 56 0 0
0.0207 0.3229 -1.5838 0.500 0.809 0.308 114 91 57 0 0
0.0859 0.3498 -1.6072 0.135 0.254 0.958 96 80 59 0 0
0.0970 0.3543 -1.6108 0.212 0.731 0.649 88 72 54 0 0
0.0585 0.3410 -1.7753 0.308 0.942 -0.130 110 90 56 0 0
0.0834 0.3520 -1.8357 0.373 0.927 -0.038 112 93 62 0 0
0.1117 0.3644 -1.8937 0.785 0.509 0.352 109 89 56 0 0
0.1647 0.3878 -2.0183 0.652 0.519 0.553 88 68 38 0 0
0.2327 0.4173 -2.1540 0.571 0.184 0.800 121 92 53 0 0
0.2714 0.4338 -2.2023 0.877 0.466 0.114 133 103 60 0 0
0.0167 0.3161 -1.5714 0.037 0.865 0.500 106 85 54 0 0
0.0283 0.3211 -1.5909 0.555 0.681 0.478 123 101 63 0 0
0.0782 0.3416 -1.6027 0.255 0.476 0.842 100 84 61 0 0
0.0858 0.3448 -1.6032 0.142 0.367 0.919 112 94 72 0 0
0.0997 0.3539 -1.8533 0.725 0.507 0.466 116 94 64 0 0
0.1210 0.3632 -1.8995 0.706 -0.062 0.705 115 92 60 0 0
0.2273 0.4098 -2.1368 0.661 0.440 0.608 139 109 68 0 0
0.2624 0.4247 -2.1765 0.934 0.163 0.318 129 101 54 0 0
0.2654 0.4262 -2.1917 0.868 0.225 0.442 146 115 68 0 0
0.2715 0.4287 -2.1980 0.662 0.325 0.675 135 103 58 0 0
0.2724 0.4292 -2.2032 0.803 0.281 0.525 129 101 57 0 0
0.3235 0.4505 -2.2388 0.778 0.369 0.508 90 80 53 0 0
0.3229 0.4506 -2.2634 0.549 0.833 0.065 145 141 138 0 0
0.3120 0.4464 -2.2800 0.664 0.745 0.068 168 168 167 0 0
0.3129 0.4468 -2.2852 0.658 0.733 0.175 185 185 187 0 0
0.0028 0.3053 -1.5596 0.305 0.870 0.388 101 79 48 0 0
0.0066 0.3069 -1.5627 0.423 0.866 0.268 110 89 60 0 0
0.0221 0.3133 -1.5694 0.028 0.745 0.667 107 86 56 0 0
0.0459 0.3233 -1.5867 0.024 0.889 0.458 141 118 77 0 0
0.0831 0.3387 -1.6008 0.181 0.497 0.849 119 101 75 0 0
0.1616 0.3714 -1.6397 0.913 0.379 0.150 114 92 61 0 0
0.1070 0.3518 -1.8550 0.424 0.821 0.382 117 94 63 0 0
0.2685 0.4223 -2.1906 0.861 0.452 0.234 141 110 64 0 0
0.2740 0.4247 -2.1975 0.641 0.644 0.418 135 104 57 0 0
0.2768 0.4260 -2.2068 0.654 0.527 0.542 124 99 56 0 0
0.3266 0.4468 -2.2376 0.646 0.072 0.760 89 80 53 0 0
0.3254 0.4464 -2.2448 0.646 0.594 0.478 97 86 64 0 0
0.3158 0.4429 -2.2782 0.664 0.745 0.068 159 158 155 0 0
-0.1441 0.2390 -1.4935 0.673 0.426 -0.604 120 104 84 0 0
0.0565 0.3227 -1.5919 -0.021 0.208 0.978 122 99 58 0 0
0.0766 0.3311 -1.5954 0.207 0.374 0.904 138 109 69 0 0
0.0825 0.3335 -1.5970 0.151 0.081 0.985 137 110 77 0 0
0.0854 0.3347 -1.6005 0.224 0.402 0.888 130 108 82 0 0
0.1334 0.3547 -1.6122 0.114 0.222 0.968 122 99 68 0 0
0.1452 0.3595 -1.6151 0.281 0.509 0.814 126 101 70 0 0
0.1189 0.3518 -1.8701 0.698 0.685 0.210 113 90 59 0 0
0.2780 0.4213 -2.2015 0.655 0.306 0.691 127 99 55 0 0
0.2824 0.4232 -2.2034 0.661 0.379 0.648 120 94 53 0 0
0.2832 0.4236 -2.2086 0.843 0.533 0.070 116 92 53 0 0
0.2904 0.4265 -2.2080 0.524 0.650 0.550 116 92 55 0 0
0.2908 0.4267 -2.2136 0.640 0.661 0.392 114 93 56 0 0
0.3273 0.4421 -2.2387 0.417 0.207 0.885 90 81 52 0 0
0.3291 0.4429 -2.2430 0.521 0.632 0.573 92 82 55 0 0
0.3192 0.4392 -2.2767 0.658 0.733 0.175 149 147 144 0 0
0.3201 0.4396 -2.2819 0.658 0.733 0.175 173 173 173 0 0
-0.0097 0.2893 -1.4958 0.608 0.640 0.470 113 93 58 0 0
0.0797 0.3274 -1.5946 0.207 0.374 0.904 140 113 68 0 0
0.1183 0.3435 -1.6072 0.097 0.258 0.961 103 86 63 0 0
0.1359 0.3508 -1.6118 0.139 0.197 0.970 124 101 69 0 0
0.1457 0.3548 -1.6107 0.379 0.249 0.891 130 107 77 0 0
0.1532 0.3580 -1.6163 0.517 0.696 0.498 113 90 58 0 0
0.1555 0.3590 -1.6200 0.517 0.696 0.498 130 106 74 0 0
0.1656 0.3634 -1.6394 0.928 0.127 0.351 104 83 53 0 0
0.1686 0.3647 -1.6478 0.763 0.615 0.199 121 97 62 0 0
0.1164 0.3454 -1.8454 0.607 0.753 0.253 122 99 67 0 0
0.2681 0.4116 -2.1529 0.846 0.371 0.384 124 96 49 0 0
0.2795 0.4169 -2.2019 0.800 0.133 0.585 131 103 59 0 0
0.2847 0.4190 -2.2031 0.502 0.440 0.745 121 95 56 0 0
0.2857 0.4195 -2.2081 0.882 0.456 0.117 115 91 54 0 0
0.3322 0.4391 -2.2418 0.521 0.632 0.573 95 86 57 0 0
0.3382 0.4419 -2.2661 0.496 0.759 0.422 163 163 163 0 0
0.0783 0.3218 -1.5914 0.153 0.391 0.908 125 98 58 0 0
0.1528 0.3565 -1.9378 0.520 0.823 0.227 99 76 43 0 0
0.1554 0.3576 -1.9415 0.522 0.494 0.695 90 70 37 0 0
0.1849 0.3704 -1.9982 0.712 0.605 0.357 90 69 40 0 0
0.1911 0.3734 -2.0335 0.643 0.699 -0.311 97 75 43 0 0
0.2270 0.3888 -2.0790 0.613 0.749 0.252 104 81 47 0 0
0.2708 0.4077 -2.1522 0.608 0.161 0.777 120 93 50 0 0
0.2917 0.4169 -2.2043 0.561 0.800 0.213 113 88 53 0 0
0.3342 0.4349 -2.2357 0.580 0.648 0.494 91 81 53 0 0
0.3371 0.4362 -2.2449 0.562 0.742 0.366 87 77 50 0 0
0.3403 0.4377 -2.2659 0.549 0.711 0.439 153 152 151 0 0
0.0127 0.2886 -1.4957 0.016 0.767 0.641 121 97 67 0 0
0.0227 0.2929 -1.5004 0.090 0.588 0.804 106 84 51 0 0
0.0434 0.3020 -1.5507 0.377 0.750 0.544 116 93 59 0 0
0.1472 0.3485 -1.8814 0.630 0.737 0.244 116 93 59 0 0
0.1625 0.3554 -1.9374 0.691 0.656 0.304 88 66 33 0 0
0.1677 0.3577 -1.9448 0.628 0.594 0.503 97 77 42 0 0
0.1898 0.3674 -1.9958 0.769 0.413 0.489 95 74 43 0 0
0.1900 0.3675 -2.0014 0.678 0.676 0.289 91 70 39 0 0
0.1925 0.3690 -2.0456 0.431 0.902 -0.006 115 90 52 0 0
0.2784 0.4059 -2.1588 0.762 0.640 0.099 125 97 53 0 0
0.3398 0.4325 -2.2623 0.618 0.745 0.250 113 107 96 0 0
0.3436 0.4341 -2.2646 0.388 0.577 0.719 141 138 134 0 0
0.0201 0.2867 -1.4926 0.246 0.753 0.610 122 98 69 0 0
0.0275 0.2899 -1.4988 0.090 0.588 0.804 113 90 57 0 0
0.1563 0.3447 -1.6126 0.286 0.286 0.915 126 106 74 0 0
0.1668 0.3492 -1.6162 0.495 0.796 0.348 128 105 71 0 0
0.1176 0.3298 -1.7386 0.372 0.606 0.703 99 82 54 0 0
0.1464 0.3431 -1.8778 0.382 0.616 0.689 119 96 64 0 0
0.1497 0.3445 -1.8810 0.458 0.574 0.679 114 91 57 0 0
0.1563 0.3474 -1.8928 0.628 0.692 0.355 117 94 60 0 0
0.1954 0.3647 -1.9986 0.554 0.824 0.119 93 71 40 0 0
0.2816 0.4021 -2.1518 0.852 0.375 0.365 120 94 51 0 0
0.2868 0.4045 -2.1707 0.919 0.239 0.314 130 102 55 0 0
0.3182 0.4177 -2.1890 0.804 0.288 0.521 97 76 48 0 0
0.3434 0.4288 -2.2425 0.782 0.454 0.428 86 76 47 0 0
0.3434 0.4289 -2.2606 0.618 0.745 0.250 104 97 83 0 0
0.3468 0.4304 -2.2633 0.388 0.577 0.719 129 125 118 0 0
0.3439 0.4292 -2.2722 0.525 0.821 0.224 157 157 156 0 0
0.3456 0.4300 -2.2765 0.512 0.835 0.201 178 178 182 0 0
0.0770 0.3063 -1.5747 0.366 0.680 0.636 114 89 54 0 0
0.1584 0.3432 -1.8983 0.685 0.716 0.131 110 87 53 0 0
0.2915 0.4013 -2.1681 0.509 0.515 0.689 129 101 54 0 0
0.3449 0.4244 -2.2429 0.687 0.377 0.621 90 78 47 0 0
0.3461 0.4249 -2.2477 0.909 0.372 0.186 96 84 54 0 0
0.3462 0.4250 -2.2537 0.792 0.482 0.375 91 80 57 0 0
0.3476 0.4257 -2.2644 0.489 0.559 0.670 118 113 104 0 0
0.3481 0.4259 -2.2699 0.525 0.821 0.224 148 146 142 0 0
-0.1811 0.1917 -1.4332 -0.354 0.605 0.713 182 177 175 0 0
0.0699 0.2982 -1.5540 0.661 0.750 0.040 110 86 51 0 0
0.0913 0.3075 -1.5827 0.299 0.515 0.803 124 95 54 0 0
0.0993 0.3109 -1.5882 0.309 0.404 0.861 147 117 74 0 0
0.1951 0.3517 -1.6519 0.914 -0.150 0.376 83 64 42 0 0
0.1231 0.3220 -1.7266 0.911 0.393 0.124 91 76 53 0 0
0.1332 0.3264 -1.7468 0.597 0.725 0.343 126 101 63 0 0
0.1423 0.3308 -1.8169 0.243 0.953 0.179 129 105 71 0 0
0.1574 0.3376 -1.8725 0.899 0.430 0.079 110 87 53 0 0
0.1578 0.3378 -1.8778 0.899 0.430 0.079 113 91 56 0 0
0.1582 0.3380 -1.8831 0.899 0.430 0.079 114 92 58 0 0
0.1585 0.3382 -1.8884 0.899 0.430 0.079 111 88 54 0 0
0.1632 0.3402 -1.8961 0.742 0.578 0.338 114 91 57 0 0
0.2131 0.3624 -2.0449 0.126 0.808 0.576 166 135 90 0 0
0.2172 0.3641 -2.0473 0.098 0.796 0.597 145 113 73 0 0
0.2227 0.3665 -2.0542 0.041 0.881 0.471 111 90 48 0 0
0.2479 0.3775 -2.1027 0.687 0.385 0.616 173 142 87 0 0
0.2543 0.3803 -2.1265 0.612 0.669 0.421 102 78 38 0 0
0.2967 0.3985 -2.1651 0.664 0.405 0.628 129 101 54 0 0
0.3475 0.4205 -2.2422 0.821 0.536 0.196 84 71 39 0 0
0.3483 0.4209 -2.2535 0.819 0.569 0.072 94 82 56 0 0
0.3483 0.4209 -2.2595 0.662 0.732 0.160 90 81 62 0 0
0.3516 0.4224 -2.2683 0.607 0.781 -0.145 137 133 126 0 0
0.3503 0.4219 -2.2756 0.576 0.817 0.018 165 163 165 0 0
0.0049 0.2650 -1.4373 0.770 0.629 0.104 113 90 60 0 0
0.0038 0.2646 -1.4481 0.476 0.808 0.347 113 90 61 0 0
0.0839 0.2992 -1.5519 0.809 0.584 0.067 115 91 55 0 0
0.0930 0.3032 -1.5776 0.508 0.348 0.788 130 105 64 0 0
0.0978 0.3053 -1.5851 0.619 0.138 0.773 133 104 62 0 0
0.1604 0.3319 -1.6083 0.238 0.434 0.869 130 106 74 0 0
0.2058 0.3514 -1.6512 0.720 0.566 0.400 123 105 77 0 0
0.1375 0.3233 -1.7559 0.414 0.871 -0.264 125 99 57 0 0
0.1488 0.3285 -1.8136 0.243 0.953 0.179 133 110 76 0 0
0.1595 0.3332 -1.8445 0.631 0.774 0.063 111 88 54 0 0
0.1620 0.3344 -1.8704 0.633 0.731 0.254 109 87 50 0 0
0.1645 0.3356 -1.8798 0.633 0.731 0.254 112 92 56 0 0
0.1641 0.3355 -1.8856 0.663 0.746 0.061 110 90 55 0 0
0.3196 0.4032 -2.1812 0.742 0.464 0.484 108 84 42 0 0
0.3264 0.4062 -2.1926 0.631 0.704 0.326 96 75 44 0 0
0.3296 0.4076 -2.2015 0.631 0.704 0.326 88 69 39 0 0
0.3304 0.4080 -2.2127 0.860 0.509 -0.013 87 68 38 0 0
0.3317 0.4086 -2.2174 0.832 0.548 0.090 86 68 38 0 0
0.3506 0.4168 -2.2471 0.819 0.569 0.072 101 88 58 0 0
0.3509 0.4170 -2.2528 0.819 0.569 0.072 98 83 56 0 0
0.3518 0.4174 -2.2579 0.662 0.732 0.160 89 76 55 0 0
0.3536 0.4182 -2.2622 0.505 0.705 0.499 101 93 79 0 0
-0.1454 0.1962 -1.4173 -0.387 0.561 0.732 121 108 92 0 0
0.0842 0.2944 -1.5580 0.750 0.544 0.375 115 91 54 0 0
0.0877 0.2959 -1.5611 0.625 0.486 0.611 107 85 45 0 0
0.0989 0.3008 -1.5803 0.525 0.536 0.661 130 104 60 0 0
0.1018 0.3021 -1.5837 0.525 0.536 0.661 133 104 60 0 0
0.1033 0.3027 -1.5881 0.556 0.180 0.811 138 109 63 0 0
0.1074 0.3045 -1.5907 0.853 0.179 0.490 145 117 73 0 0
0.1342 0.3158 -1.5845 0.276 0.114 0.954 151 122 78 0 0
0.2106 0.3486 -1.6491 0.630 0.763 0.143 106 88 58 0 0
0.1531 0.3252 -1.8063 0.321 0.924 0.208 119 95 64 0 0
0.1653 0.3305 -1.8306 0.780 0.247 0.576 109 88 52 0 0
0.1652 0.3306 -1.8417 0.673 0.727 0.136 109 86 52 0 0
0.1681 0.3319 -1.8562 0.830 0.557 0.010 111 89 52 0 0
0.1674 0.3316 -1.8623 0.848 0.530 -0.012 115 93 56 0 0
0.1800 0.3372 -1.9031 0.697 0.680 0.228 106 86 51 0 0
0.1825 0.3383 -1.9068 0.747 0.656 0.111 102 82 47 0 0
0.1836 0.3389 -1.9285 0.688 0.554 0.468 100 80 45 0 0
0.2378 0.3625 -2.0159 0.321 0.929 -0.186 103 79 46 0 0
0.2414 0.3643 -2.0591 0.851 0.232 0.470 107 82 42 0 0
0.2505 0.3683 -2.0921 0.712 0.547 0.440 107 83 49 0 0
0.2529 0.3694 -2.0958 0.628 0.558 0.543 102 79 42 0 0
0.2551 0.3703 -2.0998 0.621 0.535 0.572 136 110 63 0 0
0.2944 0.3873 -2.1470 0.783 0.398 0.479 105 80 40 0 0
0.2960 0.3880 -2.1515 0.840 0.355 0.411 110 86 47 0 0
0.2993 0.3894 -2.1544 0.852 0.208 0.480 109 85 45 0 0
0.3008 0.3901 -2.1589 0.823 0.280 0.495 113 88 47 0 0
0.3233 0.3998 -2.1795 0.659 0.439 0.611 111 88 46 0 0
0.3254 0.4007 -2.1835 0.791 0.389 0.472 97 73 39 0 0
0.3274 0.4015 -2.1875 0.791 0.389 0.472 90 68 37 0 0
0.3286 0.4021 -2.2043 0.918 0.394 -0.038 84 64 34 0 0
0.3343 0.4046 -2.2168 0.832 0.548 0.090 88 69 39 0 0
0.0886 0.2913 -1.5513 0.913 0.288 0.288 117 90 53 0 0
0.0950 0.2940 -1.5527 0.616 0.615 0.492 118 90 53 0 0
0.1001 0.2964 -1.5807 0.666 0.468 0.581 131 104 59 0 0
0.1040 0.2980 -1.5835 0.704 0.507 0.497 130 102 56 0 0
0.1086 0.3000 -1.5911 0.853 0.179 0.490 146 115 73 0 0
0.1475 0.3166 -1.5980 0.326 0.928 0.179 132 104 66 0 0
0.1546 0.3197 -1.6091 0.445 -0.156 0.882 136 113 81 0 0
0.1645 0.3239 -1.6080 0.288 0.276 0.917 128 105 71 0 0
0.1681 0.3267 -1.8354 0.673 0.727 0.136 109 86 52 0 0
0.1687 0.3270 -1.8405 0.673 0.727 0.136 109 86 52 0 0
0.1718 0.3284 -1.8548 0.909 0.349 0.229 110 88 51 0 0
0.1706 0.3280 -1.8612 0.841 0.494 0.223 111 89 52 0 0
0.1718 0.3285 -1.8659 0.833 0.490 0.256 112 90 53 0 0
0.1832 0.3336 -1.9020 0.695 0.615 0.373 100 80 45 0 0
0.1839 0.3340 -1.9184 0.794 0.551 0.257 100 80 45 0 0
0.1851 0.3345 -1.9231 0.794 0.551 0.257 99 79 44 0 0
0.1863 0.3350 -1.9278 0.688 0.554 0.468 100 80 45 0 0
0.1874 0.3355 -1.9326 0.766 0.630 0.126 99 79 44 0 0
0.2175 0.3487 -1.9941 0.647 0.728 0.227 99 79 44 0 0
0.2322 0.3550 -2.0107 0.829 0.246 0.502 100 77 43 0 0
0.2432 0.3600 -2.0592 0.762 0.289 0.580 99 74 34 0 0
0.2557 0.3655 -2.0951 0.650 0.436 0.622 101 79 46 0 0
0.2616 0.3680 -2.1016 0.725 0.214 0.655 178 149 97 0 0
0.2654 0.3697 -2.1042 0.517 0.745 0.422 185 153 101 0 0
0.2663 0.3701 -2.1092 0.512 0.801 0.309 180 149 100 0 0
0.2693 0.3715 -2.1242 0.650 0.658 0.380 105 79 44 0 0
0.2921 0.3813 -2.1450 0.831 0.429 0.355 110 85 45 0 0
0.3221 0.3942 -2.1824 0.683 0.662 0.310 113 89 48 0 0
0.0894 0.2866 -1.5158 0.404 0.905 0.133 119 96 60 0 0
0.0805 0.2828 -1.5262 0.400 0.805 0.437 118 94 58 0 0
0.0825 0.2837 -1.5302 0.386 0.853 0.353 116 90 52 0 0
0.1078 0.2946 -1.5615 0.456 0.597 0.661 102 76 44 0 0
0.1128 0.2968 -1.5637 0.441 0.694 0.569 92 64 36 0 0
0.1190 0.2995 -1.5806 0.528 0.731 0.433 141 111 66 0 0
0.1203 0.3001 -1.5850 0.596 0.740 0.312 141 111 67 0 0
0.1530 0.3148 -1.7437 0.635 0.439 0.635 118 94 58 0 0
0.1543 0.3154 -1.7482 0.846 0.121 0.519 124 101 60 0 0
0.1527 0.3148 -1.7547 0.985 0.144 0.092 123 98 57 0 0
0.1540 0.3153 -1.7592 0.979 -0.086 0.186 124 98 54 0 0
0.1626 0.3190 -1.7695 0.971 0.238 0.026 146 119 67 0 0
0.1589 0.3176 -1.7830 0.531 0.785 0.320 120 94 56 0 0
0.1692 0.3222 -1.8360 0.839 0.321 0.440 110 87 51 0 0
0.1723 0.3235 -1.8392 0.673 0.727 0.136 110 87 51 0 0
0.1876 0.3302 -1.8722 0.888 0.170 0.428 111 86 54 0 0
0.1913 0.3319 -1.8805 0.888 0.170 0.428 104 83 49 0 0
0.1913 0.3319 -1.8861 0.580 0.558 0.594 111 90 55 0 0
0.1888 0.3309 -1.8992 0.582 0.812 0.045 104 84 49 0 0
0.1922 0.3323 -1.9022 0.560 0.757 0.337 104 84 49 0 0
0.1977 0.3348 -1.9148 0.835 0.449 0.318 102 82 48 0 0
0.1986 0.3352 -1.9197 0.838 0.489 0.244 103 83 49 0 0
0.2211 0.3451 -1.9927 0.647 0.728 0.227 101 80 45 0 0
0.2574 0.3610 -2.0719 0.790 0.435 0.432 98 75 37 0 0
0.2607 0.3626 -2.0982 0.580 0.462 0.671 104 80 40 0 0
0.2645 0.3642 -2.1007 0.836 0.275 0.476 162 132 81 0 0
0.2697 0.3664 -2.1079 0.738 0.628 0.248 180 149 99 0 0
0.2709 0.3670 -2.1127 0.750 0.619 0.234 177 149 106 0 0
0.2727 0.3678 -2.1229 0.729 0.647 0.224 107 83 46 0 0
0.2730 0.3680 -2.1285 0.850 0.431 0.301 102 76 38 0 0
0.2880 0.3744 -2.1327 0.549 0.498 0.671 110 86 45 0 0
0.2964 0.3781 -2.1546 0.796 0.409 0.447 100 78 37 0 0
0.3317 0.3934 -2.2050 0.953 0.285 0.103 85 64 35 0 0
0.3332 0.3941 -2.2094 0.972 0.162 0.171 92 71 40 0 0
0.3461 0.3996 -2.2151 0.811 0.418 0.410 92 76 44 0 0
0.0240 0.2532 -1.4260 0.436 0.735 0.520 109 86 55 0 0
0.0862 0.2803 -1.5240 0.465 0.817 0.341 116 92 56 0 0
0.0879 0.2810 -1.5333 0.384 0.409 0.828 103 78 39 0 0
0.1027 0.2876 -1.5657 0.656 0.738 0.160 127 100 59 0 0
0.1035 0.2879 -1.5705 0.656 0.738 0.160 111 84 46 0 0
0.1583 0.3115 -1.5987 0.479 0.781 0.401 133 106 67 0 0
0.1611 0.3127 -1.6021 0.433 0.589 0.682 147 123 87 0 0
0.1710 0.3170 -1.6009 0.223 0.198 0.954 124 103 69 0 0
0.1592 0.3125 -1.7407 0.741 0.557 0.375 121 97 60 0 0
0.1606 0.3131 -1.7451 0.627 0.664 0.408 126 101 60 0 0
0.1576 0.3118 -1.7526 0.707 0.695 -0.132 120 94 56 0 0
0.1594 0.3127 -1.7567 0.735 0.678 0.009 121 96 57 0 0
0.1611 0.3134 -1.7610 0.808 0.559 0.187 117 91 48 0 0
0.1682 0.3167 -1.8271 0.795 0.605 -0.044 113 90 56 0 0
0.1813 0.3224 -1.8450 0.643 0.680 0.353 108 85 50 0 0
0.1843 0.3237 -1.8484 0.672 0.575 0.466 100 77 43 0 0
0.1864 0.3246 -1.8523 0.539 0.590 0.601 92 69 35 0 0
0.1876 0.3252 -1.8569 0.758 0.579 0.300 98 75 42 0 0
0.1896 0.3260 -1.8666 0.902 0.422 0.096 99 77 42 0 0
0.1903 0.3264 -1.8716 0.955 0.242 0.171 103 81 45 0 0
0.1906 0.3265 -1.8769 0.888 0.170 0.428 107 87 50 0 0
0.1918 0.3270 -1.8816 0.677 0.355 0.644 107 87 51 0 0
0.1946 0.3284 -1.9075 0.863 0.503 -0.042 101 81 46 0 0
0.1977 0.3297 -1.9107 0.934 0.338 0.118 100 80 45 0 0
0.2279 0.3431 -2.0059 0.801 0.556 0.223 97 74 40 0 0
0.2301 0.3440 -2.0214 0.593 0.792 0.143 97 74 40 0 0
0.2532 0.3541 -2.0655 0.891 0.393 0.225 99 75 38 0 0
0.2598 0.3570 -2.0715 0.805 0.457 0.379 97 73 36 0 0
0.2770 0.3646 -2.1148 0.728 0.599 0.334 144 115 75 0 0
0.2763 0.3643 -2.1213 0.651 0.732 0.200 106 81 45 0 0
0.2780 0.3650 -2.1258 0.508 0.728 0.460 100 76 36 0 0
0.3751 0.4072 -2.2605 0.466 0.608 0.643 117 112 104 0 0
0.0342 0.2527 -1.4265 0.388 0.864 0.321 114 91 60 0 0
0.0625 0.2649 -1.4669 0.346 0.860 0.376 117 95 57 0 0
0.0946 0.2789 -1.5047 0.836 0.117 0.536 111 88 49 0 0
0.0905 0.2772 -1.5225 0.465 0.817 0.341 117 93 55 0 0
0.1597 0.3072 -1.5938 0.844 0.167 0.509 165 137 89 0 0
0.1624 0.3084 -1.5972 0.740 0.077 0.668 138 110 68 0 0
0.1925 0.3214 -1.6089 0.519 0.205 0.829 118 97 64 0 0
0.1650 0.3103 -1.8363 0.952 -0.001 0.307 104 81 45 0 0
0.1866 0.3197 -1.8480 0.797 0.424 0.430 100 77 43 0 0
0.1896 0.3210 -1.8513 0.865 0.253 0.433 92 69 35 0 0
0.1921 0.3220 -1.8550 0.967 0.234 0.099 91 68 34 0 0
0.1912 0.3217 -1.8723 0.889 0.442 0.118 99 79 46 0 0
0.1913 0.3218 -1.8778 0.790 0.316 0.526 101 82 47 0 0
0.1935 0.3228 -1.8817 0.790 0.316 0.526 111 91 56 0 0
0.2305 0.3391 -2.0053 0.801 0.556 0.223 97 74 40 0 0
0.2268 0.3376 -2.0314 0.981 0.078 0.178 97 74 39 0 0
0.2304 0.3392 -2.0342 0.747 0.647 0.151 100 78 41 0 0
0.2905 0.3654 -2.1398 0.713 0.174 0.679 107 84 43 0 0
0.2952 0.3674 -2.1473 0.635 0.308 0.709 104 81 40 0 0
0.1075 0.2796 -1.5136 0.912 0.009 0.409 121 97 59 0 0
0.1065 0.2792 -1.5450 0.279 0.829 0.485 161 131 84 0 0
0.1092 0.2804 -1.5485 0.469 0.844 0.262 145 112 67 0 0
0.1269 0.2881 -1.5688 0.878 0.309 0.367 111 82 37 0 0
0.1616 0.3032 -1.5937 0.719 0.217 0.660 153 125 80 0 0
0.1744 0.3087 -1.6062 0.647 0.098 0.756 127 104 70 0 0
0.1649 0.3049 -1.7124 0.696 0.264 0.668 83 67 44 0 0
0.1593 0.3029 -1.8418 0.740 0.636 -0.219 110 87 51 0 0
0.1887 0.3156 -1.8478 0.797 0.424 0.430 99 76 42 0 0
0.1914 0.3167 -1.8514 0.881 0.319 0.350 100 77 43 0 0
0.1932 0.3175 -1.8556 0.967 0.234 0.099 100 78 44 0 0
0.1934 0.3177 -1.8721 0.800 0.552 0.235 81 62 36 0 0
0.2315 0.3344 -2.0003 0.888 0.401 0.224 100 77 43 0 0
0.2324 0.3349 -2.0053 0.960 0.210 0.183 98 75 40 0 0
0.2347 0.3359 -2.0091 0.651 0.541 0.532 97 74 40 0 0
0.2402 0.3382 -2.0104 0.854 0.079 0.514 97 74 40 0 0
0.2352 0.3361 -2.0318 0.681 0.731 0.046 97 74 38 0 0
0.2647 0.3490 -2.0647 0.771 0.624 0.124 100 76 38 0 0
0.2660 0.3496 -2.0694 0.724 0.496 0.480 99 75 38 0 0
0.2696 0.3512 -2.0895 0.698 0.521 0.491 95 72 38 0 0
0.3812 0.3997 -2.2402 0.597 0.560 0.574 85 75 46 0 0
0.3830 0.4006 -2.2624 0.586 0.727 0.358 124 122 116 0 0
0.0140 0.2340 -1.4037 0.590 0.806 0.040 111 87 57 0 0
0.0653 0.2562 -1.4269 0.901 -0.297 0.317 122 98 64 0 0
0.1034 0.2729 -1.5017 0.661 0.691 0.291 117 94 57 0 0
0.1093 0.2755 -1.5136 0.893 0.273 0.359 110 87 46 0 0
0.1631 0.2989 -1.5939 0.719 0.217 0.660 145 117 74 0 0
0.1670 0.3006 -1.5966 0.484 0.417 0.769 149 121 80 0 0
0.1767 0.3048 -1.6059 0.500 0.283 0.819 132 109 72 0 0
0.2360 0.3306 -1.6342 0.641 0.439 0.629 96 76 46 0 0
0.2383 0.3316 -1.6378 0.580 0.553 0.599 96 76 49 0 0
0.2415 0.3330 -1.6408 0.292 0.626 0.723 83 63 36 0 0
0.1689 0.3017 -1.7110 0.607 0.300 0.736 79 60 38 0 0
0.1720 0.3030 -1.7142 0.607 0.300 0.736 86 68 44 0 0
0.1745 0.3041 -1.7179 0.707 0.587 0.394 83 66 41 0 0
0.1714 0.3028 -1.7307 0.739 0.671 0.058 87 68 41 0 0
0.1714 0.3028 -1.7361 0.736 0.582 0.347 94 73 44 0 0
0.1734 0.3037 -1.7401 0.627 0.705 0.332 121 98 59 0 0
0.1757 0.3047 -1.7438 0.693 0.455 0.559 122 96 54 0 0
0.1767 0.3051 -1.7485 0.849 0.382 0.365 116 90 50 0 0
0.1840 0.3084 -1.7922 0.494 0.438 0.751 105 82 49 0 0
0.1927 0.3123 -1.8463 0.608 0.658 0.444 97 74 40 0 0
0.1956 0.3136 -1.8607 0.902 0.421 0.091 75 58 28 0 0
0.2032 0.3169 -1.8828 0.844 0.356 0.401 86 65 38 0 0
0.2177 0.3233 -1.9276 0.653 0.689 0.314 87 67 34 0 0
0.2336 0.3302 -1.9432 0.780 0.354 0.517 97 74 40 0 0
0.2327 0.3299 -1.9837 0.855 0.421 0.304 100 80 45 0 0
0.2399 0.3331 -2.0294 0.643 0.752 0.149 96 72 36 0 0
0.2721 0.3472 -2.0890 0.698 0.523 0.489 93 69 35 0 0
0.3653 0.3878 -2.2217 0.793 0.196 0.576 95 77 43 0 0
0.3852 0.3965 -2.2441 0.705 0.324 0.631 86 79 50 0 0
0.3845 0.3962 -2.2568 0.733 0.596 0.328 95 87 73 0 0
0.3864 0.3970 -2.2609 0.560 0.567 0.604 117 111 105 0 0
-0.1129 0.1736 -1.2397 0.041 0.698 0.715 198 198 199 0 0
-0.1030 0.1779 -1.2453 -0.103 0.843 0.528 200 200 201 0 0
0.0212 0.2321 -1.4009 0.930 0.172 0.326 115 92 60 0 0
0.0416 0.2410 -1.4103 0.557 0.699 0.448 106 83 52 0 0
0.1443 0.2858 -1.5810 0.684 0.629 0.368 150 122 74 0 0
0.1466 0.2869 -1.6003 0.626 0.742 0.241 162 134 85 0 0
0.2353 0.3254 -1.6204 0.799 0.323 0.507 81 60 38 0 0
0.2371 0.3262 -1.6243 0.587 0.551 0.593 88 69 45 0 0
0.2411 0.3280 -1.6319 0.589 0.627 0.510 94 73 48 0 0
0.2418 0.3283 -1.6418 0.751 0.654 0.088 95 75 48 0 0
0.2422 0.3285 -1.6466 0.751 0.654 0.088 100 80 53 0 0
0.1795 0.3014 -1.7479 0.725 0.610 0.319 116 93 50 0 0
0.1950 0.3082 -1.8294 0.730 0.554 0.401 102 79 45 0 0
0.2217 0.3200 -1.9260 0.672 0.647 0.359 79 59 26 0 0
0.2251 0.3214 -1.9289 0.594 0.543 0.594 93 73 40 0 0
0.2449 0.3301 -1.9867 0.832 0.371 0.413 98 75 42 0 0
0.2511 0.3329 -2.0216 0.914 0.091 0.394 96 73 39 0 0
0.2753 0.3435 -2.0938 0.854 0.268 0.446 96 72 38 0 0
0.3122 0.3596 -2.1371 0.834 0.493 0.246 102 79 38 0 0
0.3267 0.3659 -2.1591 0.729 0.514 0.451 101 77 40 0 0
0.3499 0.3760 -2.1848 0.738 0.529 0.419 106 83 47 0 0
0.3527 0.3772 -2.1880 0.841 0.461 0.284 101 78 42 0 0
0.3679 0.3839 -2.2032 0.777 0.569 0.269 93 74 39 0 0
0.3670 0.3835 -2.2099 0.649 0.435 0.624 93 74 39 0 0
0.3849 0.3913 -2.2343 0.757 0.271 0.595 74 65 31 0 0
0.3853 0.3915 -2.2459 0.820 0.545 0.176 88 79 48 0 0
0.3883 0.3928 -2.2489 0.455 0.337 0.824 84 75 49 0 0
0.3892 0.3932 -2.2600 0.560 0.567 0.604 109 103 94 0 0
-0.1156 0.1674 -1.2317 -0.197 0.709 0.677 198 198 200 0 0
-0.1054 0.1718 -1.2323 -0.100 0.675 0.731 198 198 200 0 0
0.0196 0.2264 -1.3977 0.828 0.300 0.473 123 99 68 0 0
0.0681 0.2476 -1.4172 0.703 0.585 0.406 121 97 63 0 0
0.0928 0.2584 -1.4540 0.792 0.194 0.579 112 88 54 0 0
0.0952 0.2595 -1.4577 0.792 0.194 0.579 121 97 65 0 0
0.0921 0.2581 -1.4696 0.522 0.738 0.428 122 95 64 0 0
0.0975 0.2605 -1.4716 0.536 0.581 0.613 98 74 44 0 0
0.1128 0.2672 -1.5137 0.601 0.797 0.056 115 92 51 0 0
0.1090 0.2655 -1.5364 0.646 0.241 0.724 113 88 44 0 0
0.1132 0.2674 -1.5391 0.512 0.323 0.796 101 75 34 0 0
0.2396 0.3225 -1.6239 0.570 0.608 0.553 79 62 37 0 0
0.2456 0.3252 -1.6404 0.785 0.619 0.034 93 73 46 0 0
0.2458 0.3252 -1.6454 0.785 0.619 0.034 92 72 45 0 0
0.1823 0.2976 -1.7472 0.725 0.610 0.319 114 91 49 0 0
0.2062 0.3081 -1.8389 0.765 0.387 0.514 101 78 44 0 0
0.2229 0.3155 -1.9209 0.827 0.514 0.227 90 70 37 0 0
0.2244 0.3161 -1.9253 0.737 0.503 0.452 88 68 35 0 0
0.2357 0.3211 -1.9389 0.786 0.062 0.615 94 74 40 0 0
0.2385 0.3222 -1.9423 0.858 0.253 0.448 98 75 41 0 0
0.2453 0.3252 -1.9651 0.679 0.660 0.321 100 80 47 0 0
0.2557 0.3298 -2.0194 0.706 0.619 0.344 93 71 38 0 0
0.2586 0.3311 -2.0227 0.666 0.736 0.122 98 75 41 0 0
0.2758 0.3386 -2.0717 0.857 0.458 0.238 91 68 34 0 0
0.2757 0.3386 -2.0951 0.902 0.263 0.341 92 68 34 0 0
0.2796 0.3403 -2.1033 0.637 0.328 0.698 100 75 36 0 0
0.3381 0.3659 -2.1739 0.795 0.336 0.505 97 73 33 0 0
0.3549 0.3732 -2.1878 0.841 0.461 0.284 99 75 39 0 0
0.3901 0.3886 -2.2610 0.785 0.591 0.187 103 97 86 0 0
0.4266 0.4045 -2.2722 0.915 0.370 -0.162 204 204 206 0 0
0.0271 0.2247 -1.3997 0.616 0.002 0.788 116 93 58 0 0
0.0317 0.2268 -1.4024 0.128 0.650 0.749 104 81 49 0 0
0.0903 0.2524 -1.4615 0.355 0.745 0.565 118 94 57 0 0
0.1003 0.2568 -1.4710 0.462 0.686 0.562 116 92 59 0 0
0.1201 0.2654 -1.5309 0.872 0.326 0.366 126 100 56 0 0
0.1205 0.2656 -1.5358 0.744 0.614 0.263 103 78 35 0 0
0.1223 0.2664 -1.5399 0.623 0.681 0.385 103 78 34 0 0
0.1408 0.2745 -1.5802 0.845 0.464 0.267 142 112 66 0 0
0.2395 0.3177 -1.6200 0.603 0.561 0.567 103 79 50 0 0
0.2509 0.3227 -1.6329 0.689 0.276 0.670 78 59 33 0 0
0.2001 0.3004 -1.7846 0.365 0.892 0.268 104 82 48 0 0
0.2098 0.3047 -1.8377 0.878 0.447 0.170 97 76 42 0 0
0.2121 0.3057 -1.8415 0.667 0.621 0.413 95 73 41 0 0
0.2162 0.3075 -1.8439 0.790 0.562 0.245 93 71 39 0 0
0.2377 0.3169 -1.9388 0.842 0.262 0.471 95 75 42 0 0
0.2399 0.3178 -1.9427 0.858 0.324 0.399 96 74 41 0 0
0.2815 0.3360 -2.0684 0.538 0.804 0.255 91 68 34 0 0
0.2833 0.3368 -2.0960 0.756 0.620 0.212 100 77 44 0 0
0.3562 0.3687 -2.1824 0.740 0.613 0.276 101 77 41 0 0
0.3564 0.3688 -2.1881 0.687 0.558 0.465 100 76 40 0 0
-0.1498 0.1422 -1.2281 -0.349 0.660 0.665 195 196 198 0 0
0.0258 0.2192 -1.3963 0.737 0.135 0.662 123 100 66 0 0
0.0564 0.2326 -1.4104 0.790 0.577 0.206 123 99 63 0 0
0.0985 0.2511 -1.4579 0.385 0.600 0.701 119 95 58 0 0
0.1324 0.2659 -1.5246 0.630 0.604 0.489 109 85 43 0 0
0.1274 0.2637 -1.5379 0.922 0.387 -0.004 96 72 28 0 0
0.1560 0.2762 -1.5771 0.627 0.777 0.051 151 123 75 0 0
0.1619 0.2788 -1.5785 0.532 0.777 0.337 146 119 70 0 0
0.2089 0.2995 -1.6104 0.552 0.290 0.782 133 107 71 0 0
0.2398 0.3130 -1.6210 0.703 0.451 0.550 99 74 42 0 0
0.2504 0.3177 -1.6396 0.759 0.648 -0.060 76 55 28 0 0
0.1928 0.2923 -1.7586 0.345 0.863 0.369 119 95 58 0 0
0.1953 0.2934 -1.7622 0.328 0.860 0.390 131 108 69 0 0
0.2128 0.3010 -1.8368 0.814 0.424 0.396 95 75 42 0 0
0.2129 0.3010 -1.8423 0.956 0.204 0.212 93 72 42 0 0
0.2236 0.3057 -1.8896 0.655 0.497 0.569 98 78 44 0 0
0.2251 0.3064 -1.8940 0.710 0.565 0.419 98 78 44 0 0
0.2267 0.3071 -1.8984 0.811 0.522 0.264 89 69 36 0 0
0.2278 0.3075 -1.9200 0.808 0.512 0.292 94 74 41 0 0
0.2570 0.3203 -1.9871 0.689 0.556 0.464 98 75 43 0 0
0.2590 0.3212 -1.9911 0.689 0.556 0.464 99 76 44 0 0
0.2627 0.3228 -1.9938 0.865 0.363 0.345 99 76 44 0 0
0.2932 0.3361 -2.1006 0.807 0.547 0.220 119 93 53 0 0
0.3357 0.3547 -2.1560 0.796 0.437 0.418 104 80 42 0 0
0.3393 0.3563 -2.1645 0.756 0.590 0.281 106 82 44 0 0
0.3422 0.3576 -2.1677 0.691 0.471 0.548 99 75 39 0 0
0.3601 0.3654 -2.1864 0.889 0.293 0.352 102 78 42 0 0
0.3617 0.3661 -2.1908 0.551 0.436 0.712 97 73 37 0 0
0.3689 0.3692 -2.2077 0.770 0.215 0.601 98 76 39 0 0
0.3962 0.3812 -2.2347 0.835 0.446 0.324 72 61 23 0 0
0.0334 0.2176 -1.3883 0.402 0.365 0.840 107 85 50 0 0
0.0377 0.2195 -1.3911 0.573 0.354 0.739 121 98 63 0 0
0.1052 0.2491 -1.4451 0.739 0.561 0.373 136 109 70 0 0
0.1623 0.2741 -1.5794 0.654 0.687 0.315 145 116 68 0 0
0.2569 0.3157 -1.6364 0.589 0.807 0.047 97 75 43 0 0
0.1975 0.2894 -1.7566 0.385 0.794 0.471 111 88 55 0 0
0.2002 0.2905 -1.7601 0.375 0.805 0.460 113 89 57 0 0
0.2173 0.2981 -1.7748 0.191 0.873 0.448 96 73 41 0 0
0.2123 0.2958 -1.8331 0.813 0.402 0.422 97 78 43 0 0
0.2149 0.2969 -1.8367 0.814 0.424 0.396 85 66 33 0 0
0.2139 0.2965 -1.8429 0.949 0.246 0.198 92 73 43 0 0
0.2208 0.2995 -1.8543 0.851 0.494 0.177 88 67 38 0 0
0.2229 0.3004 -1.8860 0.755 0.306 0.580 95 75 42 0 0
0.2261 0.3017 -1.8892 0.591 0.392 0.705 95 74 42 0 0
0.2278 0.3025 -1.8934 0.710 0.565 0.419 97 77 45 0 0
0.2297 0.3033 -1.8975 0.710 0.565 0.419 94 73 41 0 0
0.2329 0.3047 -1.9231 0.719 0.363 0.593 91 71 38 0 0
0.2375 0.3067 -1.9306 0.723 0.178 0.668 94 74 41 0 0
0.2614 0.3172 -1.9964 0.871 0.410 0.271 99 76 44 0 0
0.2695 0.3207 -1.9954 0.884 0.199 0.424 95 72 40 0 0
0.2649 0.3187 -2.0222 0.803 0.481 0.351 89 69 36 0 0
0.2767 0.3238 -2.0584 0.561 0.641 0.524 103 79 48 0 0
0.2944 0.3316 -2.0895 0.772 0.611 0.174 92 70 36 0 0
0.2964 0.3324 -2.0994 0.700 0.650 0.297 105 78 43 0 0
0.2978 0.3330 -2.1040 0.700 0.650 0.297 148 119 72 0 0
0.2994 0.3338 -2.1084 0.688 0.637 0.347 194 163 108 0 0
0.3010 0.3344 -2.1129 0.741 0.589 0.322 196 165 113 0 0
0.3243 0.3447 -2.1212 0.795 0.173 0.581 102 79 37 0 0
0.3354 0.3495 -2.1522 0.695 0.626 0.353 93 71 34 0 0
0.3374 0.3504 -2.1562 0.789 0.525 0.320 101 77 39 0 0
0.3388 0.3510 -2.1608 0.789 0.525 0.320 105 81 43 0 0
0.3412 0.3521 -2.1645 0.811 0.559 0.173 101 77 39 0 0
0.3666 0.3632 -2.2057 0.920 0.211 0.330 95 73 34 0 0
0.3930 0.3748 -2.2337 0.678 0.304 0.669 73 60 25 0 0
0.3990 0.3775 -2.2338 0.859 0.384 0.340 79 68 30 0 0
0.1044 0.2439 -1.4616 0.679 0.623 0.388 119 90 59 0 0
0.1214 0.2513 -1.4925 0.601 0.709 0.368 148 123 81 0 0
0.1249 0.2529 -1.4955 0.156 0.645 0.748 156 125 81 0 0
0.1615 0.2689 -1.5656 0.532 0.197 0.824 142 116 69 0 0
0.1687 0.2721 -1.5663 0.952 -0.205 0.229 130 103 56 0 0
0.2422 0.3045 -1.6217 0.549 0.545 0.633 139 111 75 0 0
0.2536 0.3095 -1.6347 0.701 0.255 0.667 103 83 52 0 0
0.2027 0.2868 -1.7060 0.910 0.400 0.113 82 63 39 0 0
0.2015 0.2862 -1.7122 0.741 0.644 0.190 88 68 43 0 0
0.2014 0.2862 -1.7229 0.708 0.704 0.065 91 72 45 0 0
0.2231 0.2955 -1.8540 0.851 0.494 0.177 88 67 38 0 0
0.2262 0.2968 -1.8905 0.809 0.096 0.580 94 73 42 0 0
0.2262 0.2968 -1.8961 0.876 0.183 0.445 95 74 43 0 0
0.2280 0.2976 -1.9003 0.765 0.288 0.576 94 73 41 0 0
0.2585 0.3109 -1.9661 0.491 0.743 0.454 97 77 44 0 0
0.2613 0.3121 -1.9866 0.813 0.530 0.242 97 74 42 0 0
0.2639 0.3132 -1.9959 0.855 0.337 0.394 98 75 43 0 0
0.2740 0.3177 -1.9932 0.837 0.428 0.341 97 74 42 0 0
0.2736 0.3175 -2.0107 0.548 0.836 0.021 93 73 40 0 0
0.2736 0.3175 -2.0164 0.646 0.737 -0.196 92 72 39 0 0
0.2770 0.3189 -2.0597 0.875 0.480 0.060 106 81 46 0 0
0.3048 0.3310 -2.1112 0.544 0.711 0.446 199 168 114 0 0
0.3248 0.3398 -2.1283 0.868 0.308 0.389 94 72 34 0 0
0.3649 0.3574 -2.2032 0.931 0.246 0.269 92 71 29 0 0
0.4027 0.3741 -2.2319 0.781 0.235 0.578 78 67 29 0 0
-0.0448 0.1735 -1.2293 0.337 0.349 0.874 121 98 68 0 0
0.0320 0.2071 -1.3808 0.222 0.631 0.743 135 110 72 0 0
0.0367 0.2092 -1.3834 0.213 0.583 0.784 150 128 88 0 0
0.0412 0.2111 -1.3861 0.213 0.583 0.784 122 98 59 0 0
0.1058 0.2397 -1.4167 0.904 0.391 0.173 170 142 96 0 0
0.1458 0.2572 -1.5148 0.604 0.681 0.413 102 80 38 0 0
0.1464 0.2575 -1.5195 0.947 0.208 0.245 98 75 36 0 0
0.1382 0.2537 -1.5347 0.849 0.523 -0.075 108 85 43 0 0
0.1384 0.2538 -1.5397 0.816 0.578 0.008 94 71 30 0 0
0.1726 0.2689 -1.5804 0.789 0.382 0.481 152 120 74 0 0
0.2423 0.2997 -1.6177 0.549 0.545 0.633 163 137 97 0 0
0.2048 0.2827 -1.7218 0.416 0.883 0.218 79 61 37 0 0
0.2245 0.2912 -1.8158 0.696 0.635 0.335 93 74 39 0 0
0.2618 0.3073 -1.9650 0.907 0.266 0.327 97 74 42 0 0
0.2610 0.3069 -1.9714 0.814 0.190 0.548 94 71 40 0 0
0.2741 0.3127 -1.9947 0.818 -0.061 0.572 93 73 40 0 0
0.2718 0.3116 -2.0196 0.910 0.411 -0.054 92 72 39 0 0
0.2974 0.3228 -2.0611 0.903 0.250 0.349 97 76 40 0 0
0.3057 0.3265 -2.0596 0.934 0.356 -0.009 90 68 31 0 0
0.3014 0.3246 -2.0692 0.598 0.210 0.773 93 71 36 0 0
0.3438 0.3431 -2.1657 0.809 0.528 0.259 98 75 39 0 0
0.4084 0.3716 -2.2342 0.850 0.273 0.450 86 77 35 0 0
0.4075 0.3711 -2.2651 0.635 0.716 0.290 121 116 106 0 0
-0.0251 0.1772 -1.2262 0.007 0.523 0.853 110 91 61 0 0
-0.0177 0.1805 -1.2472 0.324 0.558 0.764 111 91 67 0 0
0.0408 0.2060 -1.3822 0.213 0.583 0.784 124 103 70 0 0
0.1285 0.2447 -1.4955 0.787 0.342 0.513 182 151 94 0 0
0.1509 0.2545 -1.5179 0.946 0.143 0.291 96 73 35 0 0
0.2194 0.2840 -1.7991 0.953 0.093 0.287 104 81 48 0 0
0.2243 0.2862 -1.8064 0.866 0.383 0.321 110 87 47 0 0
0.2259 0.2869 -1.8106 0.845 0.372 0.385 112 88 54 0 0
0.2271 0.2874 -1.8152 0.755 0.479 0.449 91 72 38 0 0
0.2619 0.3023 -1.9664 0.946 0.173 0.273 98 75 43 0 0
0.2623 0.3025 -1.9718 0.814 0.190 0.548 94 71 40 0 0
0.2630 0.3028 -1.9769 0.584 0.323 0.745 99 78 46 0 0
0.3074 0.3222 -2.0598 0.934 0.356 -0.009 87 64 30 0 0
0.4099 0.3673 -2.2345 0.850 0.273 0.450 83 73 32 0 0
0.4120 0.3682 -2.2384 0.727 0.605 0.324 87 75 32 0 0
-0.1858 0.1006 -1.2119 -0.373 0.682 0.629 191 191 193 0 0
-0.0267 0.1716 -1.2277 0.035 0.351 0.936 99 86 54 0 0
-0.0186 0.1752 -1.2289 -0.012 0.258 0.966 104 90 57 0 0
-0.0152 0.1766 -1.2518 0.956 -0.267 -0.124 117 98 73 0 0
0.0989 0.2269 -1.4024 0.653 0.347 0.673 156 128 81 0 0
0.1100 0.2318 -1.4263 0.679 0.216 0.702 187 157 109 0 0
0.1143 0.2337 -1.4290 0.867 0.322 0.381 171 143 96 0 0
0.1070 0.2304 -1.4481 0.669 0.526 0.525 142 114 78 0 0
0.1369 0.2436 -1.4714 0.733 0.631 0.255 128 99 61 0 0
0.1275 0.2393 -1.4972 0.822 0.538 0.190 203 170 113 0 0
0.1507 0.2496 -1.5039 0.283 0.955 0.094 97 69 35 0 0
0.2181 0.2788 -1.7258 0.619 0.587 0.522 67 54 30 0 0
0.2134 0.2766 -1.7505 0.545 0.660 0.517 102 79 48 0 0
0.2253 0.2819 -1.7528 0.176 0.782 0.598 120 98 58 0 0
0.2321 0.2848 -1.7695 0.788 0.354 0.503 99 76 42 0 0
0.2201 0.2794 -1.7999 0.755 0.287 0.590 99 78 45 0 0
0.2258 0.2819 -1.8066 0.850 0.318 0.420 115 89 51 0 0
0.2276 0.2826 -1.8108 0.850 0.318 0.420 124 100 64 0 0
0.2288 0.2831 -1.8154 0.885 0.355 0.301 85 65 32 0 0
0.2641 0.2982 -1.9776 0.526 0.173 0.833 92 71 39 0 0
