ply
format ascii 1.0
element vertex 861
property float x
property float y
property float z
property float nx
property float ny
property float nz
property uchar diffuse_red
property uchar diffuse_green
property uchar diffuse_blue
property uchar class
property uchar detection
end_header
0.4284 0.0650 -2.0053 0.707 -0.699 0.106 110 87 50 0 0
0.4476 0.0526 -2.0640 0.881 0.113 0.460 111 85 47 0 0
0.4550 0.0479 -2.0866 0.876 -0.370 0.311 167 136 86 0 0
0.4603 0.0445 -2.1052 0.629 -0.685 0.368 121 93 52 0 0
0.5687 -0.0291 -2.2635 0.914 -0.051 0.402 139 135 127 0 0
0.5724 -0.0315 -2.2716 0.804 -0.140 0.578 184 182 182 0 0
0.5766 -0.0343 -2.2792 0.854 -0.277 0.441 199 198 201 0 0
0.2871 0.1505 -1.5854 0.797 -0.103 0.596 112 91 63 0 0
0.2911 0.1478 -1.5881 0.484 -0.081 0.871 126 104 74 0 0
0.2958 0.1445 -1.5904 0.547 -0.026 0.837 106 85 58 0 0
0.3548 0.1030 -1.6031 0.759 0.032 0.650 100 80 54 0 0
0.4296 0.0583 -2.0018 0.649 -0.464 0.603 114 91 52 0 0
0.4570 0.0410 -2.1060 0.629 -0.685 0.368 129 102 60 0 0
0.5682 -0.0349 -2.2431 0.898 -0.184 0.400 78 69 40 0 0
0.5661 -0.0331 -2.2575 0.959 -0.116 0.257 97 91 73 0 0
0.5677 -0.0341 -2.2619 0.873 -0.143 0.467 125 121 110 0 0
0.5698 -0.0355 -2.2656 0.961 -0.176 0.214 155 153 149 0 0
0.5720 -0.0369 -2.2753 0.951 -0.152 0.268 190 189 189 0 0
0.5747 -0.0387 -2.2784 0.854 -0.277 0.441 197 196 199 0 0
0.2858 0.1456 -1.5845 0.797 -0.103 0.596 87 69 42 0 0
0.2889 0.1435 -1.5879 0.514 -0.058 0.856 106 89 62 0 0
0.3124 0.1270 -1.5933 0.471 -0.185 0.863 115 94 66 0 0
0.4269 0.0544 -2.0020 0.649 -0.464 0.603 114 90 52 0 0
0.4301 0.0521 -2.0048 0.347 -0.475 0.809 114 89 52 0 0
0.4143 0.0637 -2.0253 0.479 -0.007 0.878 122 95 59 0 0
0.4489 0.0405 -2.0875 0.913 -0.113 0.391 120 91 44 0 0
0.4557 0.0361 -2.1048 0.866 -0.355 0.353 139 111 67 0 0
0.5661 -0.0387 -2.2608 0.924 -0.144 0.355 117 109 95 0 0
0.5674 -0.0396 -2.2655 0.991 -0.130 0.026 147 141 135 0 0
0.5701 -0.0413 -2.2747 0.624 -0.186 0.759 186 186 186 0 0
0.5723 -0.0428 -2.2783 0.847 -0.268 0.460 195 194 195 0 0
0.2596 0.1575 -1.5461 0.921 0.163 0.355 114 96 65 0 0
0.2827 0.1420 -1.5849 0.834 0.301 0.462 108 88 59 0 0
0.2859 0.1399 -1.5936 0.644 -0.029 0.764 118 101 76 0 0
0.3569 0.0951 -1.8581 0.941 0.127 0.313 106 84 53 0 0
0.4137 0.0585 -2.0412 0.595 -0.217 0.774 167 139 85 0 0
0.4459 0.0369 -2.0939 0.843 -0.096 0.529 137 110 63 0 0
0.4537 0.0316 -2.1042 0.854 -0.319 0.410 152 124 81 0 0
0.4815 0.0123 -2.1185 0.855 -0.516 -0.053 121 93 45 0 0
0.5702 -0.0473 -2.2656 0.739 -0.285 0.611 164 163 159 0 0
0.5773 -0.0519 -2.2821 0.825 -0.258 0.503 201 201 203 0 0
0.2880 0.1326 -1.5904 0.689 0.226 0.688 106 87 60 0 0
0.3690 0.0763 -1.6197 0.410 -0.029 0.912 115 94 66 0 0
0.3903 0.0669 -1.9196 0.866 0.025 0.499 104 81 47 0 0
0.4089 0.0549 -1.9786 0.762 -0.331 0.556 100 80 45 0 0
0.4083 0.0555 -1.9850 0.708 -0.608 0.360 101 80 45 0 0
0.4111 0.0535 -1.9883 0.785 -0.225 0.577 105 82 48 0 0
0.4124 0.0532 -2.0223 0.594 -0.120 0.796 108 84 46 0 0
0.4250 0.0449 -2.0460 0.669 0.134 0.731 161 130 84 0 0
0.5736 -0.0550 -2.2834 0.898 -0.099 0.429 201 201 203 0 0
0.5755 -0.0563 -2.2874 0.774 -0.633 -0.032 204 204 206 0 0
0.2531 0.1496 -1.4933 0.802 -0.379 0.462 112 92 66 0 0
0.2545 0.1487 -1.4978 0.804 -0.166 0.571 110 90 64 0 0
0.2849 0.1288 -1.5745 0.832 -0.024 0.555 118 97 66 0 0
0.2874 0.1271 -1.5783 0.832 -0.024 0.555 119 98 66 0 0
0.2898 0.1255 -1.5820 0.832 -0.024 0.555 115 94 63 0 0
0.3674 0.0718 -1.6191 0.423 0.046 0.905 104 83 57 0 0
0.3711 0.0693 -1.6217 0.463 -0.119 0.878 118 97 71 0 0
0.3762 0.0658 -1.6234 0.438 -0.053 0.897 115 93 69 0 0
0.3397 0.0941 -1.7826 0.726 0.236 0.646 101 80 52 0 0
0.3404 0.0937 -1.7877 0.971 -0.122 -0.207 93 73 45 0 0
0.3491 0.0884 -1.8317 0.694 -0.318 0.646 113 90 55 0 0
0.3721 0.0737 -1.9100 0.731 -0.325 0.599 109 87 55 0 0
0.3822 0.0666 -1.9071 0.764 -0.200 0.614 105 83 51 0 0
0.3846 0.0649 -1.9108 0.764 -0.200 0.614 105 83 51 0 0
0.3893 0.0617 -1.9125 0.835 -0.446 0.321 103 82 48 0 0
0.3906 0.0608 -1.9171 0.866 -0.335 0.372 84 63 29 0 0
0.3984 0.0560 -1.9508 0.875 -0.283 0.393 106 85 50 0 0
0.4243 0.0395 -2.0443 0.797 0.255 0.547 164 133 82 0 0
0.4318 0.0344 -2.0491 0.750 -0.309 0.585 101 78 46 0 0
0.2549 0.1426 -1.4959 0.801 -0.255 0.541 108 87 61 0 0
0.2574 0.1409 -1.4996 0.903 -0.298 0.308 107 86 59 0 0
0.2590 0.1399 -1.5039 0.995 0.097 -0.034 105 84 57 0 0
0.2587 0.1402 -1.5095 0.996 -0.058 -0.062 107 86 59 0 0
0.2737 0.1305 -1.5534 0.962 0.071 0.263 115 94 59 0 0
0.3118 0.1045 -1.5867 0.701 0.388 0.599 95 73 43 0 0
0.3157 0.1018 -1.5894 0.709 0.385 0.591 116 91 60 0 0
0.3215 0.0978 -1.5908 0.874 0.129 0.468 133 108 75 0 0
0.3815 0.0612 -1.9055 0.610 -0.499 0.616 108 85 54 0 0
0.3975 0.0507 -1.9435 0.746 -0.403 0.529 107 85 48 0 0
0.3976 0.0507 -1.9492 0.642 -0.615 0.458 107 85 50 0 0
0.3987 0.0500 -1.9541 0.887 -0.419 0.194 101 78 44 0 0
0.4171 0.0377 -1.9841 0.904 -0.233 0.359 100 77 43 0 0
0.5649 -0.0605 -2.2754 0.907 -0.046 0.419 182 182 184 0 0
0.5682 -0.0628 -2.2778 0.836 0.016 0.548 193 193 195 0 0
0.5709 -0.0646 -2.2808 0.949 -0.232 0.216 198 198 200 0 0
0.2787 0.1212 -1.5483 0.921 0.037 0.389 113 90 53 0 0
0.2797 0.1206 -1.5584 0.803 -0.166 0.572 118 95 57 0 0
0.2822 0.1189 -1.5621 0.942 -0.189 0.276 114 92 54 0 0
0.2876 0.1154 -1.5746 0.695 0.384 0.608 126 103 65 0 0
0.3021 0.1055 -1.5863 0.796 0.467 0.386 114 91 56 0 0
0.3834 0.0539 -1.8959 0.801 -0.517 0.302 110 87 56 0 0
0.3843 0.0535 -1.9067 0.832 -0.527 0.174 100 77 46 0 0
0.3952 0.0465 -1.9433 0.746 -0.403 0.529 107 84 48 0 0
0.3947 0.0469 -1.9495 0.665 -0.568 0.485 104 82 47 0 0
0.4174 0.0318 -1.9873 0.807 -0.081 0.584 102 79 45 0 0
0.4239 0.0273 -1.9930 0.763 -0.106 0.638 102 79 45 0 0
0.4226 0.0285 -2.0059 0.577 0.013 0.817 100 78 41 0 0
0.5646 -0.0660 -2.2729 0.911 -0.074 0.406 176 176 176 0 0
0.5663 -0.0672 -2.2770 0.911 -0.074 0.406 189 189 191 0 0
0.5676 -0.0680 -2.2817 0.735 -0.493 0.465 198 198 200 0 0
0.2379 0.1424 -1.4555 0.914 0.293 0.280 107 90 64 0 0
0.2831 0.1125 -1.5491 0.972 0.050 0.231 112 89 51 0 0
0.3386 0.0766 -1.7218 0.790 -0.062 0.610 103 84 54 0 0
0.3364 0.0782 -1.7290 0.902 -0.422 0.097 102 81 50 0 0
0.3555 0.0665 -1.8316 0.961 0.006 0.276 110 87 53 0 0
0.3613 0.0625 -1.8326 0.680 -0.550 0.485 114 91 57 0 0
0.3862 0.0465 -1.9143 0.805 -0.486 0.339 107 83 50 0 0
0.3876 0.0456 -1.9189 0.805 -0.486 0.339 99 74 41 0 0
0.3945 0.0412 -1.9474 0.811 -0.092 0.578 107 85 49 0 0
0.4046 0.0345 -1.9616 0.782 -0.620 -0.073 104 81 47 0 0
0.4165 0.0266 -1.9858 0.863 -0.108 0.494 100 77 43 0 0
0.4703 -0.0088 -2.1110 0.900 -0.351 0.260 104 79 38 0 0
0.5635 -0.0710 -2.2713 0.911 -0.074 0.406 171 170 169 0 0
0.5630 -0.0706 -2.2780 0.898 -0.125 0.423 186 185 187 0 0
0.5758 -0.0796 -2.2697 0.569 -0.242 0.786 195 195 197 0 0
0.2238 0.1462 -1.4467 0.704 0.004 0.710 98 81 55 0 0
0.3063 0.0912 -1.5800 0.417 -0.060 0.907 114 92 55 0 0
0.3105 0.0883 -1.5824 0.431 -0.076 0.899 118 95 62 0 0
0.3734 0.0453 -1.6182 0.529 0.084 0.844 106 87 60 0 0
0.3375 0.0716 -1.7207 0.790 -0.046 0.611 100 80 51 0 0
0.4171 0.0203 -1.9772 0.660 -0.692 0.293 101 78 43 0 0
0.4163 0.0209 -1.9836 0.753 -0.461 0.469 99 76 40 0 0
0.4233 0.0163 -2.0005 0.622 -0.598 0.506 95 71 36 0 0
0.4524 -0.0020 -2.1203 0.862 -0.364 0.354 92 67 30 0 0
0.4691 -0.0138 -2.1097 0.717 -0.277 0.639 103 78 37 0 0
0.5547 -0.0711 -2.2359 0.801 -0.403 0.444 67 54 29 0 0
0.5629 -0.0764 -2.2692 0.919 -0.108 0.380 165 162 160 0 0
0.5617 -0.0754 -2.2766 0.796 -0.173 0.580 182 181 182 0 0
0.1782 0.1666 -1.0594 0.927 -0.345 0.146 185 186 190 0 0
0.1734 0.1700 -1.0663 0.986 0.155 0.061 185 186 191 0 0
0.1774 0.1673 -1.0694 0.976 -0.220 0.006 185 186 191 0 0
0.2063 0.1523 -1.4239 0.938 0.044 0.344 106 88 64 0 0
0.2186 0.1440 -1.4377 0.910 0.086 0.406 102 85 60 0 0
0.3125 0.0813 -1.5847 0.627 -0.247 0.739 112 88 56 0 0
0.3372 0.0645 -1.6049 0.865 -0.015 0.502 147 121 80 0 0
0.4005 0.0258 -1.9665 0.252 -0.689 0.680 103 80 44 0 0
0.4137 0.0168 -1.9779 0.660 -0.692 0.293 98 75 40 0 0
0.4154 0.0158 -1.9880 0.605 -0.719 0.341 98 76 39 0 0
0.4167 0.0150 -1.9926 0.650 -0.723 0.236 97 75 38 0 0
0.4177 0.0145 -2.0034 0.753 -0.233 0.616 91 68 33 0 0
0.4452 -0.0035 -2.0772 0.708 -0.538 0.457 101 77 42 0 0
0.4746 -0.0232 -2.1195 0.820 -0.562 0.112 103 78 38 0 0
0.5292 -0.0594 -2.2186 0.740 -0.301 0.601 128 101 57 0 0
0.5539 -0.0762 -2.2401 0.746 -0.386 0.542 66 53 30 0 0
0.5610 -0.0807 -2.2686 0.970 -0.231 0.077 157 154 149 0 0
0.5610 -0.0806 -2.2746 0.729 -0.269 0.629 179 179 179 0 0
0.1750 0.1632 -1.0500 0.916 -0.343 0.205 184 185 189 0 0
0.1758 0.1627 -1.0545 0.918 -0.346 0.194 184 185 189 0 0
0.1765 0.1623 -1.0590 0.927 -0.345 0.146 185 186 190 0 0
0.1763 0.1626 -1.0737 0.976 -0.220 0.006 186 187 190 0 0
0.1783 0.1613 -1.0776 0.650 -0.752 -0.108 186 187 190 0 0
0.1772 0.1621 -1.0830 0.787 -0.605 -0.120 186 187 189 0 0
0.1759 0.1630 -1.0884 0.868 -0.481 -0.126 186 187 189 0 0
0.1566 0.1765 -1.1019 0.827 0.562 -0.032 187 188 190 0 0
0.1575 0.1759 -1.1064 0.842 0.531 -0.098 187 188 190 0 0
0.1563 0.1768 -1.1119 0.833 0.544 -0.099 188 189 191 0 0
0.0773 0.2351 -1.4160 0.315 0.651 0.690 129 119 111 0 0
0.2077 0.1456 -1.4215 0.873 -0.065 0.483 113 96 71 0 0
0.2122 0.1425 -1.4241 0.993 -0.076 0.088 80 64 38 0 0
0.2181 0.1387 -1.4417 0.809 0.115 0.576 93 75 51 0 0
0.2209 0.1368 -1.4453 0.809 0.115 0.576 110 92 68 0 0
0.2544 0.1142 -1.4828 0.844 0.280 0.458 85 69 49 0 0
0.3036 0.0815 -1.5676 0.984 -0.136 0.114 143 114 73 0 0
0.3073 0.0791 -1.5758 0.713 -0.701 0.001 69 49 23 0 0
0.3093 0.0777 -1.5798 0.776 -0.285 0.564 101 80 50 0 0
0.3115 0.0762 -1.5836 0.776 -0.285 0.564 125 99 65 0 0
0.3370 0.0590 -1.6033 0.787 -0.154 0.598 183 159 111 0 0
0.3923 0.0214 -1.6380 0.830 -0.303 0.469 99 77 47 0 0
0.3780 0.0348 -1.9091 0.533 -0.559 0.636 103 80 46 0 0
0.3798 0.0336 -1.9132 0.670 -0.570 0.475 105 82 48 0 0
0.3877 0.0283 -1.9236 0.942 -0.260 0.211 103 80 47 0 0
0.3886 0.0277 -1.9286 0.942 -0.260 0.211 101 79 44 0 0
0.3916 0.0257 -1.9317 0.888 -0.399 0.230 97 74 39 0 0
0.4016 0.0191 -1.9518 0.497 -0.682 0.537 99 77 40 0 0
0.4000 0.0204 -1.9647 0.657 0.031 0.754 96 74 37 0 0
0.4098 0.0137 -1.9733 0.669 -0.589 0.454 99 76 42 0 0
0.4197 0.0073 -1.9992 0.936 -0.131 0.327 92 71 36 0 0
0.4507 -0.0125 -2.1168 0.803 -0.571 0.170 92 68 32 0 0
0.4711 -0.0265 -2.1146 0.767 -0.431 0.475 100 75 35 0 0
0.4842 -0.0350 -2.1550 0.813 -0.398 0.425 108 83 42 0 0
0.5843 -0.1023 -2.2760 0.735 -0.558 -0.387 206 206 208 0 0
0.1606 0.1671 -1.0118 0.945 0.260 0.198 182 183 187 0 0
0.1734 0.1588 -1.0497 0.935 -0.294 0.200 185 186 186 0 0
0.1741 0.1583 -1.0542 0.917 -0.367 0.155 184 185 185 0 0
0.1748 0.1579 -1.0587 0.927 -0.345 0.146 182 182 181 0 0
0.1756 0.1576 -1.0729 0.936 -0.351 -0.035 179 179 177 0 0
0.1747 0.1583 -1.0781 0.650 -0.752 -0.108 185 185 184 0 0
0.1742 0.1586 -1.0832 0.868 -0.481 -0.126 186 186 186 0 0
0.1737 0.1590 -1.0883 0.868 -0.481 -0.126 186 186 187 0 0
0.2027 0.1431 -1.4124 0.504 -0.609 0.613 99 82 57 0 0
0.3052 0.0748 -1.5702 0.714 -0.634 0.296 88 68 32 0 0
0.3084 0.0727 -1.5786 0.734 -0.537 0.415 122 101 71 0 0
0.3097 0.0719 -1.5831 0.710 -0.685 0.160 133 111 76 0 0
0.3905 0.0171 -1.6375 0.830 -0.303 0.469 89 70 40 0 0
0.3862 0.0236 -1.9227 0.994 -0.099 0.050 106 83 50 0 0
0.3869 0.0231 -1.9278 0.963 -0.196 0.184 102 79 45 0 0
0.3975 0.0160 -1.9416 0.962 -0.212 0.171 96 73 39 0 0
0.4223 -0.0003 -1.9945 0.771 -0.054 0.635 90 69 34 0 0
0.4500 -0.0179 -2.1091 0.932 -0.122 0.341 95 74 35 0 0
0.4733 -0.0335 -2.1396 0.980 0.039 0.196 103 77 36 0 0
0.4810 -0.0387 -2.1437 0.883 -0.173 0.436 103 77 37 0 0
0.5268 -0.0695 -2.1978 0.756 -0.575 0.313 132 103 59 0 0
0.5257 -0.0686 -2.2050 0.663 -0.709 0.240 135 106 62 0 0
0.5779 -0.1035 -2.2804 0.095 -0.485 0.870 205 205 207 0 0
0.2766 0.0881 -1.5184 0.968 -0.226 0.110 96 75 48 0 0
0.2740 0.0901 -1.5360 0.975 -0.064 0.215 100 77 39 0 0
0.2865 0.0816 -1.5437 0.970 0.093 0.225 145 117 68 0 0
0.2963 0.0750 -1.5531 0.771 0.051 0.635 145 116 72 0 0
0.3103 0.0659 -1.5863 0.775 -0.094 0.625 128 106 72 0 0
0.3608 0.0341 -1.8226 0.876 -0.455 0.158 110 87 52 0 0
0.3615 0.0337 -1.8277 0.876 -0.455 0.158 106 83 49 0 0
0.3608 0.0342 -1.8339 0.853 -0.484 -0.197 105 82 48 0 0
0.3711 0.0276 -1.8762 0.874 -0.148 0.462 106 83 51 0 0
0.3867 0.0174 -1.9144 0.826 -0.397 0.400 103 80 46 0 0
0.3883 0.0164 -1.9187 0.826 -0.397 0.400 104 81 47 0 0
0.3899 0.0153 -1.9231 0.827 -0.387 0.407 98 75 41 0 0
0.4147 -0.0011 -1.9701 0.841 -0.406 0.359 96 73 39 0 0
0.4134 0.0000 -1.9887 0.885 -0.271 0.378 91 68 34 0 0
0.4179 -0.0023 -2.0546 0.877 -0.256 0.408 103 80 45 0 0
0.4771 -0.0418 -2.1391 0.833 -0.368 0.413 102 75 35 0 0
0.4788 -0.0429 -2.1434 0.833 -0.368 0.413 103 77 36 0 0
0.4921 -0.0518 -2.1656 0.662 -0.538 0.522 95 70 32 0 0
0.0581 0.2302 -1.4058 0.244 0.600 0.762 122 116 108 0 0
0.2568 0.0955 -1.4766 0.838 0.272 0.474 86 67 36 0 0
0.2715 0.0858 -1.5041 0.922 0.005 0.388 119 96 66 0 0
0.2740 0.0841 -1.5078 0.987 0.012 0.157 100 79 52 0 0
0.2712 0.0861 -1.5149 0.943 -0.069 0.325 130 109 78 0 0
0.2865 0.0760 -1.5473 0.908 -0.015 0.418 137 107 58 0 0
0.2960 0.0696 -1.5516 0.621 0.106 0.777 144 115 72 0 0
0.3494 0.0351 -1.7296 0.832 -0.444 0.333 74 55 31 0 0
0.3565 0.0309 -1.7848 0.977 -0.155 -0.143 120 99 61 0 0
0.3559 0.0314 -1.7909 0.980 -0.144 -0.135 108 87 55 0 0
0.3551 0.0320 -1.7971 0.980 -0.144 -0.135 113 90 57 0 0
0.3532 0.0334 -1.8154 0.860 -0.068 0.506 110 88 51 0 0
0.3583 0.0303 -1.8395 0.882 -0.463 -0.084 103 80 46 0 0
0.3586 0.0301 -1.8449 0.945 -0.327 -0.006 103 80 46 0 0
0.3643 0.0262 -1.8459 0.969 -0.182 0.168 104 81 47 0 0
0.3861 0.0121 -1.9184 0.826 -0.397 0.400 103 80 46 0 0
0.3877 0.0111 -1.9227 0.827 -0.387 0.407 95 72 38 0 0
0.3898 0.0097 -1.9266 0.879 -0.193 0.436 83 60 26 0 0
0.3961 0.0054 -1.9326 0.848 -0.474 0.237 94 71 37 0 0
0.3961 0.0055 -1.9383 0.831 -0.479 0.281 95 72 38 0 0
0.3980 0.0043 -1.9424 0.927 -0.355 0.117 95 72 38 0 0
0.4117 -0.0045 -1.9879 0.885 -0.271 0.378 89 66 34 0 0
0.4464 -0.0271 -2.0899 0.922 -0.253 0.292 167 134 80 0 0
0.4477 -0.0280 -2.0946 0.922 -0.253 0.292 176 142 90 0 0
0.5174 -0.0743 -2.2025 0.562 -0.635 0.530 121 94 51 0 0
0.5375 -0.0878 -2.2230 0.835 -0.329 0.442 119 92 49 0 0
0.5522 -0.0972 -2.2793 0.980 0.037 0.195 176 175 175 0 0
0.2677 0.0827 -1.5049 0.876 0.174 0.450 116 95 67 0 0
0.2679 0.0827 -1.5101 0.955 -0.092 0.281 97 77 50 0 0
0.2688 0.0821 -1.5148 0.899 -0.156 0.410 121 99 66 0 0
0.2749 0.0780 -1.5162 0.812 0.225 0.538 95 75 45 0 0
0.2852 0.0712 -1.5412 0.745 0.109 0.658 157 127 77 0 0
0.2862 0.0706 -1.5459 0.963 0.054 0.263 155 123 76 0 0
0.2867 0.0703 -1.5509 0.989 0.076 0.128 136 106 61 0 0
0.3471 0.0310 -1.7294 0.832 -0.444 0.333 72 54 30 0 0
0.3547 0.0265 -1.7899 0.987 -0.051 -0.151 122 101 67 0 0
0.3523 0.0284 -1.8141 0.803 -0.216 0.556 114 90 52 0 0
0.3623 0.0218 -1.8398 0.975 -0.168 0.144 102 79 45 0 0
0.3626 0.0217 -1.8452 0.949 -0.291 0.123 102 79 46 0 0
0.3812 0.0093 -1.8749 0.895 -0.167 0.415 100 79 43 0 0
0.3845 0.0073 -1.8948 0.974 -0.173 -0.147 97 74 40 0 0
0.3855 0.0068 -1.9168 0.935 -0.124 0.333 98 75 41 0 0
0.3940 0.0011 -1.9265 0.896 -0.254 0.365 96 73 39 0 0
0.3938 0.0013 -1.9324 0.848 -0.474 0.237 91 68 34 0 0
0.3990 -0.0021 -1.9393 0.645 -0.402 0.650 94 71 37 0 0
0.4049 -0.0059 -1.9686 0.780 -0.474 0.408 88 65 31 0 0
0.4065 -0.0069 -1.9729 0.780 -0.474 0.408 94 71 37 0 0
0.4261 -0.0201 -1.9841 0.830 -0.316 0.459 87 64 32 0 0
0.4236 -0.0183 -1.9979 0.769 -0.568 0.292 91 68 36 0 0
0.4126 -0.0103 -2.0431 0.932 0.054 0.358 186 156 93 0 0
0.4140 -0.0112 -2.0476 0.955 0.080 0.284 180 149 94 0 0
0.4150 -0.0119 -2.0525 0.950 0.226 0.217 129 104 58 0 0
0.5359 -0.0924 -2.2220 0.750 -0.532 0.393 120 93 51 0 0
0.5530 -0.1035 -2.2756 0.917 0.054 0.395 171 171 169 0 0
0.2644 0.0793 -1.5002 0.969 0.242 0.042 119 101 74 0 0
0.2693 0.0761 -1.5076 0.662 -0.353 0.661 95 73 45 0 0
0.2670 0.0777 -1.5144 0.839 -0.429 0.335 129 105 72 0 0
0.3037 0.0533 -1.5696 0.929 -0.343 0.142 82 65 28 0 0
0.3339 0.0331 -1.6020 0.690 -0.128 0.712 126 103 68 0 0
0.3788 0.0029 -1.6282 0.758 -0.294 0.582 78 57 34 0 0
0.3813 0.0013 -1.6318 0.645 -0.391 0.657 71 51 33 0 0
0.3863 -0.0020 -1.6387 0.735 -0.481 0.479 67 50 31 0 0
0.3460 0.0261 -1.7283 0.796 -0.468 0.385 69 51 26 0 0
0.3694 0.0116 -1.8657 0.693 -0.404 0.597 102 79 45 0 0
0.3808 0.0040 -1.8787 0.850 -0.321 0.418 100 77 43 0 0
0.3836 0.0021 -1.8820 0.931 -0.201 0.305 103 81 47 0 0
0.3851 0.0014 -1.9149 0.954 -0.300 -0.002 99 76 42 0 0
0.3891 -0.0013 -1.9171 0.835 -0.535 -0.127 99 76 42 0 0
0.3904 -0.0021 -1.9274 0.848 -0.474 0.237 94 71 37 0 0
0.3914 -0.0028 -1.9322 0.848 -0.474 0.237 91 68 34 0 0
0.3959 -0.0058 -1.9398 0.641 -0.546 0.539 92 69 36 0 0
0.3956 -0.0055 -1.9458 0.655 -0.251 0.713 91 68 36 0 0
0.4032 -0.0104 -1.9678 0.880 -0.390 0.272 83 60 27 0 0
0.4045 -0.0112 -1.9725 0.844 -0.437 0.310 91 68 36 0 0
0.4058 -0.0121 -1.9771 0.743 -0.494 0.452 88 65 34 0 0
0.4334 -0.0307 -1.9924 0.805 -0.480 0.349 86 63 31 0 0
0.5333 -0.0962 -2.2221 0.750 -0.532 0.393 112 86 42 0 0
0.5365 -0.0984 -2.2247 0.632 -0.458 0.625 104 78 34 0 0
0.5523 -0.1088 -2.2556 0.872 -0.388 0.300 79 70 44 0 0
0.5472 -0.1052 -2.2733 0.970 -0.192 -0.149 136 131 120 0 0
0.5525 -0.1088 -2.2734 0.916 0.088 0.392 164 163 160 0 0
0.3842 -0.0061 -1.6384 0.840 -0.380 0.388 72 55 36 0 0
0.3546 0.0151 -1.7748 0.471 -0.411 0.781 93 70 36 0 0
0.3671 0.0074 -1.8598 0.607 -0.606 0.515 98 75 41 0 0
0.3662 0.0080 -1.8662 0.869 -0.263 0.418 101 78 44 0 0
0.3878 -0.0060 -1.9332 0.955 -0.102 0.278 93 70 36 0 0
0.4048 -0.0172 -1.9641 0.815 -0.482 0.321 85 62 30 0 0
0.4055 -0.0177 -1.9693 0.816 -0.242 0.525 91 68 36 0 0
0.4452 -0.0435 -2.0837 0.979 -0.029 0.202 133 105 49 0 0
0.4470 -0.0447 -2.0879 0.906 0.006 0.424 198 162 99 0 0
0.4658 -0.0572 -2.1166 0.824 -0.416 0.385 100 76 39 0 0
0.5308 -0.1002 -2.2221 0.563 -0.444 0.697 115 88 45 0 0
0.5322 -0.1011 -2.2266 0.566 -0.659 0.496 107 80 37 0 0
0.5507 -0.1134 -2.2546 0.962 -0.257 0.093 73 64 37 0 0
0.5491 -0.1121 -2.2745 0.977 -0.206 0.062 158 156 152 0 0
0.1223 0.1594 -0.9400 0.666 0.487 0.565 178 180 184 0 0
0.1880 0.1159 -1.0370 0.882 -0.102 0.460 76 61 40 0 0
0.1891 0.1152 -1.0413 0.927 -0.105 0.361 78 63 42 0 0
0.1907 0.1142 -1.0454 0.875 -0.100 0.474 79 64 43 0 0
0.1924 0.1159 -1.4042 0.966 0.011 0.258 98 81 56 0 0
0.2743 0.0617 -1.5381 0.997 -0.052 0.062 101 75 33 0 0
0.3182 0.0325 -1.5935 0.457 -0.283 0.843 138 114 77 0 0
0.3459 0.0140 -1.6059 0.233 -0.177 0.956 144 115 72 0 0
0.3390 0.0196 -1.7243 0.907 -0.363 0.211 79 62 35 0 0
0.3637 0.0039 -1.8605 0.687 -0.541 0.485 95 72 38 0 0
0.3848 -0.0097 -1.9222 0.950 -0.293 0.109 95 72 38 0 0
0.3853 -0.0100 -1.9275 0.950 -0.293 0.109 93 70 36 0 0
0.3877 -0.0116 -1.9311 0.890 -0.236 0.390 92 69 35 0 0
0.3887 -0.0123 -1.9359 0.810 -0.237 0.536 90 67 33 0 0
0.3908 -0.0137 -1.9398 0.810 -0.237 0.536 89 66 33 0 0
0.4062 -0.0238 -1.9721 0.882 -0.241 0.405 85 62 30 0 0
0.5509 -0.1192 -2.2516 0.813 -0.320 0.486 80 71 42 0 0
0.1842 0.1130 -1.0328 0.936 -0.185 0.301 79 63 40 0 0
0.1866 0.1115 -1.0366 0.742 -0.477 0.472 74 58 36 0 0
0.1879 0.1106 -1.0407 0.883 -0.372 0.286 74 59 36 0 0
0.1934 0.1070 -1.0479 0.937 0.025 0.349 78 64 38 0 0
0.1900 0.1117 -1.3936 0.987 0.026 0.156 90 75 52 0 0
0.3158 0.0286 -1.5934 0.523 -0.111 0.845 135 114 79 0 0
0.3192 0.0263 -1.5964 0.475 -0.365 0.801 155 130 85 0 0
0.3459 0.0084 -1.6042 0.395 -0.002 0.919 134 107 60 0 0
0.3409 0.0126 -1.7100 0.739 -0.574 0.351 77 60 35 0 0
0.3423 0.0116 -1.7144 0.774 -0.581 0.250 76 59 32 0 0
0.3371 0.0152 -1.7238 0.907 -0.363 0.211 85 68 41 0 0
0.3447 0.0104 -1.7676 0.902 -0.415 0.122 127 99 59 0 0
0.3589 0.0014 -1.8455 0.882 -0.471 -0.026 99 77 42 0 0
0.3624 -0.0009 -1.8482 0.915 0.128 0.383 99 76 41 0 0
0.3644 -0.0022 -1.8522 0.843 0.010 0.538 98 75 40 0 0
0.3857 -0.0161 -1.9135 0.907 -0.382 0.178 88 66 31 0 0
0.3845 -0.0153 -1.9202 0.734 -0.664 0.140 93 70 36 0 0
0.3852 -0.0157 -1.9254 0.734 -0.664 0.140 95 72 38 0 0
0.3846 -0.0153 -1.9315 0.719 -0.677 0.159 89 66 32 0 0
0.3854 -0.0158 -1.9366 0.772 -0.629 0.088 84 61 28 0 0
0.4467 -0.0557 -2.1068 0.778 -0.477 0.408 82 58 29 0 0
0.4485 -0.0569 -2.1109 0.767 -0.390 0.509 79 58 26 0 0
0.4652 -0.0680 -2.1300 0.755 -0.522 0.396 95 71 37 0 0
0.4674 -0.0695 -2.1336 0.727 -0.392 0.564 88 65 31 0 0
0.4694 -0.0707 -2.1376 0.731 -0.440 0.521 83 59 27 0 0
0.5435 -0.1196 -2.2751 0.947 -0.286 -0.146 143 141 134 0 0
0.1181 0.1513 -0.9303 0.531 0.428 0.731 178 180 182 0 0
0.1304 0.1431 -0.9351 0.628 0.498 0.598 168 166 163 0 0
0.1785 0.1114 -1.0199 0.958 -0.185 0.220 71 56 33 0 0
0.1833 0.1083 -1.0321 0.875 -0.199 0.440 76 59 35 0 0
0.1904 0.1058 -1.3919 0.966 0.078 0.245 82 67 44 0 0
0.2724 0.0517 -1.5254 0.999 -0.031 0.015 99 83 52 0 0
0.3532 -0.0007 -1.8032 0.871 0.111 0.479 124 104 66 0 0
0.3609 -0.0058 -1.8082 0.735 -0.551 0.395 107 85 47 0 0
0.3597 -0.0048 -1.8371 0.895 -0.421 -0.150 100 77 45 0 0
0.3605 -0.0053 -1.8421 0.839 -0.526 -0.142 99 76 41 0 0
0.3635 -0.0073 -1.8509 0.797 -0.024 0.603 96 74 37 0 0
0.3713 -0.0125 -1.8500 0.737 -0.236 0.634 95 73 36 0 0
0.3738 -0.0142 -1.8536 0.737 -0.236 0.634 93 73 36 0 0
0.1134 0.1489 -0.9263 0.460 0.371 0.807 178 179 183 0 0
0.1208 0.1440 -0.9283 0.466 0.375 0.801 178 177 177 0 0
0.1345 0.1349 -0.9326 0.598 0.479 0.643 107 99 86 0 0
0.1828 0.1029 -0.9841 0.990 -0.092 -0.109 75 59 38 0 0
0.1893 0.0989 -1.0428 0.996 0.041 0.075 74 56 32 0 0
0.1921 0.0990 -1.3895 0.867 0.213 0.450 87 72 50 0 0
0.2721 0.0462 -1.5082 0.601 0.105 0.792 118 96 58 0 0
0.3580 -0.0095 -1.8085 0.432 -0.601 0.673 108 86 47 0 0
0.3535 -0.0064 -1.8345 0.958 -0.285 0.016 100 77 43 0 0
0.5289 -0.1214 -2.2195 0.894 -0.246 0.376 118 94 50 0 0
0.5436 -0.1311 -2.2514 0.843 -0.212 0.495 86 74 44 0 0
0.1373 0.1276 -0.9306 0.721 0.252 0.646 92 76 58 0 0
0.1769 0.1014 -0.9668 0.699 -0.039 0.714 83 68 47 0 0
0.1818 0.0982 -0.9695 0.710 -0.050 0.702 84 69 50 0 0
0.1801 0.0993 -0.9749 0.996 -0.083 0.009 79 64 44 0 0
0.1813 0.0985 -0.9791 0.981 -0.185 -0.058 77 62 41 0 0
0.1810 0.0987 -0.9839 0.981 -0.185 -0.058 76 61 38 0 0
0.1813 0.0986 -0.9884 0.982 -0.165 0.094 74 59 36 0 0
0.1826 0.0996 -1.3778 0.696 -0.050 0.717 88 70 48 0 0
0.3140 0.0131 -1.5947 0.838 0.032 0.545 153 130 89 0 0
0.3737 -0.0265 -1.6160 0.645 -0.192 0.740 140 114 72 0 0
0.3432 -0.0059 -1.6971 0.898 -0.244 -0.366 91 70 39 0 0
0.3431 -0.0055 -1.7464 0.790 -0.391 0.473 75 57 27 0 0
0.3820 -0.0305 -1.9444 0.589 -0.731 0.345 86 63 31 0 0
0.4148 -0.0521 -1.9956 0.516 -0.551 0.656 83 60 26 0 0
0.4765 -0.0925 -2.1406 0.671 -0.568 0.477 97 74 41 0 0
0.4767 -0.0926 -2.1463 0.788 -0.543 0.290 96 73 37 0 0
0.4806 -0.0951 -2.1661 0.809 -0.478 0.342 96 72 34 0 0
0.4820 -0.0960 -2.1706 0.809 -0.478 0.342 95 72 31 0 0
0.5253 -0.1246 -2.2206 0.772 -0.349 0.531 119 95 51 0 0
0.5277 -0.1261 -2.2241 0.717 -0.255 0.648 122 98 54 0 0
0.5385 -0.1333 -2.2423 0.760 -0.291 0.580 105 87 45 0 0
0.5377 -0.1327 -2.2491 0.699 -0.423 0.577 97 81 44 0 0
0.5420 -0.1356 -2.2505 0.843 -0.212 0.495 87 74 43 0 0
0.5525 -0.1425 -2.2689 0.731 -0.164 0.662 176 177 177 0 0
0.1109 0.1397 -0.9207 0.423 0.344 0.838 173 171 169 0 0
0.1619 0.1060 -0.9530 0.820 0.215 0.531 91 75 53 0 0
0.1757 0.0969 -0.9710 0.909 -0.253 0.331 82 66 46 0 0
0.1892 0.0881 -1.0407 0.937 -0.045 0.345 75 58 32 0 0
0.2255 0.0656 -1.4138 0.868 0.055 0.494 110 89 64 0 0
0.3714 -0.0305 -1.6159 0.663 -0.093 0.743 151 121 77 0 0
0.3838 -0.0387 -1.6226 0.930 -0.122 0.348 97 72 42 0 0
0.3449 -0.0125 -1.6940 0.945 -0.080 -0.317 97 78 42 0 0
0.3436 -0.0114 -1.7495 0.879 -0.368 0.303 117 97 61 0 0
0.3448 -0.0122 -1.7541 0.879 -0.368 0.303 112 90 46 0 0
0.3511 -0.0161 -1.8100 0.459 -0.607 0.648 100 78 39 0 0
0.3535 -0.0178 -1.8136 0.545 -0.813 0.206 96 73 36 0 0
0.3543 -0.0183 -1.8185 0.599 -0.736 0.315 100 78 41 0 0
0.4421 -0.0755 -2.0838 0.972 -0.177 -0.154 169 135 82 0 0
0.4536 -0.0830 -2.1137 0.779 -0.480 0.404 99 77 41 0 0
0.4741 -0.0965 -2.1464 0.788 -0.543 0.290 95 73 36 0 0
0.4753 -0.0972 -2.1511 0.788 -0.543 0.290 91 69 32 0 0
0.4958 -0.1107 -2.1895 0.781 -0.460 0.423 108 83 42 0 0
0.5353 -0.1367 -2.2490 0.742 -0.394 0.542 95 79 42 0 0
0.5403 -0.1400 -2.2496 0.715 -0.282 0.640 86 73 42 0 0
0.5423 -0.1413 -2.2534 0.843 -0.212 0.495 75 64 38 0 0
0.5509 -0.1470 -2.2680 0.735 -0.100 0.671 171 171 171 0 0
0.1767 0.0909 -0.9883 0.818 -0.357 0.451 84 68 45 0 0
0.1784 0.0898 -0.9923 0.818 -0.357 0.451 82 66 42 0 0
0.2472 0.0458 -1.4615 0.659 -0.472 0.586 145 115 77 0 0
0.2432 0.0485 -1.4692 0.447 -0.630 0.635 149 119 77 0 0
0.3183 -0.0008 -1.5989 0.335 -0.874 0.351 125 103 72 0 0
0.3625 -0.0300 -1.6100 0.329 -0.359 0.873 157 127 83 0 0
0.3650 -0.0317 -1.6134 0.545 -0.335 0.768 163 134 84 0 0
0.3451 -0.0182 -1.6920 0.945 -0.080 -0.317 106 87 49 0 0
0.3454 -0.0182 -1.7462 0.924 -0.309 0.225 117 94 58 0 0
0.3463 -0.0188 -1.7510 0.924 -0.309 0.225 110 87 46 0 0
0.3497 -0.0210 -1.7648 0.542 -0.691 0.478 115 90 50 0 0
0.3483 -0.0200 -1.7714 0.601 -0.765 0.229 110 86 45 0 0
0.3545 -0.0240 -1.8163 0.565 -0.542 0.622 102 80 41 0 0
0.3492 -0.0205 -1.8318 0.955 -0.270 -0.119 96 74 37 0 0
0.3697 -0.0340 -1.8598 0.900 -0.399 0.172 88 65 31 0 0
0.3789 -0.0399 -1.8971 0.881 -0.180 0.437 88 65 33 0 0
0.3807 -0.0411 -1.9013 0.874 -0.111 0.473 88 65 33 0 0
0.3848 -0.0438 -1.9090 0.887 -0.082 0.455 85 62 30 0 0
0.3879 -0.0458 -1.9120 0.934 -0.044 0.354 85 62 30 0 0
0.3897 -0.0470 -1.9162 0.836 0.107 0.538 85 62 30 0 0
0.4032 -0.0559 -1.9384 0.416 -0.844 0.337 84 61 29 0 0
0.4034 -0.0559 -1.9725 0.863 -0.159 0.480 84 61 29 0 0
0.4337 -0.0756 -2.0660 0.535 -0.533 0.656 82 59 28 0 0
0.4513 -0.0871 -2.1135 0.716 -0.593 0.368 96 74 37 0 0
0.4858 -0.1098 -2.1675 0.710 -0.460 0.534 96 72 34 0 0
0.4876 -0.1110 -2.1715 0.674 -0.523 0.522 95 71 33 0 0
0.5358 -0.1425 -2.2878 0.536 -0.620 0.573 185 185 185 0 0
0.5417 -0.1464 -2.2875 0.596 -0.536 0.598 195 195 197 0 0
0.1748 0.0868 -0.9881 0.818 -0.357 0.451 82 66 40 0 0
0.1878 0.0783 -1.0203 0.534 -0.810 0.243 81 64 38 0 0
0.1841 0.0808 -1.0266 0.702 -0.608 0.372 79 62 36 0 0
0.1855 0.0799 -1.0307 0.702 -0.608 0.372 79 62 36 0 0
0.1869 0.0789 -1.0348 0.702 -0.608 0.372 81 64 38 0 0
0.1874 0.0786 -1.0393 0.723 -0.419 0.549 76 59 33 0 0
0.1897 0.0771 -1.0431 0.780 -0.265 0.566 84 66 42 0 0
0.1964 0.0727 -1.0544 0.937 -0.279 0.212 78 61 34 0 0
0.1970 0.0724 -1.0589 0.879 -0.345 0.328 89 72 46 0 0
0.1929 0.0751 -1.0750 0.770 -0.625 0.128 89 72 44 0 0
0.1942 0.0743 -1.0887 0.841 -0.538 0.057 86 69 41 0 0
0.1730 0.0890 -1.3633 0.781 0.137 0.610 107 87 64 0 0
0.2394 0.0455 -1.4857 0.458 -0.711 0.533 113 89 49 0 0
0.2658 0.0281 -1.4901 0.976 -0.210 -0.048 157 131 87 0 0
0.2658 0.0281 -1.5005 0.945 -0.297 0.134 128 103 66 0 0
0.3155 -0.0045 -1.5991 0.568 -0.393 0.723 131 110 76 0 0
0.3591 -0.0332 -1.6107 0.503 -0.078 0.861 151 121 77 0 0
0.3636 -0.0362 -1.6127 0.530 -0.271 0.804 164 134 84 0 0
0.3439 -0.0230 -1.6911 0.949 -0.077 -0.305 113 90 54 0 0
0.3438 -0.0229 -1.6965 0.956 0.118 -0.268 76 58 28 0 0
0.3365 -0.0180 -1.7129 0.965 -0.247 0.086 89 68 38 0 0
0.3388 -0.0195 -1.7220 0.912 -0.325 0.252 88 67 37 0 0
0.3416 -0.0214 -1.7307 0.912 -0.285 0.296 74 55 22 0 0
0.3429 -0.0222 -1.7353 0.912 -0.285 0.296 89 68 35 0 0
0.3430 -0.0221 -1.7847 0.929 -0.319 0.187 106 85 48 0 0
0.3678 -0.0383 -1.8705 0.911 -0.349 0.220 88 65 33 0 0
0.3762 -0.0437 -1.8973 0.809 -0.431 0.399 87 64 32 0 0
0.3959 -0.0567 -1.9370 0.604 -0.677 0.421 85 62 28 0 0
0.3980 -0.0580 -1.9408 0.669 -0.480 0.567 84 61 28 0 0
0.4038 -0.0618 -1.9528 0.582 -0.717 0.384 88 65 34 0 0
0.4041 -0.0620 -1.9696 0.838 0.056 0.543 84 61 29 0 0
0.4489 -0.0911 -2.1134 0.784 -0.412 0.465 94 72 33 0 0
0.4552 -0.0953 -2.1189 0.853 -0.363 0.376 93 71 34 0 0
0.4984 -0.1236 -2.1934 0.951 -0.001 0.309 107 83 39 0 0
0.5019 -0.1260 -2.1957 0.826 -0.455 0.333 107 83 39 0 0
0.5031 -0.1267 -2.2004 0.847 -0.443 0.295 111 87 43 0 0
0.5043 -0.1275 -2.2051 0.847 -0.443 0.295 112 88 45 0 0
0.5479 -0.1561 -2.2658 0.718 -0.201 0.667 163 161 160 0 0
0.5396 -0.1506 -2.2869 0.598 -0.558 0.575 193 193 195 0 0
0.1922 0.0702 -1.0933 0.639 -0.756 0.139 83 66 39 0 0
0.1714 0.0842 -1.2205 0.949 0.274 0.156 102 87 66 0 0
0.1706 0.0847 -1.2259 0.980 0.169 0.104 94 83 64 0 0
0.1401 0.1050 -1.3437 0.825 0.108 0.555 89 78 54 0 0
0.1534 0.0963 -1.3417 0.500 -0.161 0.851 94 79 59 0 0
0.3576 -0.0377 -1.6100 0.411 -0.206 0.888 161 133 86 0 0
0.3608 -0.0398 -1.6129 0.450 -0.544 0.708 156 131 78 0 0
0.3650 -0.0426 -1.6151 0.389 -0.687 0.614 169 143 94 0 0
0.3330 -0.0213 -1.7081 0.496 -0.791 0.357 83 64 35 0 0
0.3349 -0.0225 -1.7122 0.683 -0.636 0.360 81 61 30 0 0
0.3362 -0.0233 -1.7221 0.804 -0.536 0.257 87 66 35 0 0
0.3400 -0.0259 -1.7301 0.912 -0.285 0.296 69 45 18 0 0
0.3409 -0.0264 -1.7349 0.921 -0.366 0.135 67 44 14 0 0
0.3513 -0.0331 -1.8093 0.483 0.077 0.872 101 79 40 0 0
0.3578 -0.0374 -1.8151 0.823 0.162 0.544 98 76 39 0 0
0.3639 -0.0414 -1.8214 0.678 -0.679 0.283 93 71 34 0 0
0.3662 -0.0429 -1.8418 0.849 -0.363 0.384 86 64 28 0 0
0.3740 -0.0479 -1.8970 0.766 -0.527 0.370 86 63 31 0 0
0.4086 -0.0703 -2.0616 0.900 -0.269 0.342 83 62 32 0 0
0.4270 -0.0825 -2.0501 0.659 -0.702 0.270 82 62 29 0 0
0.5021 -0.1316 -2.2048 0.847 -0.443 0.295 108 84 40 0 0
0.5103 -0.1370 -2.2140 0.760 -0.582 0.287 110 86 43 0 0
0.5461 -0.1605 -2.2651 0.799 -0.188 0.571 157 156 154 0 0
0.1719 0.0780 -0.9592 0.982 -0.182 0.046 95 73 45 0 0
0.1963 0.0621 -1.0570 0.754 -0.627 0.196 79 59 32 0 0
0.1874 0.0680 -1.0704 0.752 -0.658 0.023 77 57 30 0 0
0.1875 0.0679 -1.0752 0.752 -0.658 0.023 75 55 27 0 0
0.1877 0.0678 -1.0798 0.762 -0.647 0.017 77 56 29 0 0
0.1994 0.0602 -1.1081 0.949 -0.299 0.097 73 53 26 0 0
0.1962 0.0623 -1.1774 0.964 -0.234 -0.125 91 78 54 0 0
0.1729 0.0777 -1.2185 0.961 0.258 0.103 105 90 62 0 0
0.1718 0.0784 -1.2240 0.968 0.244 -0.058 96 80 54 0 0
0.1400 0.0995 -1.3424 0.825 0.108 0.555 78 67 49 0 0
0.1511 0.0922 -1.3415 0.457 -0.258 0.851 100 85 65 0 0
0.2269 0.0425 -1.4381 0.655 -0.340 0.675 162 131 84 0 0
0.2907 0.0008 -1.5703 0.798 -0.421 0.431 79 58 26 0 0
0.3188 -0.0176 -1.5987 0.427 -0.375 0.823 138 108 63 0 0
0.3576 -0.0431 -1.6135 0.450 -0.544 0.708 146 118 74 0 0
0.3538 -0.0405 -1.6853 0.846 -0.006 -0.534 90 68 35 0 0
0.3343 -0.0277 -1.7162 0.889 -0.413 0.200 69 48 18 0 0
0.3360 -0.0288 -1.7203 0.893 -0.382 0.240 89 68 37 0 0
0.3441 -0.0341 -1.7578 0.791 -0.599 0.123 124 98 59 0 0
0.3446 -0.0344 -1.7629 0.791 -0.599 0.123 107 82 47 0 0
0.3560 -0.0418 -1.8202 0.954 0.256 0.155 99 77 40 0 0
0.3642 -0.0472 -1.8302 0.942 -0.157 0.296 90 68 30 0 0
0.3714 -0.0518 -1.8971 0.766 -0.527 0.370 85 62 31 0 0
0.4171 -0.0817 -2.0280 0.884 -0.466 0.014 184 152 99 0 0
0.4273 -0.0883 -2.0591 0.595 -0.739 0.316 83 60 28 0 0
0.4318 -0.0912 -2.0898 0.822 -0.185 0.538 145 115 76 0 0
0.4344 -0.0929 -2.0932 0.757 -0.232 0.610 157 126 90 0 0
0.4987 -0.1350 -2.1998 0.812 -0.461 0.359 110 86 42 0 0
0.5063 -0.1400 -2.2096 0.760 -0.582 0.287 116 92 48 0 0
0.5073 -0.1406 -2.2146 0.853 -0.400 0.334 111 87 43 0 0
0.5086 -0.1415 -2.2191 0.874 -0.348 0.340 111 87 43 0 0
0.5102 -0.1425 -2.2234 0.825 -0.409 0.390 109 85 41 0 0
0.5431 -0.1641 -2.2656 0.800 -0.408 0.439 150 149 145 0 0
0.5183 -0.1477 -2.3233 0.238 -0.855 0.461 205 205 207 0 0
0.0924 0.1248 -0.9041 0.354 -0.918 0.180 140 132 123 0 0
0.1412 0.0928 -0.9189 0.599 -0.019 0.801 196 173 131 0 0
0.1650 0.0773 -0.9937 0.511 -0.769 0.384 72 52 25 0 0
0.1708 0.0735 -1.0196 0.946 -0.160 0.283 69 49 24 0 0
0.1756 0.0703 -1.0270 0.944 -0.280 0.175 65 45 19 0 0
0.1844 0.0646 -1.0707 0.752 -0.658 0.023 82 62 35 0 0
0.1845 0.0645 -1.0754 0.752 -0.658 0.023 85 64 37 0 0
0.1966 0.0566 -1.1711 0.876 -0.483 -0.014 96 79 55 0 0
0.1966 0.0567 -1.1760 0.876 -0.483 -0.014 101 85 62 0 0
0.1506 0.0869 -1.3404 0.783 0.043 0.620 102 86 64 0 0
0.2885 -0.0033 -1.5649 0.833 -0.505 0.228 114 93 57 0 0
0.3150 -0.0206 -1.5996 0.509 -0.371 0.777 153 123 80 0 0
0.3711 -0.0574 -1.6178 0.596 -0.554 0.581 142 119 79 0 0
0.3340 -0.0330 -1.7199 0.893 -0.382 0.240 69 48 18 0 0
0.3413 -0.0378 -1.7471 0.808 -0.589 0.009 109 88 54 0 0
0.3629 -0.0519 -1.8292 0.898 -0.182 0.400 91 69 33 0 0
0.3697 -0.0563 -1.8964 0.781 -0.585 0.218 83 60 29 0 0
0.4051 -0.0795 -1.9223 0.719 -0.359 0.595 82 59 28 0 0
0.4038 -0.0786 -2.0033 0.707 -0.681 0.189 82 59 28 0 0
0.4235 -0.0914 -2.0603 0.955 -0.144 0.260 82 61 29 0 0
0.4315 -0.0967 -2.0644 0.927 -0.253 0.276 82 61 28 0 0
0.4281 -0.0944 -2.0792 0.584 -0.329 0.742 106 83 52 0 0
0.4981 -0.1402 -2.2038 0.757 -0.465 0.459 111 87 43 0 0
0.5009 -0.1421 -2.2067 0.794 -0.376 0.477 116 92 48 0 0
0.5336 -0.1634 -2.2613 0.570 -0.533 0.625 84 78 58 0 0
0.5400 -0.1676 -2.2662 0.609 -0.374 0.699 144 142 137 0 0
0.5438 -0.1701 -2.2861 0.043 -0.647 0.762 201 201 204 0 0
0.0850 0.1242 -0.9011 0.158 -0.986 0.045 164 156 150 0 0
0.0859 0.1235 -0.9055 0.202 -0.114 0.973 122 108 94 0 0
0.1817 0.0610 -1.0755 0.893 -0.276 0.355 86 66 37 0 0
0.1817 0.0610 -1.0803 0.926 -0.327 0.190 80 59 30 0 0
0.1825 0.0605 -1.0847 0.926 -0.327 0.190 79 58 29 0 0
0.1944 0.0527 -1.1710 0.828 -0.560 0.008 84 64 36 0 0
0.1945 0.0526 -1.1758 0.828 -0.560 0.008 99 79 52 0 0
0.1511 0.0809 -1.3387 0.739 -0.418 0.528 112 96 70 0 0
0.2740 0.0007 -1.5150 0.763 -0.403 0.505 92 69 35 0 0
0.2837 -0.0057 -1.5243 0.981 -0.113 0.158 90 66 36 0 0
0.2707 0.0028 -1.5381 0.790 0.045 0.612 89 61 27 0 0
0.3077 -0.0214 -1.5923 0.876 -0.455 0.158 139 119 82 0 0
0.3089 -0.0221 -1.5968 0.821 -0.330 0.465 165 141 103 0 0
0.3132 -0.0250 -1.5991 0.613 -0.550 0.568 138 109 68 0 0
0.3681 -0.0608 -1.6181 0.663 -0.458 0.592 150 123 82 0 0
0.3341 -0.0386 -1.7288 0.790 -0.450 0.416 80 59 30 0 0
0.3371 -0.0406 -1.7375 0.896 -0.371 0.244 83 62 31 0 0
0.3404 -0.0427 -1.7678 0.757 -0.593 0.275 95 73 36 0 0
0.3616 -0.0566 -1.8337 0.768 -0.617 0.170 88 65 33 0 0
0.3624 -0.0571 -1.8666 0.783 -0.601 0.159 85 62 31 0 0
0.3637 -0.0579 -1.8712 0.844 -0.508 0.171 85 62 31 0 0
0.3698 -0.0619 -1.8942 0.913 -0.260 0.313 82 59 28 0 0
0.3902 -0.0753 -1.9218 0.363 -0.842 0.399 79 56 25 0 0
0.3985 -0.0807 -1.9203 0.947 -0.318 0.036 79 56 25 0 0
0.4008 -0.0822 -1.9239 0.578 -0.770 0.272 79 56 25 0 0
0.4020 -0.0830 -1.9285 0.549 -0.563 0.618 79 56 25 0 0
0.4229 -0.0966 -2.0527 0.677 -0.622 0.394 81 61 30 0 0
0.4250 -0.0980 -2.0565 0.945 -0.285 0.163 80 60 29 0 0
0.4259 -0.0986 -2.0790 0.760 -0.053 0.648 104 81 50 0 0
0.4969 -0.1450 -2.2024 0.794 -0.376 0.477 113 89 45 0 0
0.4988 -0.1462 -2.2064 0.794 -0.376 0.477 114 90 46 0 0
0.5316 -0.1676 -2.2608 0.595 -0.506 0.624 80 72 50 0 0
0.0786 0.1229 -0.9025 0.213 -0.977 -0.025 138 126 113 0 0
0.0835 0.1197 -0.9054 0.202 -0.114 0.973 122 103 85 0 0
0.1450 0.0797 -0.9203 0.440 -0.551 0.709 125 103 73 0 0
0.1601 0.0698 -0.9796 0.762 -0.590 0.266 71 49 25 0 0
0.1694 0.0637 -1.0181 0.607 -0.769 0.203 82 61 37 0 0
0.1786 0.0577 -1.0758 0.756 -0.590 0.283 84 64 35 0 0
0.1836 0.0544 -1.0927 0.869 -0.282 0.408 82 63 35 0 0
0.1790 0.0574 -1.1140 0.583 -0.793 0.177 87 67 40 0 0
0.1798 0.0568 -1.1281 0.720 -0.632 0.287 69 51 22 0 0
0.1878 0.0516 -1.2024 0.715 -0.696 -0.066 94 78 54 0 0
0.1869 0.0521 -1.2078 0.819 -0.569 -0.082 92 75 51 0 0
0.1833 0.0545 -1.2145 0.980 -0.177 -0.096 99 82 56 0 0
0.1723 0.0615 -1.3669 0.745 -0.476 0.468 83 64 42 0 0
0.2211 0.0296 -1.4735 0.590 -0.207 0.781 134 105 67 0 0
0.2775 -0.0071 -1.5425 0.696 0.012 0.718 193 168 115 0 0
0.3056 -0.0255 -1.5921 0.876 -0.455 0.158 169 148 115 0 0
0.3070 -0.0264 -1.5964 0.821 -0.330 0.465 147 123 88 0 0
0.3599 -0.0611 -1.8610 0.975 -0.209 0.075 81 57 27 0 0
0.3971 -0.0853 -1.9250 0.578 -0.770 0.272 77 54 24 0 0
0.3988 -0.0864 -1.9291 0.456 -0.615 0.643 77 54 23 0 0
0.3942 -0.0835 -1.9615 0.903 0.239 0.358 78 55 24 0 0
0.4121 -0.0952 -2.0430 0.849 0.218 0.482 91 70 36 0 0
0.4148 -0.0970 -2.0463 0.734 -0.472 0.488 82 62 32 0 0
0.4286 -0.1060 -2.0624 0.878 -0.365 0.311 80 60 29 0 0
0.4256 -0.1040 -2.0768 0.871 -0.059 0.488 97 73 43 0 0
0.4894 -0.1457 -2.1839 0.855 -0.360 0.373 101 78 37 0 0
0.4871 -0.1442 -2.1922 0.726 -0.418 0.546 104 81 39 0 0
0.4906 -0.1465 -2.1944 0.575 -0.575 0.582 107 84 41 0 0
0.5279 -0.1708 -2.2681 0.972 -0.174 0.157 101 95 80 0 0
0.5270 -0.1702 -2.2751 0.827 -0.204 0.525 133 129 121 0 0
0.0764 0.1189 -0.9023 0.259 -0.177 0.950 123 107 91 0 0
0.1609 0.0640 -0.9412 0.758 -0.274 0.592 126 98 60 0 0
0.1875 0.0464 -1.1964 0.619 -0.785 0.024 83 63 33 0 0
0.1877 0.0462 -1.2012 0.539 -0.808 0.237 88 69 41 0 0
0.1873 0.0464 -1.2063 0.672 -0.722 0.166 97 77 52 0 0
0.1857 0.0475 -1.2121 0.873 -0.476 0.110 98 78 52 0 0
0.1469 0.0725 -1.3382 0.816 -0.336 0.470 132 116 82 0 0
0.1724 0.0559 -1.3654 0.742 -0.159 0.652 104 87 61 0 0
0.2103 0.0312 -1.4108 0.605 -0.790 0.098 179 147 91 0 0
0.2192 0.0253 -1.4731 0.590 -0.207 0.781 113 86 47 0 0
0.3034 -0.0296 -1.5918 0.876 -0.455 0.158 129 109 79 0 0
0.3712 -0.0736 -1.6228 0.762 -0.358 0.540 147 122 88 0 0
0.3743 -0.0756 -1.6258 0.775 -0.178 0.606 83 58 30 0 0
0.3833 -0.0819 -1.9235 0.912 0.080 0.402 74 51 21 0 0
0.3913 -0.0871 -1.9335 0.833 -0.496 0.245 75 51 22 0 0
0.4074 -0.0978 -2.0276 0.967 -0.034 0.252 140 109 56 0 0
0.4116 -0.1005 -2.0412 0.896 0.196 0.398 92 71 36 0 0
0.4115 -0.1004 -2.0470 0.866 -0.357 0.350 80 61 29 0 0
0.4269 -0.1105 -2.0616 0.927 -0.253 0.276 79 58 28 0 0
0.4244 -0.1089 -2.0697 0.961 0.170 0.220 79 58 31 0 0
0.4355 -0.1161 -2.0941 0.946 -0.262 0.193 106 84 52 0 0
0.5145 -0.1676 -2.2320 0.867 -0.254 0.429 117 94 52 0 0
0.5253 -0.1747 -2.2742 0.827 -0.204 0.525 127 123 114 0 0
0.5326 -0.1794 -2.2722 0.734 -0.028 0.678 160 159 157 0 0
0.0668 0.1197 -0.9001 0.202 -0.191 0.961 148 139 129 0 0
0.1608 0.0588 -0.9449 0.703 -0.550 0.451 123 94 53 0 0
0.1612 0.0583 -1.0147 0.533 -0.774 0.343 69 47 23 0 0
0.1626 0.0574 -1.0189 0.533 -0.774 0.343 63 41 18 0 0
0.1633 0.0570 -1.0233 0.597 -0.795 0.108 73 51 26 0 0
0.1651 0.0558 -1.0320 0.465 -0.871 0.156 90 70 45 0 0
0.1662 0.0550 -1.0839 0.525 -0.830 0.189 82 63 33 0 0
0.1753 0.0490 -1.1328 0.349 -0.816 0.461 77 60 32 0 0
0.1470 0.0669 -1.3162 0.934 -0.290 -0.211 70 53 31 0 0
0.1450 0.0681 -1.3379 0.932 -0.196 0.305 106 89 58 0 0
0.1468 0.0670 -1.3421 0.576 -0.283 0.767 68 51 28 0 0
0.2610 -0.0074 -1.4924 0.571 -0.535 0.623 135 112 65 0 0
0.2978 -0.0314 -1.5781 0.827 -0.315 0.467 86 65 34 0 0
0.3009 -0.0334 -1.5866 0.881 -0.462 0.103 96 79 49 0 0
0.3013 -0.0337 -1.5916 0.881 -0.462 0.103 123 104 77 0 0
0.3646 -0.0747 -1.6154 0.802 -0.378 0.462 161 134 89 0 0
0.3666 -0.0760 -1.6192 0.780 -0.329 0.533 161 137 97 0 0
0.3723 -0.0797 -1.6255 0.811 -0.036 0.584 85 60 31 0 0
0.3744 -0.0817 -1.9233 0.434 -0.767 0.472 75 52 22 0 0
0.3849 -0.0886 -1.9653 0.865 -0.111 0.489 79 56 25 0 0
0.4065 -0.1028 -2.0262 0.901 0.160 0.404 123 95 42 0 0
0.4114 -0.1060 -2.0389 0.979 0.140 0.147 99 77 40 0 0
0.4071 -0.1032 -2.0487 0.914 0.116 0.388 84 64 31 0 0
0.4165 -0.1093 -2.0574 0.930 -0.086 0.357 79 58 29 0 0
0.4709 -0.1448 -2.1563 0.646 -0.646 0.406 82 59 25 0 0
0.4962 -0.1612 -2.2072 0.899 -0.306 0.313 113 89 45 0 0
0.1247 0.0769 -0.9112 0.349 -0.556 0.754 152 131 104 0 0
0.1599 0.0540 -0.9908 0.366 -0.928 0.064 66 45 24 0 0
0.1574 0.0555 -1.0153 0.533 -0.774 0.343 80 60 30 0 0
0.1596 0.0541 -1.0238 0.597 -0.795 0.108 92 72 43 0 0
0.1600 0.0538 -1.0284 0.597 -0.795 0.108 92 72 44 0 0
0.1607 0.0533 -1.0328 0.465 -0.871 0.156 83 63 38 0 0
0.1680 0.0482 -1.1642 0.382 -0.834 0.398 70 49 22 0 0
0.1638 0.0506 -1.2554 0.796 -0.228 -0.560 77 57 28 0 0
0.1810 0.0392 -1.3681 0.785 -0.490 0.380 116 95 69 0 0
0.2959 -0.0356 -1.5777 0.827 -0.315 0.467 86 65 34 0 0
0.2976 -0.0367 -1.5818 0.880 -0.435 0.189 84 66 34 0 0
0.2984 -0.0372 -1.5866 0.880 -0.435 0.189 95 79 51 0 0
0.2992 -0.0378 -1.5913 0.880 -0.435 0.189 144 126 100 0 0
0.3526 -0.0723 -1.6065 0.321 -0.367 0.873 162 132 84 0 0
0.3646 -0.0801 -1.6188 0.842 -0.251 0.477 183 158 121 0 0
0.3506 -0.0712 -1.6820 0.828 -0.042 -0.559 92 70 37 0 0
0.3852 -0.0944 -1.9514 0.761 -0.040 0.648 76 52 25 0 0
0.3859 -0.0949 -1.9565 0.664 -0.116 0.739 79 56 25 0 0
0.4046 -0.1071 -1.9968 0.728 -0.471 0.499 75 52 21 0 0
0.4101 -0.1107 -2.0378 0.820 -0.511 0.258 100 78 40 0 0
0.4112 -0.1114 -2.0426 0.785 -0.590 0.188 82 62 28 0 0
0.4155 -0.1143 -2.0559 0.930 -0.086 0.357 78 57 28 0 0
0.4326 -0.1253 -2.0804 0.839 -0.016 0.544 179 152 96 0 0
0.4662 -0.1473 -2.1585 0.717 -0.420 0.557 81 58 24 0 0
0.4943 -0.1656 -2.2065 0.866 -0.388 0.315 114 90 46 0 0
0.5306 -0.1892 -2.2690 0.886 -0.394 0.245 150 149 143 0 0
0.1351 0.0649 -0.9250 0.491 -0.646 0.585 148 127 92 0 0
0.1567 0.0506 -1.0334 0.458 -0.887 -0.053 84 67 39 0 0
0.1628 0.0461 -1.1655 0.271 -0.879 0.393 68 47 20 0 0
0.1784 0.0359 -1.2219 0.721 -0.684 0.112 100 76 48 0 0
0.1806 0.0339 -1.3668 0.676 -0.649 0.348 131 110 79 0 0
0.2018 0.0202 -1.3908 0.810 -0.112 0.576 159 131 97 0 0
0.2052 0.0180 -1.3939 0.926 -0.109 0.361 193 166 125 0 0
0.2606 -0.0180 -1.4843 0.928 -0.351 0.126 192 162 112 0 0
0.2786 -0.0297 -1.5299 0.838 0.494 0.233 85 59 24 0 0
0.2706 -0.0246 -1.5404 0.466 -0.664 0.585 179 152 102 0 0
0.2771 -0.0289 -1.5414 0.979 0.020 0.203 132 106 60 0 0
0.2900 -0.0372 -1.5643 0.870 -0.224 0.439 82 63 35 0 0
0.2932 -0.0393 -1.5674 0.884 -0.416 0.215 79 57 30 0 0
0.3207 -0.0571 -1.6010 0.697 0.068 0.714 198 178 130 0 0
0.3717 -0.0900 -1.6277 0.916 -0.371 0.154 78 54 28 0 0
0.3471 -0.0749 -1.8298 0.674 -0.210 0.709 81 58 27 0 0
0.3504 -0.0771 -1.8383 0.826 -0.445 0.345 76 52 24 0 0
0.3541 -0.0796 -1.8575 0.882 -0.424 0.206 71 50 21 0 0
0.3914 -0.1040 -1.9665 0.818 -0.433 0.378 74 53 23 0 0
0.4021 -0.1110 -1.9968 0.772 -0.470 0.429 71 49 20 0 0
0.4135 -0.1185 -2.0613 0.857 -0.320 0.404 77 56 25 0 0
0.4638 -0.1513 -2.1584 0.717 -0.420 0.557 77 54 23 0 0
0.4910 -0.1690 -2.2074 0.658 -0.672 0.340 113 88 47 0 0
0.4952 -0.1717 -2.2089 0.710 -0.425 0.562 119 94 52 0 0
0.4971 -0.1729 -2.2128 0.700 -0.142 0.700 115 91 46 0 0
0.4993 -0.1743 -2.2165 0.783 -0.143 0.605 110 86 42 0 0
0.1333 0.0607 -0.9247 0.618 -0.574 0.537 175 150 107 0 0
0.1385 0.0574 -0.9320 0.623 -0.346 0.702 190 161 115 0 0
0.1391 0.0569 -0.9364 0.744 -0.453 0.491 129 101 61 0 0
0.1767 0.0316 -1.2264 0.684 -0.708 0.176 99 81 49 0 0
0.2524 -0.0182 -1.4879 0.835 -0.258 0.486 184 153 107 0 0
0.2618 -0.0242 -1.4871 0.906 -0.027 0.422 155 128 83 0 0
0.2674 -0.0280 -1.5304 0.716 -0.644 0.270 88 66 34 0 0
0.2724 -0.0313 -1.5429 0.820 -0.401 0.408 146 119 75 0 0
0.2865 -0.0404 -1.5597 0.746 -0.330 0.579 97 79 47 0 0
0.2891 -0.0421 -1.5632 0.853 -0.406 0.328 95 76 46 0 0
0.2930 -0.0447 -1.5763 0.869 -0.428 0.248 68 49 20 0 0
0.3183 -0.0610 -1.6010 0.571 -0.082 0.817 196 170 120 0 0
0.3244 -0.0649 -1.6020 0.306 -0.070 0.949 182 154 105 0 0
0.3667 -0.0922 -1.6243 0.741 -0.524 0.419 86 61 32 0 0
0.3711 -0.0950 -1.6368 0.813 -0.505 0.291 87 66 37 0 0
0.3481 -0.0812 -1.8381 0.826 -0.445 0.345 76 51 23 0 0
0.3492 -0.0819 -1.8427 0.704 -0.664 0.252 74 50 22 0 0
0.3529 -0.0843 -1.8452 0.947 -0.323 -0.003 73 49 21 0 0
0.4092 -0.1212 -2.0225 0.938 -0.239 0.250 159 132 77 0 0
0.4536 -0.1503 -2.1426 0.827 -0.294 0.479 73 50 19 0 0
0.4614 -0.1553 -2.1584 0.678 -0.496 0.543 77 54 23 0 0
0.4878 -0.1725 -2.2081 0.658 -0.672 0.340 110 85 44 0 0
0.5210 -0.1939 -2.2323 0.897 -0.338 0.284 116 95 52 0 0
0.0713 0.0953 -0.8950 0.069 -0.234 0.970 126 111 90 0 0
0.1344 0.0547 -0.9326 0.687 -0.437 0.580 160 133 82 0 0
0.1368 0.0532 -0.9364 0.744 -0.453 0.491 138 113 72 0 0
0.1490 0.0444 -1.1112 0.423 -0.888 0.178 86 65 38 0 0
0.1494 0.0441 -1.1158 0.373 -0.915 0.156 79 59 29 0 0
0.1691 0.0311 -1.2042 0.685 -0.615 0.391 95 80 51 0 0
0.1706 0.0301 -1.2084 0.685 -0.615 0.391 60 43 17 0 0
0.1727 0.0288 -1.2123 0.742 -0.424 0.520 102 84 52 0 0
0.1747 0.0274 -1.2163 0.742 -0.424 0.520 111 87 52 0 0
0.1738 0.0280 -1.2266 0.700 -0.646 0.303 91 72 39 0 0
0.1581 0.0378 -1.2595 0.910 0.007 -0.415 77 57 30 0 0
0.2028 0.0086 -1.3924 0.851 -0.214 0.479 159 130 83 0 0
0.2160 0.0000 -1.4104 0.696 -0.446 0.562 195 166 120 0 0
0.2547 -0.0251 -1.4745 0.804 -0.562 0.192 98 75 39 0 0
0.2531 -0.0241 -1.4911 0.438 -0.246 0.865 157 130 85 0 0
0.2898 -0.0480 -1.5768 0.668 -0.580 0.466 82 62 35 0 0
0.3488 -0.0864 -1.6831 0.687 -0.394 -0.610 93 72 42 0 0
0.3848 -0.1108 -1.9565 0.761 -0.608 0.225 70 49 24 0 0
0.3881 -0.1129 -1.9650 0.825 -0.363 0.434 63 41 16 0 0
0.4050 -0.1240 -2.0068 0.700 -0.542 0.465 74 53 25 0 0
0.4051 -0.1241 -2.0182 0.702 -0.672 0.237 113 91 46 0 0
0.4081 -0.1261 -2.0212 0.731 -0.681 -0.037 140 115 63 0 0
0.4245 -0.1368 -2.0635 0.800 -0.597 0.063 77 54 23 0 0
0.4214 -0.1349 -2.0956 0.893 -0.290 0.343 156 129 86 0 0
0.4364 -0.1446 -2.1102 0.835 -0.448 0.319 82 59 27 0 0
0.5186 -0.1979 -2.2381 0.730 -0.631 0.262 111 91 51 0 0
0.0085 0.1299 -0.8970 -0.026 0.058 0.998 177 178 181 0 0
0.0675 0.0923 -0.8954 0.069 -0.234 0.970 123 108 85 0 0
0.1274 0.0539 -0.9250 0.523 -0.426 0.739 150 121 82 0 0
0.1357 0.0486 -0.9358 0.812 -0.367 0.454 111 89 49 0 0
0.1653 0.0281 -1.2049 0.571 -0.669 0.475 95 79 50 0 0
0.1671 0.0269 -1.2089 0.571 -0.669 0.475 84 68 42 0 0
0.1707 0.0245 -1.2319 0.840 -0.489 0.235 95 73 40 0 0
0.1408 0.0432 -1.2924 0.874 -0.285 0.393 72 55 31 0 0
0.1727 0.0224 -1.3722 0.597 -0.341 0.727 138 116 82 0 0
0.1804 0.0174 -1.3729 0.563 -0.425 0.709 84 66 37 0 0
0.2008 0.0043 -1.3921 0.663 -0.366 0.653 141 113 71 0 0
0.2034 0.0026 -1.3957 0.663 -0.366 0.653 170 143 96 0 0
0.2087 -0.0008 -1.4029 0.737 -0.584 0.340 161 139 109 0 0
0.2101 -0.0017 -1.4072 0.737 -0.584 0.340 158 133 98 0 0
0.2146 -0.0046 -1.4200 0.600 -0.672 0.434 180 150 102 0 0
0.2421 -0.0223 -1.4498 0.793 -0.456 0.403 103 80 43 0 0
0.2462 -0.0250 -1.4576 0.708 -0.478 0.520 94 72 33 0 0
0.2512 -0.0283 -1.4752 0.860 -0.503 0.083 94 72 34 0 0
0.2739 -0.0432 -1.5490 0.877 -0.104 0.469 68 47 20 0 0
0.2858 -0.0509 -1.5621 0.909 -0.291 0.298 105 85 54 0 0
0.3737 -0.1074 -1.6366 0.864 -0.441 0.245 77 56 27 0 0
0.3743 -0.1078 -1.6413 0.849 -0.527 0.045 105 84 54 0 0
0.3779 -0.1101 -1.6440 0.805 -0.422 0.416 109 86 52 0 0
0.3265 -0.0779 -1.7466 0.798 -0.509 0.323 96 75 46 0 0
0.3280 -0.0789 -1.7509 0.820 -0.521 0.235 115 93 61 0 0
0.3327 -0.0819 -1.7527 0.689 -0.449 0.570 75 53 23 0 0
0.3860 -0.1172 -1.9646 0.825 -0.363 0.434 54 34 13 0 0
0.4216 -0.1404 -2.0523 0.913 -0.093 0.397 79 55 25 0 0
0.4230 -0.1413 -2.0568 0.755 -0.638 0.151 80 58 27 0 0
0.4230 -0.1413 -2.0626 0.927 -0.334 0.171 75 52 22 0 0
0.4243 -0.1422 -2.0671 0.629 -0.517 0.580 87 61 25 0 0
0.4213 -0.1404 -2.0874 0.645 -0.759 -0.091 200 168 119 0 0
0.4210 -0.1402 -2.0935 0.846 -0.433 0.310 155 126 84 0 0
0.4222 -0.1410 -2.0982 0.949 -0.159 0.274 91 67 36 0 0
0.4785 -0.1775 -2.1889 0.635 -0.520 0.571 106 82 46 0 0
0.4813 -0.1793 -2.1919 0.793 -0.474 0.382 102 79 39 0 0
0.4828 -0.1803 -2.1963 0.699 -0.671 0.249 104 80 38 0 0
0.1258 0.0496 -0.9293 0.527 -0.232 0.818 163 134 87 0 0
0.1298 0.0463 -1.0405 0.148 -0.989 0.028 75 57 31 0 0
0.1300 0.0462 -1.0452 0.156 -0.987 -0.046 80 60 35 0 0
0.1296 0.0464 -1.0501 0.150 -0.987 -0.056 91 72 45 0 0
0.1655 0.0225 -1.2184 0.772 -0.551 0.317 154 131 98 0 0
0.1700 0.0196 -1.2310 0.815 -0.338 0.470 102 79 46 0 0
0.1380 0.0395 -1.2874 0.952 -0.222 0.209 80 64 39 0 0
0.1392 0.0387 -1.2918 0.930 -0.168 0.326 76 59 34 0 0
0.1684 0.0196 -1.3680 0.665 -0.661 0.347 121 102 64 0 0
0.2030 -0.0026 -1.3996 0.742 -0.629 0.230 91 70 42 0 0
0.2035 -0.0029 -1.4045 0.726 -0.543 0.422 66 52 34 0 0
0.2051 -0.0040 -1.4087 0.726 -0.543 0.422 103 83 55 0 0
0.2528 -0.0347 -1.4674 0.840 -0.075 0.537 86 62 28 0 0
0.2562 -0.0370 -1.4963 0.572 -0.424 0.702 81 60 29 0 0
0.3595 -0.1035 -1.6190 0.723 -0.146 0.675 166 142 105 0 0
0.3757 -0.1140 -1.6438 0.805 -0.422 0.416 114 91 57 0 0
0.3312 -0.0860 -1.6872 0.696 -0.347 -0.628 114 91 53 0 0
0.3235 -0.0813 -1.7199 0.864 -0.455 0.214 65 47 23 0 0
0.3301 -0.0857 -1.7528 0.609 -0.540 0.580 80 59 29 0 0
0.3450 -0.0953 -1.7685 0.616 -0.142 0.775 78 59 28 0 0
0.3425 -0.0938 -1.7814 0.851 -0.469 -0.235 142 116 77 0 0
0.3839 -0.1214 -1.9642 0.825 -0.363 0.434 54 34 13 0 0
0.3855 -0.1224 -1.9685 0.743 -0.422 0.520 54 35 14 0 0
0.4205 -0.1452 -2.0510 0.944 -0.110 0.311 74 51 21 0 0
0.4200 -0.1449 -2.0573 0.755 -0.638 0.151 74 50 20 0 0
0.4215 -0.1459 -2.0616 0.816 -0.494 0.300 70 48 19 0 0
0.4215 -0.1460 -2.0674 0.629 -0.517 0.580 73 49 14 0 0
0.4352 -0.1550 -2.1240 0.661 -0.531 0.531 74 54 21 0 0
0.4503 -0.1648 -2.1443 0.929 -0.236 0.286 76 53 22 0 0
