ply
format ascii 1.0
element vertex 680
property float x
property float y
property float z
property uchar diffuse_red
property uchar diffuse_green
property uchar diffuse_blue
end_header
-0.1368672632185689 0.33030052442856306 -1.8618816033255254 133 117 101
-0.13341489752105984 0.3329466664112758 -1.8651784387644654 135 119 102
-0.13064408912638092 0.3350947195114616 -1.8690010138595352 136 119 100
-0.11605489340276631 0.3458758599522338 -1.8635179370425368 135 118 100
-0.11314528702410603 0.3481244628754696 -1.8671905988472168 132 115 99
-0.10967818998295337 0.35078011929429953 -1.8704154942377742 132 115 99
-0.10719179254455796 0.3527193481811939 -1.8744103163425665 133 116 100
-0.10498758849971757 0.3544524081547471 -1.8786257617496307 133 117 97
-0.10192981585889366 0.35680871336872855 -1.882156098357557 135 118 98
-0.09880693193599482 0.35921241504533313 -1.885627132332491 132 115 95
-0.0957652025300017 0.36155670976918514 -1.8891560028971928 130 112 92
-0.09273423439742834 0.36389300237376426 -1.8926865100159374 129 108 87
-0.09184373897356424 0.3646665476092057 -1.8979422697462898 127 106 85
-0.08409672299124388 0.37044525905622894 -1.8976356640255845 126 105 84
-0.07814342195942497 0.3749140624850807 -1.8987590097870668 125 105 82
-0.06933075120176108 0.3817153984810844 -1.909433853032429 123 103 79
-0.07065752058310998 0.38087049089825864 -1.9164941896758767 123 103 79
-0.07005151103243407 0.3814361686815381 -1.9219712193815217 123 103 79
-0.07161153201876669 0.38042159201030556 -1.9292498940063711 123 103 79
-0.06900344617198478 0.3824482280335117 -1.9330770759677351 125 105 80
-0.0650593033175128 0.3854494236023621 -1.9357843736325782 122 102 77
-0.06530885741673087 0.3853912655699728 -1.9419900415895255 121 101 76
-0.06553491057992183 0.38535044556963777 -1.9481854870581483 121 101 76
-0.06461915971317977 0.3861425938522782 -1.9534288384866234 119 99 74
-0.06424121177103542 0.38654259882861997 -1.959130047933688 118 98 73
-0.05747451106174295 0.3916016945105111 -1.9594251402093106 119 99 74
-0.05422255795778669 0.39409732462931624 -1.9626805981219007 118 98 72
-0.054482307501445726 0.3940322654601268 -1.9689207451255129 117 96 69
-0.05253873869768699 0.3955738126012348 -1.9732869920991312 116 95 68
-0.04405983858109641 0.4018797941293365 -1.9720480146690649 114 93 66
-0.04253767863310798 0.40311372792796163 -1.9767565833587086 114 93 66
-0.041402083749511875 0.404065894413573 -1.981799079993087 117 96 69
-0.04376527813540393 0.4024679390691012 -1.989871016816807 117 96 69
-0.044394255116208536 0.4021343398158863 -1.9964586674348312 117 96 66
-0.04226510846656906 0.40381100836231004 -2.0006575236996706 117 96 65
-0.04125784565926699 0.40467009142722704 -2.0058330411108956 118 97 66
-0.03843397619438582 0.40685292781531956 -2.009421331458114 117 96 65
-0.03456477586477219 0.4100478158916376 -2.0242139369474157 119 99 66
-0.025844450147013864 0.41652562524889236 -2.0225656449410763 117 97 65
-0.024183820986556526 0.4178604517298751 -2.027152782015539 116 95 64
-0.023426791449726703 0.4185371486010887 -2.032544888333783 111 91 58
-0.02813591537880472 0.41523303278926577 -2.042826678087684 113 91 59
-0.002755105520943768 0.43384195505326756 -2.026170961593727 117 94 63
-0.009438312861960396 0.42922532775468225 -2.0442767036694063 117 94 63
-0.008873513277450173 0.42976193957134545 -2.0498363835721767 116 93 62
-0.002523653978707796 0.4345102555326096 -2.050155413915865 116 93 62
-0.0044976415325114205 0.4331986523646494 -2.0580198709670294 117 94 63
-0.011907604262935467 0.42793058040132004 -2.070861552471822 118 95 64
-0.006260305136714994 0.43216719426678585 -2.0718065547076483 117 96 63
0.0009605032934691393 0.43754855654298447 -2.071286647761492 117 96 63
0.007220139026138106 0.44222982237719244 -2.0716213558558603 118 95 63
0.00684856953928098 0.44208515969465556 -2.0780501712302004 117 92 61
0.013096636631492076 0.4467573510574595 -2.078363790533862 116 93 59
0.01631661587188271 0.4492258755006576 -2.0814629220683236 115 92 58
0.02207393744068542 0.45354018541913754 -2.0821918964510284 117 95 58
0.02165690362345063 0.45336242060516047 -2.0886617679925608 135 113 72
0.022826769444664496 0.4543392024362995 -2.09365700371599 140 114 73
0.021445299401874396 0.45346031139988485 -2.101049612025707 139 111 71
0.020194214745598738 0.45267658017569185 -2.108335489547699 127 102 66
0.020386162445819034 0.45294259944298854 -2.1142743353628304 121 97 61
0.020119969831633278 0.45287562281674276 -2.1206545688339733 119 95 59
0.018575467343499574 0.45187935677722 -2.1282586547931586 121 97 62
0.023584985590601792 0.4556487057970937 -2.1296390777521097 124 100 65
0.030137136600456638 0.4605391990819103 -2.1295281005777307 123 99 62
0.024649755672548845 0.4566768442553434 -2.140919423976185 121 97 59
0.025684353399679394 0.4575561564911947 -2.1460860806509854 120 96 58
0.026445139213666036 0.4582365129534588 -2.1515195568815533 120 96 59
0.03409330382323206 0.4639226775171774 -2.150306264654807 122 98 62
0.02227304990242046 0.45545970852336193 -2.1679144704264774 122 98 62
0.056507278143973105 0.4812261520900592 -2.1777028348460936 124 100 64
0.0618435363880509 0.4852292570453494 -2.1785877775764537 125 100 63
0.0636547191513856 0.4866719234638656 -2.1829529541302097 127 102 65
0.0654030136650367 0.4880688980150233 -2.187379590229893 129 104 66
0.07015924846315047 0.49164996694060936 -2.188801549521872 124 101 64
0.07044284745009632 0.49198328136299396 -2.1946849690875028 116 95 60
0.07698643939221261 0.4968615063932578 -2.194289507436487 112 93 57
0.0818992961178584 0.5005553426088949 -2.195508669053859 109 89 54
0.08152454308799217 0.5004105952896511 -2.2020484672919367 109 88 56
0.08418595650133498 0.502469810564883 -2.205525038243637 100 81 54
0.08848549098490488 0.505717803610579 -2.207332459540977 94 77 56
0.09277617587810022 0.5089590621715188 -2.209133776710885 90 75 56
0.10482678221501013 0.5179579132958982 -2.2091396547600732 80 67 49
0.10358481510797451 0.5171838737868892 -2.21656510357585 79 66 49
0.10378651413531587 0.5174575154534073 -2.2225204393017894 88 75 57
0.10349419027715012 0.5173729417782762 -2.228993438185239 100 84 63
0.10399122694664775 0.5178611614955018 -2.2346600762492126 101 86 63
0.10770253148553521 0.5206808402398413 -2.2369972475918805 99 87 64
0.11401291269086927 0.5253852489479689 -2.2366178875404406 99 88 66
0.11239031187263254 0.5243361817292903 -2.244489105783153 95 84 63
0.11503414592707517 0.5263812183293584 -2.2479147817210245 89 78 55
0.11719393849454318 0.5280751651661822 -2.2518422439414616 88 79 51
0.12695319959860374 0.5352787716935878 -2.2477724603635587 97 88 63
0.12608555071633504 0.5347773746638054 -2.2548649703121013 123 117 101
0.12364424248808109 0.5331355241567244 -2.2636357221214243 156 153 146
0.1292699545861647 0.5373414326301644 -2.263874675731696 179 177 174
0.13600062325663004 0.5423477134293866 -2.2629156082485915 189 188 190
0.13437390958629564 0.5412966219037124 -2.27083750692937 193 194 197
0.1418962519073937 0.5468758731663992 -2.268997034605122 197 198 198
0.14818287595194196 0.5515590161474277 -2.268447027508793 200 200 202
0.15193342962212153 0.5544041092482301 -2.2705956627337804 202 202 204
-0.39360136609299107 0.12670347561552453 -1.6153304767497827 208 212 215
-0.3769018055565762 0.13912395433522756 -1.6110906372962608 196 194 191
-0.36006917681835005 0.15164109718014834 -1.6067012804270868 140 130 116
-0.3457894358121048 0.16227679389830102 -1.6038276096432267 119 106 84
-0.3381739430334848 0.16800373242090832 -1.6050465040957467 117 100 77
-0.3242751434227909 0.1783569570355436 -1.6023125553541533 126 106 82
-0.3049242893427099 0.19272354863415503 -1.5961044103371367 131 114 87
-0.2932458005710946 0.2014395660704355 -1.5946452425316098 123 106 80
-0.2898821841076479 0.20403301190760992 -1.5983928838994417 119 102 76
-0.27862016050250826 0.21244100302802565 -1.5971259539105194 125 107 80
-0.27112853827639327 0.21807258017447528 -1.598214181049635 126 107 80
-0.25920662971547515 0.22696474354520774 -1.596447367621784 124 104 77
-0.24790698130949285 0.235397961544125 -1.595032566240175 131 112 84
-0.2345808326639416 0.24532181710360146 -1.5922707330722292 125 106 77
-0.2238539753846066 0.2533316383358128 -1.5911329458671537 123 103 75
-0.2153083363228052 0.25973544421858735 -1.5913661887457509 128 108 82
-0.2063656090743491 0.2664308246694012 -1.5913097700608043 118 101 75
-0.20166223890209314 0.270006124591797 -1.5939846610106012 108 92 65
-0.19597073175885332 0.274308191636838 -1.5959987595190124 109 93 67
-0.18230430527330507 0.2844772794269629 -1.5927565396136525 122 104 77
-0.17231115003252478 0.2919428932019074 -1.5918798541916848 129 109 80
-0.16873399936889674 0.2946878757332001 -1.5952079559229821 128 108 79
-0.15980222344570985 0.30137150204954566 -1.5949732538119745 123 103 74
-0.15326326473183266 0.30629442542390367 -1.5962983357662566 124 104 75
-0.14216456968629138 0.31457058354298234 -1.594553326196901 123 103 74
-0.14379374381959042 0.31348509614606335 -1.6012999064877458 129 109 79
-0.13859924292086334 0.3174180946559058 -1.603469551020084 125 105 75
-0.13031042629625267 0.3236262028581173 -1.6035330389147793 128 108 79
-0.12203260426628043 0.3298256065194329 -1.6035728687019044 123 104 78
-0.1142332941904387 0.3356725548162544 -1.6039069284862646 106 90 64
-0.10643385929080706 0.3415190178932497 -1.6042119550563207 119 101 75
-0.09736622531651928 0.34829725262554656 -1.603619788296805 118 98 71
-0.08951417242432486 0.3541811802160889 -1.6038276364427462 131 110 79
-0.08216422169035165 0.3596954356422236 -1.6043521934085 142 118 87
-0.07487372440826529 0.36516545096179737 -1.6048907934515428 121 101 72
-0.0692790230610218 0.36938853898283247 -1.6065793464818618 120 101 73
-0.06331886677680454 0.3738798380568088 -1.607994500089078 119 98 72
-0.058211404402596145 0.3777440836576819 -1.6099847044581046 110 90 64
-0.0527211714371264 0.3818892746385821 -1.6116898696222879 115 97 67
-0.048041517789853216 0.3854384807907682 -1.6139466227643449 128 107 76
-0.041485741019663736 0.39036588288595164 -1.6148645708951097 124 103 72
-0.03434991737369053 0.39571897805252276 -1.6153481221331831 113 92 60
-0.030649718119773628 0.3985475292192823 -1.6182461231734173 129 106 73
-0.029868948749018853 0.39923122583584586 -1.6232150055126116 113 91 59
-0.029392748239929822 0.3996912691115586 -1.628405356741066 100 82 54
-0.03020218933129193 0.39920708673481536 -1.634523371789688 98 78 55
-0.03896945416700992 0.3928783395796239 -1.6463820725746334 107 90 64
-0.04561091875813705 0.3881118101546955 -1.6567543782127625 112 96 70
-0.017450497137515175 0.4089037166997882 -1.6419431297068006 110 95 71
-0.14581505195723599 0.31522000458564126 -1.7642792464804005 117 103 85
-0.13857133616842487 0.3206548198392949 -1.7648093634132433 113 96 78
-0.13119210179525564 0.3266571001287641 -1.7887182387267309 132 121 107
-0.12711464707077763 0.3297666594731658 -1.7915415474383674 131 119 107
-0.12357974115982534 0.33247788613001933 -1.7947631821670234 127 114 102
-0.12005037975701133 0.33518485995744685 -1.7979797505034507 118 105 93
-0.12040693850235556 0.33504072854878286 -1.804144073131617 107 95 82
-0.11774476536674477 0.33711134777150636 -1.8080135846124434 102 90 74
-0.1183839548444558 0.3367601299535476 -1.814406359477426 97 85 68
-0.1147991592248796 0.33950745941446364 -1.817564996352814 94 83 65
-0.11193443904727829 0.341726452077361 -1.8212690400432945 115 103 86
-0.10938728358847438 0.34371241861448737 -1.8252125533200543 127 113 97
-0.1097367693330848 0.34357401087178846 -1.8313983114141128 126 110 94
-0.11089186877635115 0.3428450305522289 -1.8382206408529809 123 108 90
-0.11165827665107708 0.34240133662356903 -1.8447532781080394 124 107 89
-0.10478406870557744 0.3475600839752011 -1.8453148748359296 126 109 89
-0.1024489101639493 0.34939044448887957 -1.8494160134914204 129 112 90
-0.10004945340725829 0.35126787327115755 -1.8534629876922417 129 112 91
-0.09913582749263328 0.3520560137097832 -1.8586806158979383 128 112 92
-0.09826145116182072 0.3528154540381063 -1.8639329026913976 126 109 89
-0.09534685650687952 0.35507038181235306 -1.86756610751601 126 109 89
-0.0921212330007134 0.35755314053570986 -1.8709447424489096 128 112 88
-0.08837749720335653 0.36041544845313656 -1.8739007234659675 131 115 91
-0.08578406455404558 0.36243458274739837 -1.8777697038669137 132 116 91
-0.07367921325092186 0.3714232882831586 -1.8739735292125044 128 110 86
-0.051283832793456496 0.38877516835739956 -1.9031598016360902 124 104 80
-0.06021477171368722 0.38247226291074127 -1.922464028364279 123 103 79
-0.0603584613528767 0.3824862097576074 -1.9285619917555759 121 101 76
-0.056412624961927005 0.38549454676980716 -1.9312516604348593 120 100 75
-0.05334103394370043 0.3878625996570612 -1.9346622528801718 119 99 74
-0.05455077673024261 0.38709629208278484 -1.9416647370217983 116 96 71
-0.05491608699233186 0.3869484079489486 -1.947969567115911 114 94 68
-0.05468400725128103 0.38723799301976985 -1.9537792553097066 114 94 68
-0.05088759713194824 0.3901364957629021 -1.956572240757497 116 96 69
-0.04808682581810925 0.3923061073852403 -1.9602012911979658 115 95 68
-0.04696494853335742 0.3932469670180712 -1.9652571758423982 117 96 69
-0.04199316508242046 0.3970050801999997 -1.9670199498506125 116 95 68
-0.03574823426581086 0.40169442155113777 -1.9676723623473416 114 93 66
-0.03409389407736574 0.4030245536609995 -1.9722542805638927 112 91 64
-0.03207020407608846 0.404624899745736 -1.9765169613378346 112 91 64
-0.034574080621331216 0.4029130464790086 -1.984699922103863 113 92 64
-0.037182084989123454 0.4011254475895759 -1.992994638377337 114 93 63
-0.034075633837834185 0.40351812537447596 -1.9963310228888012 114 93 62
-0.030973333678800008 0.40590761351394744 -1.9996633288442156 115 94 63
-0.027875019690525527 0.4082940328735947 -2.0029914279952403 118 97 66
-0.025165718321493558 0.4103958157258699 -2.00665388581357 118 97 66
-0.0060765919236926424 0.4244751245703561 -1.9958653976688903 120 99 68
-0.0036757417082873833 0.42635029292291804 -1.9997466143749314 120 100 67
-0.01851727158483646 0.4156187933177325 -2.018919518391812 118 98 66
-0.016730467129117188 0.41704577236970436 -2.0233837802901338 117 97 65
-0.01375159706848339 0.4193441754031821 -2.0267834143770846 118 98 65
-0.011325414769087438 0.42123843049999216 -2.0306705280878976 114 92 59
-0.012298830768560531 0.4206477296225501 -2.0376047881177857 115 92 61
0.003667478518658396 0.4324381785437412 -2.0293033620561705 118 95 64
-0.0009520697677344869 0.4291824435120878 -2.039512127774029 116 93 61
-0.003704011230067139 0.4272921595933574 -2.0480626203850925 115 92 61
-0.0031612957011539766 0.4278098088072612 -2.053644205059581 115 92 61
-0.0027603640270250085 0.4282239736541457 -2.0593605683069978 116 93 61
-0.008023154892159101 0.42450026315946915 -2.070256585360071 117 94 62
-0.0036220958751418397 0.427837326463449 -2.0723364751115976 117 96 63
0.00022075029915641364 0.43076631549350725 -2.0749144285462084 117 96 63
0.010539687207101134 0.4384255730815091 -2.0715137412112545 118 95 63
0.010547109207700522 0.4385523382640703 -2.077594782849059 119 95 63
0.017373534897973164 0.44365953722582674 -2.0773652896975094 118 95 61
0.021796477002528347 0.44701092333474257 -2.079341641614155 118 95 61
0.0315796400001227 0.45427627961560324 -2.076307080261859 117 95 58
0.03285524043942645 0.45532861894465443 -2.0811807715034796 120 98 57
0.033171202405878175 0.45568032472520453 -2.0869557371423935 139 113 72
0.0261183581249001 0.4506523202965365 -2.099664729751804 142 114 73
0.019759892758737574 0.44613216039528314 -2.1117655942124545 133 108 69
0.02352810131332378 0.44900509163964697 -2.114335141905504 124 100 62
0.023551907817301154 0.4491446656985321 -2.1204432661285906 120 96 60
0.02414741899736833 0.44970168001765665 -2.126016351666109 122 98 62
0.029245871592142536 0.4535451197846556 -2.1273012025219 124 100 64
0.033887788831586496 0.45705502144342663 -2.129003738519276 125 101 64
0.032161920819776146 0.4559179749793219 -2.136796242638364 121 97 59
0.0330101343514454 0.45665947633665566 -2.1421314257699655 119 95 57
0.03363238924889911 0.45723620088335276 -2.1476886554777543 120 96 60
0.02798493146163994 0.4532389952711339 -2.1593147382047344 122 98 62
0.02759767442810307 0.45307984538549984 -2.1658788726517257 122 98 62
0.044298187872784 0.466124870655792 -2.192937068297314 126 102 66
0.05319661035682016 0.4727361652361714 -2.190326491876907 127 103 65
0.07375928760894729 0.4878498789188091 -2.1760751588858023 127 103 65
0.07908870632485648 0.49185732474176086 -2.1769111688795237 129 103 66
0.08131190241589631 0.4936002701572342 -2.1808329365291312 132 106 70
0.08268009043841534 0.49471998795518646 -2.1856086402452832 128 103 66
0.08199274991034983 0.4943417078489352 -2.1924526612300492 117 94 56
0.08503532286345006 0.4966817499265417 -2.1955481093011224 109 89 55
0.08665769835474879 0.4979867809260539 -2.200071565647137 106 87 54
0.08981073685237534 0.5004070661404538 -2.203042800497284 101 80 53
0.09206501663361288 0.5021723822673958 -2.20691914278938 92 74 52
0.09530524324861678 0.5046558860925934 -2.209786539082438 86 71 53
0.09986089507145524 0.5080974187433906 -2.21129985072361 82 67 50
0.11440211240579695 0.5188119825185005 -2.202559639067372 79 66 49
0.11169680678118532 0.5169639066360794 -2.2114756805131988 75 62 45
0.10820274120090423 0.5145418763535424 -2.221228861776229 83 70 54
0.10628305343240974 0.5132669085145707 -2.2293833460449104 92 78 59
0.1190098964884343 0.5226574001359315 -2.22237753089794 94 80 59
0.12036891834713237 0.5237696477226284 -2.227122811593246 92 80 59
0.11702844347786961 0.5214604489511805 -2.2367665964691885 92 80 62
0.1217092324897674 0.5249912383467614 -2.238056716826678 89 78 61
0.12477612751390588 0.5273468633150122 -2.2410202166336184 89 78 57
0.12481501053931571 0.5274982878593164 -2.2471564797267494 89 79 53
0.12524717147917164 0.5279361243019023 -2.252887214581634 96 87 61
0.1334276382550426 0.5340130551993867 -2.2504400371503346 108 101 81
0.12499268131115665 0.527998017541948 -2.2655533134642787 137 132 119
0.13065107835406764 0.5322391988626636 -2.265756648253399 167 164 156
0.14008886837061707 0.5392297881304206 -2.261912115964761 182 181 181
0.1473651293341654 0.5446468822041408 -2.260330469719468 189 191 192
0.1571533453644342 0.5518907261578074 -2.2560267871901134 194 196 195
0.15338791064337887 0.5492743668101812 -2.2662253793621105 199 199 201
0.16206671207267848 0.5557101509533591 -2.263060242679943 201 201 203
-0.3838967092013448 0.12711291554726512 -1.611473256088793 203 203 203
-0.36794920998082886 0.13901491731404814 -1.6076715347243147 153 143 135
-0.3531227132102893 0.15008725041608678 -1.6044995850056938 124 108 88
-0.3391143098127506 0.16055389981622048 -1.6017767147659259 120 106 79
-0.3311884812915049 0.1665248862527839 -1.6027902258565665 121 104 78
-0.3169138065081258 0.17718641048158434 -1.5998034124100202 128 108 83
-0.30175574993149534 0.18849952259013603 -1.5962050048994172 126 109 83
-0.2772162624680714 0.20685471214844198 -1.592478510151719 123 105 79
-0.26750105456928774 0.21414385437519723 -1.5921645764379244 125 108 80
-0.2579888288444353 0.22128235736286722 -1.5919433558561111 124 106 78
-0.25299222935316346 0.22508481977142547 -1.5945731683957431 132 112 85
-0.24235104012310832 0.23305597787772248 -1.5935664058719579 130 110 84
-0.23068799634029516 0.2417810259550084 -1.5918607054119789 128 108 83
-0.21655880929210294 0.2523264254804113 -1.5885157690555582 123 105 79
-0.20559546328952616 0.26053291389095534 -1.5871664895161375 123 105 80
-0.19641646468436488 0.26742100959161363 -1.5869355681034167 111 94 69
-0.18541612042740405 0.2756532511341175 -1.5854806404328992 109 93 68
-0.1777280034916541 0.2814391911166289 -1.586153177744136 112 96 69
-0.17306450457095945 0.284991601360414 -1.588786832823336 122 104 74
-0.16435718756810438 0.2915290045424585 -1.5887378589477588 129 109 80
-0.1620716763855385 0.2933253028502512 -1.5929088649435048 123 104 77
-0.15382008104296552 0.29952534654935126 -1.5931120651860073 123 106 78
-0.14803163967375432 0.30390675732181965 -1.5949271046551874 123 106 78
-0.14219793815214604 0.30832120040186983 -1.596692487422451 123 105 77
-0.13604888562298884 0.3129679977991843 -1.5982264967078663 126 107 77
-0.1302361637557098 0.3173661903613306 -1.599966008253088 125 106 76
-0.12651076601444217 0.3202237342416376 -1.6030972448848484 125 105 77
-0.11758375064333015 0.32691921794863266 -1.6026894280033575 109 93 67
-0.110301543772797 0.3324004597395237 -1.603367202548374 114 96 70
-0.10164025673004745 0.3388986526266429 -1.6030762932108373 137 117 88
-0.09288085128947932 0.3454685957812475 -1.602685040896188 122 102 72
-0.08480877318062852 0.35153085696977937 -1.602732934262527 144 121 88
-0.07780229866216165 0.35680649308670903 -1.6034858135188588 135 112 81
-0.07083756771261929 0.36205084911265295 -1.6042420902679329 121 100 72
-0.06486651751244665 0.3665618211967153 -1.6056634724596515 119 99 71
-0.058917628521293175 0.3710560508708008 -1.6070795690247808 126 107 79
-0.053557613929563264 0.3751156079889828 -1.608886952349419 107 89 64
-0.047342819880465126 0.37980515370364754 -1.6100764032822708 111 94 65
-0.04163297393931348 0.38412193986932086 -1.6115994763051464 120 101 70
-0.038753377637290864 0.3863515176156495 -1.6151029162200132 126 105 73
-0.031824013638104554 0.391566809477256 -1.6157286497179884 127 103 69
-0.026165200464343785 0.39584491042607145 -1.6172327378841231 131 106 70
-0.024154909890436727 0.39743296622382296 -1.6213215377784536 134 110 74
-0.01966767671853442 0.40084685425751304 -1.6236342365048928 125 104 72
-0.026125944360635867 0.396192513364852 -1.6337977253094624 103 83 54
-0.03069142836067218 0.3929339950651536 -1.6426348268885649 102 83 55
-0.018209922175463522 0.4022398595067557 -1.6391707603643901 101 84 56
-0.021422398686398225 0.399978800571757 -1.6470436719753119 107 92 64
-0.007527105430315595 0.4103252235906992 -1.64248313995125 110 95 68
-0.12960305529085758 0.3208133673077101 -1.7547081280180692 132 117 99
-0.12696198839028394 0.3228714500949166 -1.7586082053818068 123 107 87
-0.11241780104582505 0.33425900068286746 -1.7828881057405415 126 112 94
-0.11147533069635607 0.335065698626848 -1.788042829055613 128 114 98
-0.10930568842866262 0.33677604602730166 -1.7922687861414188 129 115 101
-0.10658459524584996 0.3388923582056657 -1.796071880827781 124 110 97
-0.10443927564884165 0.3405846701426121 -1.800309735217255 114 102 86
-0.10371893710269336 0.3412278976482005 -1.8056377925976577 99 87 70
-0.10041119189856446 0.3437758717968986 -1.80897973233469 94 83 65
-0.09812366897758845 0.34557272115312593 -1.8131007729090243 98 85 68
-0.0972286058627872 0.34634461054402016 -1.8182966135196046 101 88 69
-0.09680477570165935 0.34676974748035544 -1.82386202109035 114 99 79
-0.09765724145187471 0.3462557218463187 -1.830427750424508 118 103 82
-0.09478228487045742 0.34848490908031765 -1.8340922689220622 121 103 81
-0.09501121922269656 0.34842999776556716 -1.840184322561314 124 106 82
-0.09219947919138183 0.3506125800924578 -1.8438938582409545 126 107 82
-0.09145352725219019 0.3512751478356427 -1.849227491539292 126 107 83
-0.08884406548246376 0.3533087858061433 -1.8530904710041916 126 108 83
-0.08796372605406194 0.3540702944993309 -1.858321477565383 124 106 82
-0.08561181287792208 0.35591437240715873 -1.8623840827116753 121 103 78
-0.08539754618375023 0.35618601747493217 -1.8681509934095613 121 103 79
-0.08249044114007059 0.3584384074183319 -1.8717666882888353 124 106 82
-0.08163382027928162 0.3591826206056067 -1.8770245018064013 125 107 83
-0.07806488640903225 0.3619215808062902 -1.880098741382684 127 108 84
-0.0718688591612589 0.36659222922061313 -1.8810379790836813 128 108 83
-0.06591254039046884 0.3710861751159486 -1.8821487951727736 127 107 82
-0.06269167081091814 0.37356840972773814 -1.8854644685585376 126 106 81
-0.052406052738982134 0.38124464369445615 -1.883003635893449 124 104 79
-0.05096270361563382 0.3824194411471832 -1.8877411966777908 124 104 79
-0.05089849838137095 0.3825804119520556 -1.8936126246183604 122 102 77
-0.05439822976479486 0.38012176773448136 -1.902428797514837 124 104 79
-0.05520569736735059 0.3796425078710849 -1.909045377004006 126 106 81
-0.05155355896225711 0.38244120004965937 -1.9119766050300901 121 101 76
-0.0528925565546689 0.3815715568567906 -1.919048475525819 118 98 73
-0.05159543664494132 0.3826394356273278 -1.9239362683475691 116 96 71
-0.052055754351193806 0.3824159228544447 -1.9302962157814507 115 95 70
-0.04776265529694518 0.38568534678776195 -1.932677212435049 115 95 70
-0.04624695615165392 0.386913856184135 -1.937382705593682 114 94 68
-0.04605800267556204 0.38716763410502236 -1.9432090082894364 109 90 61
-0.04251257335147013 0.38988734256553387 -1.9461998242752399 105 86 57
-0.039520108076947114 0.39220066084209837 -1.9496505149736203 105 85 56
-0.03911456802224372 0.3926136477165048 -1.9552984034229526 106 86 58
-0.03674090469828334 0.3944723187546986 -1.9592704523534443 109 88 61
-0.03358080250237688 0.3969085068127875 -1.9625644544636285 111 90 63
-0.029680822520750938 0.3998879010997222 -1.9652143614706135 111 90 63
-0.026844608184664498 0.4020859025366167 -1.9687698358272232 111 90 63
-0.02469286784253749 0.4037811793625459 -1.9729110230566178 111 90 63
-0.023885274275907975 0.4044894740874116 -1.9782155044386083 112 91 63
-0.018197284165053618 0.4087809959774528 -1.9792776127606915 115 94 64
-0.01726006615598341 0.40958437035305234 -1.9844646420239638 115 94 63
-0.013489975843176516 0.4124674011527713 -1.9871755213302986 114 93 62
-0.01099028810214936 0.4144176869539954 -1.990990460087024 114 93 62
-0.005606830842047383 0.41848454822578596 -1.9922615682415423 115 94 63
-0.003974327106650688 0.4197980480717204 -1.9968255138371291 119 98 67
-0.0011956059234966565 0.4219527450419536 -2.0003740768501332 121 101 68
0.0035652549277817025 0.42556190132311256 -2.00215568728885 121 101 68
-0.01500997970537643 0.41204690732514293 -2.0247122098203634 121 100 68
-0.007774077575805449 0.41747264280723284 -2.0243102493564353 120 100 65
-0.004811297772723211 0.4197626604910374 -2.027708364031706 120 98 63
0.0022190597350693064 0.4250366813526281 -2.027443312486808 114 91 58
0.005555170228790041 0.42760009188731063 -2.0304799531966324 119 96 63
0.004026079344564393 0.4265945108585536 -2.037906093403519 120 97 64
0.004441757707172256 0.42701571368251967 -2.0435853841617524 121 98 65
0.004784737034766284 0.4273837172603572 -2.049337085410961 118 95 62
0.004703753052780091 0.4274409202684523 -2.0554821500943117 116 93 61
0.005124370865647987 0.4278661380523873 -2.061177370075243 117 94 62
0.0022638318086122267 0.4258854534813363 -2.069888813683359 119 98 65
0.0007237211445677572 0.42487340856296796 -2.0774092479195563 120 99 67
0.0108937798063386 0.4324473831800931 -2.0741420741134586 122 99 67
0.018282736523963894 0.4379815678078886 -2.073402702053859 124 99 67
0.023331773916427212 0.44179981067434043 -2.0748038939199067 121 98 64
0.025403954048611566 0.4434355767557917 -2.0789571195723773 120 97 63
0.035948740410839786 0.45128152706293584 -2.0752000563626978 122 100 63
0.04035798876657393 0.45486265528153685 -2.0892702560205603 146 119 75
0.03464469054610486 0.45079285873534936 -2.10074306826211 142 118 76
0.03148749659001576 0.44859672708753096 -2.109835239029624 129 106 66
0.033915527284001656 0.45049320350616995 -2.1136500764291384 120 97 58
0.03902359510121983 0.45435303247406483 -2.114908596068481 121 97 60
0.03997443721779226 0.45516706361182396 -2.12011782769646 122 98 62
0.039274955018750946 0.45477228050955454 -2.1269109412212996 122 98 62
0.04284395358005666 0.4575042278494054 -2.1296174874057066 121 97 59
0.044247343992495636 0.4586498624169555 -2.1343989020487477 117 93 55
0.042041480387561725 0.4571522618661566 -2.142667056364484 120 96 59
0.042884294951385515 0.45788761607321826 -2.14800340272583 123 99 63
0.044105773394151504 0.45890032717564344 -2.1529761580098232 122 98 62
0.039957710732628104 0.45598151192830355 -2.1631806568751117 125 101 65
0.07814980339492239 0.4847665647457823 -2.1687275033226983 126 102 64
0.08191593671182845 0.48764046945802314 -2.171117899947315 126 102 64
0.08557153010633789 0.4904332584203296 -2.173606653991992 128 103 66
0.08840171304739364 0.49262190043441484 -2.17691060463537 130 104 66
0.08921004482553868 0.49333119277226184 -2.1822381683123213 132 106 67
0.08874888017928345 0.4931118532390705 -2.188848534206611 127 102 62
0.09195025527040823 0.49557191162480585 -2.191771711205015 119 96 58
0.09373141488905978 0.4969929739358561 -2.196124064297564 118 95 61
0.09496360145239308 0.49801249611634246 -2.2010327897264883 110 88 57
0.09729877322576691 0.49983872205331364 -2.204820419626727 98 80 55
0.10069055637578689 0.5024375608918366 -2.207525036349526 85 70 51
0.10524446444047514 0.505885997340288 -2.2090297079311325 83 68 51
0.10978576204015916 0.5093248930362388 -2.2105306550957695 83 69 52
0.11412257701537559 0.5126139655040196 -2.2122254731092146 77 64 49
0.10742185611220167 0.5078334445130864 -2.2252985947069646 80 67 53
0.10915931283638752 0.509222326700411 -2.2296840895462675 85 72 55
0.1296982995297951 0.5243545307443525 -2.214554099656371 90 78 58
0.12944706527287098 0.5242887946589416 -2.220954425778988 90 79 59
0.12546694082521265 0.5214979592388571 -2.2312565387610888 91 80 63
0.12920217520057076 0.5243461586810814 -2.233516592948378 93 81 64
0.13195670062184434 0.5264774683751605 -2.2367934189632557 92 80 62
0.1330761012978029 0.5274138692913698 -2.2417838905444354 86 76 53
0.14321332396750808 0.5349391180471228 -2.2372634165149514 92 82 55
0.1415907499718163 0.53387187367064 -2.2451338923920283 96 88 62
0.13264983961716914 0.527458700574942 -2.2607850894127 117 111 92
0.13319193451289452 0.5279738017591805 -2.266410846595371 151 147 136
0.14007835944251235 0.5331230555444788 -2.265276851923476 174 172 168
0.14904140283231826 0.5397884173929015 -2.2618918779568973 186 186 186
0.15859002786571846 0.5468806204146219 -2.2578365788805312 193 193 194
0.15878499837395227 0.547141375844722 -2.263790939172125 197 197 199
0.16715180158952997 0.5533693627776894 -2.2609445397985706 201 201 203
-0.3758172146976231 0.12634819308869416 -1.608606110742173 178 173 168
-0.36090719279342864 0.1375164541956823 -1.6054235008821602 128 113 98
-0.346356768785802 0.1484169614537562 -1.6024042900937694 122 106 82
-0.3345789027247727 0.1572605553790155 -1.6010515071698412 120 104 77
-0.32381096114151886 0.16535449492471432 -1.6002836130916853 123 106 79
-0.31145018774717903 0.17462862326159234 -1.5984768514609784 122 103 77
-0.2665534894829798 0.2083461967386666 -1.593655096763539 130 112 83
-0.25390755644863705 0.217827396452819 -1.5914342627510523 125 106 78
-0.24237801365355746 0.2264802457468144 -1.5898779549692725 131 111 86
-0.23373203281926896 0.23299519968846033 -1.5901289423008969 131 111 86
-0.22176608373957432 0.2419699139919418 -1.5882076413908521 125 105 81
-0.20967233720171474 0.25103845768012123 -1.586156412383393 116 99 74
-0.19817927380599698 0.2596610144891991 -1.5844472586380207 114 98 72
-0.1892668446305023 0.26637061522049155 -1.584374280177185 101 85 60
-0.17943882818360135 0.2737579624633661 -1.583669155477984 102 86 61
-0.17039716145953773 0.2805620333586681 -1.5834422395920844 114 98 70
-0.16299790088828658 0.28614874162399967 -1.5842625821422305 118 101 71
-0.15523370721613985 0.29200529155114296 -1.5848150899533773 120 102 74
-0.14979203572761565 0.2961409389362244 -1.586879197006506 118 100 73
-0.14687419839012195 0.29840687018199596 -1.5906049282383445 116 99 72
-0.14188157473394358 0.30220938174917067 -1.5929392080937002 116 97 70
-0.13485792121940926 0.30751580013909063 -1.593896897945354 115 96 68
-0.1289627240976131 0.31198605762320586 -1.5955881329862895 124 104 74
-0.12453502460396354 0.31536923125874355 -1.5982494888739396 128 108 77
-0.1158989214563978 0.32186839642922116 -1.598048479230575 117 99 72
-0.10962696949687478 0.3266164518878458 -1.5994207147498318 109 94 70
-0.10108389376373528 0.3330456271845126 -1.5992228779090634 118 100 75
-0.0962770318070153 0.3367080966629265 -1.6015481825547495 135 114 85
-0.08840447031211973 0.34263984413647375 -1.601754177982767 116 96 67
-0.08084168720085805 0.3483417288833576 -1.6021440124612876 132 110 79
-0.07358404069433805 0.35381722608113764 -1.6027166021602688 128 105 76
-0.06648276508670081 0.35917648730936774 -1.6033708872349357 126 105 77
-0.06207608749982185 0.36254090704073394 -1.6058739456850788 124 103 73
-0.05721780037528573 0.36623931058257225 -1.6080483255437854 119 99 73
-0.05132686203315123 0.37070163564894215 -1.6094837873418797 106 88 64
-0.04300374500418208 0.37696339928940603 -1.6091893121092027 108 91 64
-0.03465369370524041 0.38324450147378597 -1.6088438171736903 106 88 58
-0.03008033675655991 0.38673057815125494 -1.6111384646715705 123 102 68
-0.023674592120886573 0.3915721192074564 -1.6121178271397485 137 113 75
-0.01607290046097265 0.39729802701514944 -1.6122221745295096 130 105 67
-0.011346127186769306 0.4008965875707762 -1.61435245980674 140 116 80
-0.01068266227430853 0.4014890816374397 -1.6193813788322253 130 109 74
-0.01338821755102687 0.39958960720066317 -1.6268384544286845 119 100 65
-0.005464788343143345 0.4055522395013577 -1.6266429548338963 103 84 54
-0.004697922428901102 0.4062212694979058 -1.6316002261513727 106 87 59
-0.004480202630057051 0.4064842401964055 -1.6369602379269332 105 88 60
0.0023504791564649685 0.41163772937555654 -1.637505285660856 105 88 61
0.0030874264354628367 0.41228459569331577 -1.6424822954686227 102 84 61
-0.10841794065330218 0.33025812126307946 -1.7472513399057357 121 107 88
-0.10376835291477499 0.3340179918664276 -1.7612582465723174 118 99 77
-0.10007683889908647 0.33685422249566266 -1.7643198867870171 114 94 71
-0.10794866090000932 0.3312523920680298 -1.7819404880290912 101 83 60
-0.10509286581005817 0.3334711685986454 -1.7856425304473216 115 100 78
-0.10465599776681128 0.333902401697314 -1.791178257678628 124 111 93
-0.09627288339870937 0.34020514956092984 -1.7906568349071106 125 112 97
-0.09069958162147623 0.3444312683522414 -1.7922530549947906 120 108 92
-0.09157874282707612 0.3438899476097976 -1.7987846767712454 115 103 86
-0.08973361282414904 0.34536143641316736 -1.8032298867374887 103 91 74
-0.08492117584389691 0.34902488215063454 -1.8053808190210674 94 81 64
-0.0841978974677347 0.349667522868361 -1.8106862001388078 96 81 62
-0.07966027398964615 0.3531275903872565 -1.8130294357612704 97 81 58
-0.08254571537370353 0.3511049168966018 -1.8211497020293679 112 96 72
-0.08030385059993161 0.3528693092456425 -1.8252792102165538 121 102 78
-0.07779724928664739 0.3548291473058832 -1.829197759340929 124 106 80
-0.08434998646986741 0.3500991644778653 -1.8402472174404638 127 107 80
-0.08211405936901855 0.3518593912043734 -1.844393253854453 128 109 82
-0.0809919037111907 0.352797214889565 -1.8494189878409244 127 108 82
-0.07956197126506137 0.3539623152424287 -1.854202488347143 127 107 81
-0.07736340709352041 0.35569487692674506 -1.8583738975510196 127 106 80
-0.07130774489867309 0.3602747177064694 -1.8594565020424048 126 106 82
-0.06707965584337533 0.3635051080360564 -1.8619836761890702 126 106 82
-0.06310197121162187 0.3665504300263296 -1.8646993727568164 124 104 79
-0.06025335923707187 0.36876220171637397 -1.8683150294465154 123 103 79
-0.05872437754936127 0.36999994412651627 -1.8729934844096352 129 109 84
-0.05625947381864188 0.3719283808079434 -1.8769118379116954 127 107 82
-0.05727852367463704 0.37128583126897574 -1.8836656765479731 126 106 81
-0.04792288898782848 0.3782988140579729 -1.8819502114002329 123 103 78
-0.04832613170840111 0.3781106351635981 -1.8881993610620633 117 97 72
-0.0466274596672161 0.3794734118822553 -1.8927294903894432 119 99 74
-0.047637757871139996 0.3788376605069524 -1.8994946020443617 121 101 76
-0.047749972177672295 0.37886466598641066 -1.9055296104184392 121 101 75
-0.04779431460758704 0.37894189848390597 -1.9115170069064156 121 101 75
-0.0490530443973341 0.378123553192261 -1.9185241651489808 119 99 73
-0.04809475329099594 0.3789406502528237 -1.9236939449490988 112 92 66
-0.046044347339672886 0.38056325133944047 -1.9279519925563464 108 88 62
-0.041488296708899586 0.3840336235969612 -1.930101965411501 109 89 63
-0.038591705043763636 0.3862800124429627 -1.9336358415973138 109 89 63
-0.036234256844211776 0.3881287343265346 -1.9376190307834247 104 84 55
-0.03426655048895061 0.38969002202646064 -1.9419289510398559 107 87 58
-0.03329310252970241 0.39051823847464817 -1.947082843260433 109 89 61
-0.031238517906026386 0.39214355452554633 -1.9513175346435707 109 88 61
-0.031819225116726024 0.39182615541112825 -1.9578052858398634 110 89 62
-0.030179035169043578 0.3931460506844798 -1.9623979212607408 113 92 65
-0.023511749731720377 0.3981713174390771 -1.9626622234356812 110 89 62
-0.024076409920061437 0.3978659209183907 -1.9691456113047086 109 88 61
-0.021106612874483066 0.4001655741892191 -1.9725789059390058 111 90 63
-0.019234370179437577 0.40165626887433764 -1.9769586442069391 111 90 62
-0.01125759868011389 0.4076453003073621 -1.9760180092656991 112 91 61
-0.010695835348913163 0.40817003659169965 -1.981524432007207 114 93 62
-0.006222984265756626 0.411576536322021 -1.9836081399511118 114 93 62
-0.002077366440665418 0.41474167276188656 -1.985964600178248 114 92 61
0.0004614576967653661 0.4167228442974423 -1.9897245679740123 114 92 61
0.004464484973715266 0.4197825289460958 -1.9921847927153895 119 97 66
0.005489520192274389 0.42064839133311727 -1.997273809171894 124 102 70
0.004933171164128669 0.4203495375266155 -2.0037725962980693 124 102 70
-0.006421276116961527 0.41209805404469424 -2.019916710603684 124 102 70
0.0017187353703853048 0.418204621772984 -2.018684807847767 121 100 66
0.004107870053787488 0.42007557185057237 -2.0225797010498408 122 99 65
0.006567517555892299 0.4219983684857849 -2.026407007174172 121 98 64
0.007625499869807428 0.4228890230079587 -2.0314951240407524 113 90 56
0.009817093016496303 0.42461436374387673 -2.0355598068614023 122 99 65
0.010815315468934217 0.42546107396226845 -2.040704978630988 124 101 67
0.011799315777985542 0.42629737379487187 -2.045866318190939 122 99 65
0.011960409141975936 0.4265279815272878 -2.0517825198397937 117 94 61
0.013675337400389787 0.42790245393658666 -2.0562831489130375 118 95 61
0.013762445857894767 0.4280788152184064 -2.0622785499382683 120 98 65
0.0076562237500720776 0.4236972435893734 -2.073987837596088 122 100 67
0.008318226924161787 0.42429728426275914 -2.0794847898677467 123 100 67
0.025425984032240168 0.43699931779767803 -2.069747920722021 123 99 66
0.030435615225406665 0.4407977982462659 -2.071170867632069 122 99 65
0.030581719724932344 0.44101751042580767 -2.077108225463169 122 99 65
0.03526948992506046 0.4445787577677972 -2.07880852173851 121 99 62
0.04552403423166185 0.45257130313773575 -2.093476386521639 148 123 80
0.045404212569136904 0.45259559508990294 -2.0996745662670477 133 109 68
0.041857858967008554 0.4501001166779791 -2.109140043331099 124 99 60
0.043352469307490205 0.4513121293208247 -2.1138266945691115 123 99 60
0.04535867600924082 0.452900339988449 -2.118024721418859 125 99 61
0.04690054500633811 0.45414709643860973 -2.122665833175359 124 99 61
0.04822565660896361 0.4552344945711527 -2.127515722224451 126 102 64
0.05398146694831851 0.45957923579045085 -2.128094162920499 125 100 62
0.05270533102179614 0.458754239319907 -2.135450720662048 125 100 63
0.05672639932319573 0.4618233425453294 -2.137685456003306 126 101 66
0.0559494301146678 0.46136555607890845 -2.144573488494202 125 101 64
0.05425150756721342 0.4602311392723203 -2.152372776139991 126 102 66
0.04996355849680251 0.4571936024874073 -2.1627234042528625 126 102 66
0.06045790508613241 0.4654756934886771 -2.183289666587421 123 99 62
0.07150965110889534 0.47370884579193473 -2.178490089228503 121 98 58
0.08410721379814884 0.4830765263001413 -2.172096389539664 123 100 60
0.08776627748653432 0.48587767229438666 -2.1745816025923816 126 101 64
0.09185513898785036 0.48899427422506386 -2.17662426282586 128 103 63
0.09303700730689618 0.4899757056193175 -2.181576647411073 136 110 69
0.09485886785151143 0.49142716010690857 -2.1858858576189997 138 112 71
0.09637359271366436 0.492653059851835 -2.1905043718430233 132 106 66
0.09862390195337012 0.49441907107479016 -2.1943773438782945 131 106 67
0.09951911271025682 0.49519010091295984 -2.1996246035855838 124 100 66
0.10257276914315211 0.4975458209170712 -2.2026747830981757 107 86 58
0.10537803489914516 0.49971904631750796 -2.205970717229595 87 70 49
0.10906504501301778 0.5025393844760475 -2.2083557369916016 86 71 52
0.11330655750070784 0.5057665044964451 -2.210158828557084 89 74 58
0.11770076775680821 0.5091054187707729 -2.2117895171249344 83 70 55
0.12064735424921263 0.5113816462422744 -2.2149008475091527 79 66 51
0.11293290064428363 0.5058342799557245 -2.229055704460485 82 70 53
0.1334203863097161 0.5209819986430548 -2.213949172067174 83 72 54
0.1337490654372157 0.5213365971124763 -2.2197463382556553 86 75 58
0.13221056241495655 0.5203214148298287 -2.227501979072191 87 75 58
0.13434310511721043 0.5219997338946393 -2.2314282419484885 82 71 54
0.1347161234969116 0.5223872543492436 -2.2372002441630783 88 76 59
0.13536135105954394 0.5229745726049786 -2.242692293286591 85 74 55
0.1351598814800984 0.522940964054682 -2.2490842061774763 87 77 53
0.13752453758799638 0.52478957852636 -2.252767820521483 94 85 58
0.13807465667772245 0.5253073972076936 -2.2583743942348473 106 98 76
0.13845264790043277 0.5256991019357833 -2.264170199732267 130 124 109
0.14324415766787607 0.5293271729151339 -2.265259372831267 161 156 150
0.1511521939574887 0.5352399483708816 -2.262992719819831 180 179 178
0.15877488474796375 0.5409428488216694 -2.2609959678179297 190 189 189
0.16635301446004347 0.5467262887557246 -2.265174513763762 199 199 200
-0.35360969035439704 0.13622597303640738 -1.6030119380845054 127 111 90
-0.3399669446467514 0.14648338949086875 -1.6005371685268237 126 108 83
-0.32535360201314706 0.15746199942383082 -1.5974040526475366 122 105 80
-0.31651030609563047 0.16414673365730453 -1.5978187786996805 120 103 77
-0.30223027098561356 0.17487553721335047 -1.5947908555474877 123 106 80
-0.24841383408619286 0.21542649883289078 -1.5900219629569667 129 111 86
-0.2361369944913949 0.22466011899792 -1.5879737206804827 123 106 81
-0.22579864044441272 0.2324512961967105 -1.5871237739375803 118 101 76
-0.21380435279804003 0.2414731573990666 -1.5851651154713728 110 93 69
-0.20261809572061387 0.24989333922227241 -1.5836824382504895 106 90 64
-0.19358142393242486 0.25671443737751526 -1.583553364848938 104 88 62
-0.18313529380153448 0.26458286449868396 -1.5824707146592896 101 85 59
-0.17679603014297807 0.2693972814274653 -1.5840362489177606 102 86 59
-0.17135512415400606 0.27354345661823987 -1.586170274298469 112 95 67
-0.16132438279687106 0.2811013005716981 -1.5852604925467206 117 100 72
-0.14875300685096193 0.29054700142024487 -1.582630849099386 118 101 73
-0.14699845783168758 0.29195170127570563 -1.5871322824075875 115 99 72
-0.14288832206565577 0.29510718956701926 -1.5900635854051246 114 97 71
-0.1358083284132392 0.3004697096727304 -1.5909976578934995 117 98 73
-0.12924030282433535 0.3054512978005426 -1.5922497670425708 117 97 71
-0.12390673832018045 0.30951510968211576 -1.5943098484129168 124 104 76
-0.11802734133015647 0.31398421501082086 -1.5959837736808704 131 112 82
-0.11051255443733715 0.3196681388512547 -1.5965290717038654 116 99 73
-0.10575572366841357 0.32330239214779305 -1.5989227714572563 113 96 73
-0.09876965991376224 0.3285926246123011 -1.5997800191009963 121 100 74
-0.09187418752525484 0.3338151057374034 -1.6006740186980728 131 109 81
-0.08344439664151038 0.34017696196155883 -1.6004886066846589 123 102 76
-0.07665087412356153 0.3453227613200434 -1.601399416317814 120 100 75
-0.06728776251899887 0.35237681178666685 -1.6005075996696818 129 105 80
-0.06286847524243944 0.35575815282359735 -1.6030117105830919 123 103 74
-0.0588715657970188 0.3588255488973169 -1.605796633344606 108 90 61
-0.05286857414504381 0.363382603973231 -1.6071677277931344 111 93 67
-0.04624181275873945 0.3684025171636729 -1.608080308592111 106 90 66
-0.04368084681573137 0.37040279019487293 -1.611830319640112 108 92 66
-0.028750659684839197 0.3815877043309685 -1.6068410483430635 107 90 63
-0.022660767782550217 0.38620753118142664 -1.6080518376020732 120 100 65
-0.017002221064417455 0.3905067172027294 -1.6095476754206113 149 126 85
-0.01083565541490239 0.39518271921897974 -1.6106615676339255 151 125 85
-0.006798081733797645 0.39827781336305595 -1.6132770602717759 134 110 71
-0.006939348023123404 0.39827059427410644 -1.6188812526458998 132 110 73
-0.006824808728763121 0.3984534003218048 -1.6243091764531634 130 107 74
-0.005810055768637856 0.3993045115485024 -1.6290932098939015 108 87 56
-0.005200697051178649 0.3998547804913455 -1.6341737636954234 101 82 52
-0.00016851048103549982 0.403687599322666 -1.636040592583659 105 87 57
-0.003103045116430281 0.4016078337521299 -1.6437066255489738 113 96 66
-0.01253056012381537 0.394710137613665 -1.6561499069181302 101 83 56
-0.020499574305570534 0.3888956416944362 -1.6675742629515797 105 88 62
-0.09337250778783446 0.33554092468683944 -1.7616840537582212 118 99 77
-0.09907384846508993 0.3315194109120368 -1.777656811975152 111 91 64
-0.09667749344635507 0.3334004636728847 -1.7816927444642068 104 86 58
-0.09421271083431842 0.3353321922284639 -1.7856727550556384 108 92 68
-0.08827993220867952 0.339835435292706 -1.7869990078682596 120 105 89
-0.0851264261261992 0.34227753765649005 -1.7904343174302508 118 104 90
-0.0843916377408575 0.3429261890306367 -1.7957218726444122 114 101 85
-0.07881299102973527 0.34716610139438514 -1.7972772784008126 114 100 84
-0.07559913090737863 0.34965254324838707 -1.8006431331636417 106 91 75
-0.07051319071081086 0.35352662113507777 -1.8025477690345912 96 80 62
-0.0681685941157838 0.3553683515457153 -1.806570136052748 93 77 53
-0.06575491035597258 0.35726122561101425 -1.8105348811299724 92 76 50
-0.06821239041928351 0.3555436672260703 -1.8183132795792956 111 94 67
-0.06631901695382325 0.3570509979332066 -1.82269116560263 124 105 79
-0.06505947498441256 0.3580885823155412 -1.8275675308924444 124 104 79
-0.06420427889453512 0.35882656176515454 -1.8327655362239135 121 102 75
-0.06307078080329986 0.3597708278443991 -1.8377464143071296 123 105 77
-0.0697045533891597 0.35495997915674776 -1.8489135857633028 127 106 79
-0.06570514204240191 0.3580280440436662 -1.8516297399860775 128 107 80
-0.06638365537413332 0.3576302051996578 -1.8580816770693647 127 107 81
-0.06483040010097119 0.35888590126024067 -1.8627515274656596 126 106 81
-0.06147691322602966 0.3614751643173344 -1.8659704229518497 125 105 80
-0.054977618649036 0.36639445935148685 -1.8666366946821404 124 104 79
-0.052629194340993446 0.3682388393458435 -1.8706455010917136 127 107 82
-0.052737304106723504 0.36826374989960703 -1.8766494559184796 126 106 81
-0.04523067352278587 0.3739282429617478 -1.876446829017893 125 105 80
-0.04250663100672275 0.3760504675569578 -1.8801301233617378 124 104 78
-0.04460097163611926 0.374604559448287 -1.8877649240171728 117 97 72
-0.04331062618588355 0.3756652056337918 -1.892630175602486 118 98 73
-0.0445687752604062 0.3748389387563858 -1.899602924163717 120 100 75
-0.04334628248788852 0.37584952096631763 -1.904534112328793 119 99 72
-0.042117911972627764 0.37686448964154684 -1.9094623877922776 120 100 73
-0.044372753172961465 0.37530094431965816 -1.9172974206655296 118 98 71
-0.03785222274521305 0.38023357541264635 -1.9178116148972137 113 93 66
-0.03531489520222153 0.3822174411410304 -1.9216428601942999 107 87 60
-0.031863491572021785 0.3848777700965216 -1.9247000871732276 108 88 61
-0.029574289903958273 0.38667778874847236 -1.928728974843353 108 88 61
-0.02646545895501179 0.3890843141541754 -1.9320603826670786 108 87 59
-0.025079917056101242 0.39021545725629064 -1.936847653430144 111 90 61
-0.022022350628087384 0.392583853992724 -1.9402117473118143 109 88 60
