ply
format ascii 1.0
element vertex 672
property float x
property float y
property float z
property uchar diffuse_red
property uchar diffuse_green
property uchar diffuse_blue
end_header
0.16138443991858442 -0.5136076887093495 -2.2428233465452387 95 76 34
0.16915425245454246 -0.5188852928205239 -2.2405656650742896 94 77 35
0.16498314179299212 -0.5166661968039141 -2.250739504373735 86 71 31
0.17099591468138853 -0.5208389031005225 -2.250284774923828 90 75 40
0.16965617093477753 -0.5203980474587779 -2.257520602364307 90 75 44
0.16849940508500422 -0.5200729595219512 -2.2645789410249177 91 78 53
0.1670714717282113 -0.5195788448780168 -2.2719373414072215 109 99 80
0.16614266714731363 -0.5193985968247989 -2.278783485385193 139 135 125
0.16695411877625316 -0.5203095158657429 -2.283797542262529 168 166 162
0.16919317618218532 -0.5221148118664046 -2.287297663705042 186 185 183
0.17380450283210225 -0.5254051744968443 -2.288265569932735 195 195 195
0.17830946860436847 -0.5286277782566817 -2.2893298496209424 201 201 201
0.19137228312838084 -0.5372044153693412 -2.2812115039366074 204 204 206
0.16390250876747547 -0.520420525919794 -2.3165529618025915 207 207 208
0.26339834456818845 -0.5830501896664346 -2.215371449176449 209 209 209
0.26797715343107037 -0.5863009335219649 -2.2160929665958973 209 209 209
0.29381032494153814 -0.6028347090696973 -2.193799714023861 210 210 210
0.2938865070925649 -0.6032657023811547 -2.1993120187228983 210 210 210
0.29124296754785417 -0.6019983479641283 -2.207789117009625 211 211 211
1.5852357680133151 -1.422320902249274 -0.9764067088076465 214 214 214
1.587109000085023 -1.423617763898093 -0.9762196249699312 214 214 214
-0.5666488505668007 0.14700919869675133 0.052761927586714386 176 176 176
-0.49223807959437016 0.008838672699465033 -1.1945689151595884 187 188 190
-0.4668441019914362 -0.00849005150639065 -1.1891417051914208 188 189 191
-0.44869607286702384 -0.020976581396038863 -1.1867433282401056 188 189 191
0.22047611212047313 -0.46842034183263204 -0.9108025392816202 189 190 192
0.22545791252005384 -0.4720264855712914 -0.9127239801647562 189 190 192
0.23911843997974191 -0.4814178014478878 -0.910808174190779 190 191 193
0.23956025221756583 -0.48199448755515817 -0.9146916030460579 190 191 193
0.232486660689923 -0.4775628081069247 -0.9219173537170922 191 192 194
-0.07204159409620547 -0.27493789013648007 -1.0619290347328336 191 192 194
0.01632002220627926 -0.3341269588633998 -1.027021979221478 192 193 195
0.037673945089484906 -0.3486630513015586 -1.021941913353627 193 194 196
0.04311270073791679 -0.35259582322391664 -1.02397968281739 193 194 196
0.06523135338619217 -0.3679403950597129 -1.022879334607885 194 195 197
0.06279221385035383 -0.3669347021905348 -1.0329228209552987 195 196 198
0.06504473129899058 -0.36874257555084095 -1.036355245791711 196 197 199
-0.3956846671543045 -0.0897969324372897 -1.647294479996447 213 213 215
-0.36685152471847604 -0.10908622266357615 -1.6355483808531612 207 207 206
-0.3399838738873847 -0.12708038364397517 -1.6248888862409534 158 155 147
-0.31984633626341974 -0.14066100960738248 -1.618256012998367 121 110 96
-0.3034764234599381 -0.15177011200589535 -1.6138663760910508 119 103 83
-0.28741726077018037 -0.16267145743701117 -1.6096052696916652 118 100 76
-0.27497648438272626 -0.17120123656621472 -1.6075282954764807 118 100 76
-0.2617922849213066 -0.18021401939874687 -1.6049411237247444 122 105 79
-0.24863422580928146 -0.1892062284601711 -1.6023199947625244 122 105 79
-0.23312923994957058 -0.19972932597577314 -1.5981761650975297 121 104 78
-0.22390844219355915 -0.20614071970527525 -1.5979280106314304 119 102 74
-0.2143245113640661 -0.21278710330633965 -1.597417078492792 116 99 71
-0.20510735888263232 -0.219191438298869 -1.5971036277715396 111 95 69
-0.19516224273694666 -0.22606894539014555 -1.5962936593299086 113 97 72
-0.186093120246334 -0.23237186621747663 -1.596006074839684 117 100 73
-0.17690266655180537 -0.23875172084477347 -1.595607826155632 119 102 73
-0.1686492217803104 -0.24451764640575568 -1.5957781564250744 119 101 71
-0.15760383355958218 -0.25210347600087074 -1.5941187486440749 126 106 76
-0.14916957683964954 -0.2579828571039356 -1.5941069064635052 129 109 76
-0.1397801561746312 -0.2644831582113998 -1.5934445796929746 139 119 84
-0.1303876564254396 -0.2709830690798342 -1.5927455827084727 129 109 76
-0.1224862302756154 -0.2765084470516894 -1.5929863500428931 124 102 71
-0.11217179791729731 -0.283604702139525 -1.5916165229669477 127 104 73
-0.10538258514708804 -0.28840101380269484 -1.5925272238748098 120 98 67
-0.09778489326007689 -0.29372243455570723 -1.592880743515059 126 103 72
-0.09037106638987236 -0.2989222212771399 -1.5933289857790354 134 112 75
-0.08417546770167272 -0.3033268735844684 -1.5945605345539378 142 117 80
-0.07693073632862601 -0.3084131146207494 -1.5950715738230097 137 111 76
-0.06948302115328747 -0.3136297032798201 -1.5954211728390897 140 115 76
-0.06022420837103143 -0.320023013859573 -1.5945285368223407 144 117 79
-0.051123178793196444 -0.32631127306540253 -1.5937074804472688 151 123 85
-0.04332225773659376 -0.3317515386632795 -1.5937308186600807 143 114 75
-0.03721484018979426 -0.3360885886490517 -1.5948738452345808 139 111 69
-0.03271645513126464 -0.3393781195062937 -1.5970903765051463 132 104 64
-0.029628846191779412 -0.3417497350622804 -1.6002558615992664 133 107 71
-0.025276528024591238 -0.3449426718034018 -1.6025481480419437 118 92 58
-0.020852437649357125 -0.34818133191413175 -1.6047780652782544 102 81 45
-0.017176594779530596 -0.3509330688757069 -1.6075101440574593 94 75 43
-0.012190434015852847 -0.35453496999754003 -1.6093263179115285 92 72 44
-0.01805485311606242 -0.3510915646607662 -1.6186517857231428 88 69 40
-0.013877264533917022 -0.35416813819844783 -1.6210229204479554 88 68 40
-0.01596190663865099 -0.3531803606671738 -1.6277529210194153 89 69 41
-0.013995605682270262 -0.35482165892170736 -1.6316619078457133 84 63 33
0.001299970528885419 -0.36510785678937374 -1.6262041039398323 77 58 31
0.0034579871279343255 -0.3668710483037099 -1.6299430005627578 96 83 66
-0.23546544653730395 -0.21275119719527585 -1.80994570166662 153 146 138
-0.2346027905565401 -0.2137124906396614 -1.8151474402172905 139 132 122
-0.18334002897260931 -0.24732292478002754 -1.7843739502480336 125 117 107
-0.178749419426665 -0.25069110188760246 -1.7867978929154829 119 111 98
-0.1699538947156926 -0.2567809166457657 -1.78618711720665 121 112 98
-0.16120907061863565 -0.26283562351567485 -1.7855798047917646 121 112 98
-0.15579910264632224 -0.2667298518671056 -1.7873505485169994 120 111 97
-0.14895602028849503 -0.27155008794425783 -1.7880641977510823 122 112 100
-0.1480219329486538 -0.2725464138946885 -1.7930524694393837 126 116 102
-0.14060135574511046 -0.2777376771343906 -1.7933094814241093 125 114 99
-0.1329296882760998 -0.2830894073865131 -1.7933556254585183 127 115 100
-0.12848477170647088 -0.28635349733408105 -1.7957432459374658 125 113 98
-0.12215532058670064 -0.2908344687222302 -1.796729062387971 125 112 96
-0.11779250870247682 -0.29404334833378765 -1.7991460468829132 122 108 92
-0.11499850667491629 -0.2962380295339072 -1.802712831665098 116 103 85
-0.1131227173035157 -0.29783937571576785 -1.8069564556497486 115 102 84
-0.1118793558534682 -0.2990323220239917 -1.8116700955889968 116 102 84
-0.11043737933034503 -0.30035354104620043 -1.8162363290597734 115 102 84
-0.1123072782454208 -0.29953776820597394 -1.8232885220587371 114 101 83
-0.11093365759657908 -0.30081546121351815 -1.827914458624741 113 100 82
-0.1083657669420004 -0.3028634249128465 -1.8316391309438256 113 99 82
-0.10869084206943719 -0.30304573279707187 -1.8375502677804354 108 94 75
-0.09209625578748448 -0.31413529732282114 -1.8306140725228377 113 98 79
-0.09085070989536592 -0.31532825187233315 -1.8353058178865416 115 99 81
-0.08581180301991775 -0.3189653223604979 -1.8370988035990239 115 98 80
-0.08078739169296878 -0.32259191215913835 -1.838886373535064 114 97 80
-0.07468371248605721 -0.32691237661257394 -1.8398273353442975 114 97 78
-0.07341688249487716 -0.32811734728684644 -1.8444782790715044 111 94 74
-0.07191021701414108 -0.32947675930319165 -1.8489446758958619 112 94 73
-0.06982847360391714 -0.33120621903617364 -1.852964634392214 115 98 76
-0.07039541330773563 -0.3312315328742094 -1.8590438678275127 115 97 74
-0.07274802844352868 -0.3301090435287021 -1.8665271543647308 111 94 70
-0.06762906194858986 -0.33379199971669704 -1.868176600961906 109 93 68
-0.06258471228079815 -0.33742580737626743 -1.8698675739657846 113 97 72
-0.0601454122297706 -0.3393842695466121 -1.8735944050607245 115 99 74
-0.05618639235511602 -0.3423188497064982 -1.8761157016475476 112 95 72
-0.052174773041237354 -0.34528640790176157 -1.8785836132894302 109 92 69
-0.045768420619878236 -0.34979098402863734 -1.8791356553324574 114 96 71
-0.04551833604764238 -0.3503415340852365 -1.8845734313144489 112 96 70
-0.040306818361122265 -0.35407698414447386 -1.8860489737854464 110 93 67
-0.03889130930136525 -0.3553753642362359 -1.8905518044770921 106 89 63
-0.03617674046206687 -0.357507139449304 -1.8940097934332119 105 88 62
-0.03346507140002475 -0.35963664786472044 -1.8974642391365357 111 94 67
-0.030756130046698027 -0.36176400048338014 -1.900915012045203 111 94 67
-0.027228583900357706 -0.3644156928917255 -1.9036954422968375 112 95 68
-0.02386123229257464 -0.3669640446197018 -1.9065964798493016 115 96 69
-0.0243251701763606 -0.3670570849249845 -1.9126166746760516 114 95 65
-0.025831025372236804 -0.36648339145338454 -1.9194993890876713 112 93 63
-0.02820716433767978 -0.3653533923433566 -1.9271111859359153 110 91 61
-0.023466679544995095 -0.3687807079789284 -1.928879587800051 109 90 60
-0.021353971191316323 -0.37052508426684333 -1.9328031106824306 108 89 59
-0.023402058476197474 -0.3696069124656397 -1.9401708559090303 106 87 57
-0.019474033634386156 -0.37251281014082505 -1.942589909808433 106 87 57
-0.01709270178177913 -0.3744287357013074 -1.9462860637524153 108 88 60
-0.014383876155602549 -0.37655374599426805 -1.9497041454313777 103 83 56
-0.013993562218313105 -0.37719636695198416 -1.9550596124394473 103 83 56
-0.012935356743931037 -0.37826615267190106 -1.9598589188073197 113 93 65
-0.01022246289846257 -0.3803931896164747 -1.9632652975482936 110 91 60
-0.0076424491693742325 -0.38243494227887914 -1.9667780213766815 108 89 58
-0.006554616772863897 -0.3835235350734506 -1.9715506120844943 106 87 56
-0.004513145284841091 -0.38522101676746057 -1.9755141796410416 105 84 54
-0.002085536599999993 -0.38716473430761056 -1.9791457021135648 105 84 55
-0.0011542956014315986 -0.3881534269045398 -1.9840523204279503 104 83 54
-0.0007314288096301746 -0.3888180404384568 -1.9893976309825587 101 80 50
0.006111028785013406 -0.3935766252726481 -1.9892264298844407 100 79 48
0.006351098609319872 -0.3941243306691165 -1.9947240108903097 100 79 48
0.007642346256554633 -0.3953424085828524 -1.99931834624904 98 77 45
0.008296813085292953 -0.39615481444956085 -2.004465993599527 97 77 44
0.016649376420961648 -0.401871148522937 -2.002920630215614 99 79 46
0.014451704841369095 -0.40086648991509743 -2.010545674719729 108 88 56
0.009063867922904367 -0.397832054928486 -2.0209799070081678 111 90 59
-0.0013422692387968227 -0.391605907112403 -2.035850973976382 102 82 49
-0.00834276520548849 -0.3875508775469625 -2.0477844422050326 105 85 52
-0.015313979545770295 -0.3835173856009781 -2.059734143524672 106 86 53
0.004962815210268201 -0.3968156621131861 -2.0476166484498735 104 84 51
0.005487827013104352 -0.3975493746206336 -2.05293139396392 104 84 51
0.014198424064063075 -0.4034863716846275 -2.0509675517825605 104 84 51
0.013320663209050287 -0.40332794053117504 -2.057523116016964 101 81 48
0.01057724770244911 -0.4019851120680404 -2.0657597685704783 101 81 46
0.020163911078215357 -0.4084746539611312 -2.0629542091544497 99 79 44
0.019222300463778152 -0.40827664136637376 -2.069581083520387 100 79 45
0.025213893632775375 -0.4124803879689384 -2.0699644773838735 100 77 44
0.031361946485747305 -0.41678185697834 -2.0701836918104006 99 76 42
0.034678070811361705 -0.41928509203276665 -2.072948826787634 99 77 41
0.03607153359434773 -0.42056826001377223 -2.0774539431369776 113 91 51
0.031524351084102786 -0.41808470206502346 -2.087379214225623 116 94 54
0.027270290193627034 -0.4157890508156953 -2.0970666774051367 106 84 49
0.03410182276078516 -0.42052051726930817 -2.096613586833027 103 80 44
0.032693992904397395 -0.4200301390721999 -2.1037127436460006 99 75 40
0.05567587366204357 -0.43498838495326936 -2.088329018231404 98 74 38
0.056433616649248786 -0.43586697555403797 -2.093392577135002 98 74 38
0.05614057824475249 -0.43608065414234387 -2.099434316271158 91 68 34
0.055847181389330314 -0.4362947242925388 -2.1054853275793564 74 52 23
0.059808153760641636 -0.43920099883488656 -2.107577800448575 68 46 22
0.06416075943526195 -0.44235409852628754 -2.1092913594174045 67 45 22
0.06901624859581945 -0.44582415914181095 -2.1105186687299478 69 47 25
0.07301228744203558 -0.4487497341192082 -2.1125367402280824 74 52 28
0.07297474260910686 -0.4491253594066819 -2.118344625461911 73 51 26
0.07540247292867902 -0.45105902846970725 -2.121829675065253 76 54 27
0.07718869462951256 -0.45258717638672846 -2.1259178622553323 80 57 29
0.07328620874405373 -0.4505232131522351 -2.135411296977415 81 59 31
0.07442409111727849 -0.45164287903253075 -2.140128659574679 81 58 28
0.07761820810742093 -0.45406028925153497 -2.142882755760929 83 61 27
0.07884093615199117 -0.4552333504042337 -2.147516895987892 91 68 30
0.08153926349897 -0.4573371777781497 -2.1507345825857294 98 75 36
0.08047293649669846 -0.45706681969275326 -2.157572557662667 104 79 41
0.08380101451338329 -0.45956740475832975 -2.1601789247693195 102 76 39
0.08719029390289118 -0.4621058900319436 -2.1627163692249978 98 73 35
0.0897705979075249 -0.46413403249694324 -2.166029437331388 95 70 33
0.09376516021186743 -0.46705249800746695 -2.1679596239026937 96 71 34
0.09775219357697185 -0.46996531203932973 -2.169883993232533 100 76 38
0.10081888421130114 -0.4722978994456678 -2.1726961446449735 97 73 35
0.10653953475309469 -0.4762999831515836 -2.172894996921482 94 70 31
0.10618653947586731 -0.4764796178617894 -2.1790488591192307 92 69 29
0.10766769449932512 -0.47781343233973983 -2.1834023342636333 96 73 32
0.10833518798167441 -0.47863566055902695 -2.1885606841469722 103 80 38
0.1115971765075856 -0.4810889533984039 -2.191149475661055 102 81 38
0.11823460621048953 -0.4856626231467505 -2.19037156120656 102 81 38
0.12492356039132485 -0.49026677635202637 -2.1895150364947553 101 80 37
0.1293949321213156 -0.49347636359694397 -2.190848238452922 101 79 37
0.12466824614435101 -0.49091007046616 -2.201386547449439 105 83 42
0.1280605856521546 -0.4934418831310042 -2.2037967034413417 105 83 42
0.12356588510978561 -0.491024178700229 -2.2141449765909833 105 83 42
0.12852582302334759 -0.49453933348921697 -2.214971524231315 104 83 40
0.12765405630744453 -0.4943961734053897 -2.2216874203471697 104 83 40
0.1348990376016187 -0.4993423448846914 -2.2201712863427763 104 83 40
0.14117544995168335 -0.503679359745751 -2.219610761201161 103 83 40
0.1484025692743236 -0.5086102580233401 -2.218053862498752 101 82 39
0.1521726417950246 -0.5113736732906438 -2.220005148278591 103 84 41
0.15004321883536648 -0.5104421138213313 -2.227999039332699 105 86 43
0.15672146901372797 -0.5150253901576531 -2.2269486165578796 106 87 44
0.15991818237308864 -0.5174279659933234 -2.2294621222145006 102 83 41
0.16003358014661578 -0.5179021577429863 -2.235153471850865 95 76 34
0.16524207525714896 -0.5215622402435303 -2.235570063558067 96 77 35
0.16314326710615773 -0.520652037863665 -2.243564143072004 95 77 35
0.16497530672947036 -0.522200178377788 -2.2474795862015604 85 68 30
0.16546267923864844 -0.5229079207058637 -2.2527982519129464 89 73 39
0.1642750832502644 -0.5225696801789892 -2.259877098291591 89 74 44
0.16308508093011953 -0.5222309173014574 -2.266972644072994 97 85 62
0.1595300226319562 -0.5204165923889517 -2.2765733110980233 124 116 101
0.16104200420149833 -0.5217666301940717 -2.280850634246228 155 152 145
0.166411262765789 -0.5255233633608325 -2.2810441836828894 176 175 172
0.16922382089532811 -0.5276838692061938 -2.283929977100996 190 189 188
0.17087797966014057 -0.5291215205910509 -2.2880409330637446 198 198 198
0.1713743085308344 -0.529837325252509 -2.2933858792096125 202 202 204
0.16736335590338175 -0.5277445900011559 -2.303556497720853 206 206 208
0.1609446069171026 -0.5241538499159976 -2.316338550852388 207 207 208
0.25758711679258095 -0.5847540005506344 -2.2183775233717906 209 209 209
0.2947970882992991 -0.6083140107324593 -2.18394569477352 210 210 210
0.28792911588817777 -0.6044248085597017 -2.196940632633364 211 211 211
0.2908300552003458 -0.6066173861461734 -2.199399350671117 210 210 210
0.2960491728828826 -0.6102514170439879 -2.199332327001681 211 211 211
1.5857353072943763 -1.4246405617835387 -0.9742289327945525 214 214 214
1.58755363008746 -1.4259001921110583 -0.9741122969771678 214 214 214
-0.5707930817802974 0.14421136973327814 0.05284692440696495 176 176 176
-0.4725582701630663 -0.01088508367771479 -1.1900745935469013 187 188 190
-0.45040977332000237 -0.025996189348751142 -1.1859688495039062 188 189 191
0.22403927256675363 -0.4754726577779227 -0.9080845110008596 189 190 192
0.22366281067020102 -0.4755083269847398 -0.9123428027442597 189 190 192
0.22729542491680949 -0.4782084071099107 -0.9148436448435773 190 191 193
0.24230158229631604 -0.48846386718685264 -0.9123097648770683 191 192 194
0.23219627321273564 -0.48203611224488363 -0.9208660394634581 191 192 194
-0.08408607643730023 -0.2722852884531754 -1.0659398118977974 191 192 194
0.007357222511357342 -0.3333280416830535 -1.029720383628791 192 193 195
0.017712376089574294 -0.34051928571257073 -1.0296093388580512 193 194 196
0.023870874681598736 -0.3449228610602654 -1.031358106789998 193 194 196
-0.2797077937084237 -0.1441619264964154 -1.1786967296348676 194 195 197
-0.29824389530936385 -0.13222593333833216 -1.1923065431076167 194 195 197
0.06990211186535246 -0.37702382956059277 -1.03278461615766 196 197 199
-0.4058604757988674 -0.0894652109206715 -1.6513044206711092 213 214 215
-0.3729468513691837 -0.11135562871869542 -1.6371080605652604 214 214 216
-0.35708700697815504 -0.12210900772868749 -1.6332056889097926 202 202 199
-0.3342247686029165 -0.13742615859532054 -1.6249452428435665 149 143 135
-0.3149330457207095 -0.15040822006406818 -1.6187920588903852 117 106 91
-0.2994520770622998 -0.16090014105556794 -1.6149174647606253 114 97 76
-0.2865409478316604 -0.16971258892508306 -1.6125764730321324 116 97 74
-0.27375626226005295 -0.1784392089627394 -1.6102652213803608 122 104 80
-0.2594342484576935 -0.18816417069969404 -1.606945585149987 120 102 77
-0.2544120756357733 -0.19182687771326967 -1.6093976403086345 118 100 76
-0.2367632459859476 -0.20371228397795554 -1.6038959598118308 118 101 75
-0.21765440968874472 -0.21654349824093677 -1.597403377907732 114 98 72
-0.2102418107868994 -0.2217551596782083 -1.5982389402679247 112 97 71
-0.20071228629751897 -0.2283428268284352 -1.5977041719027343 112 97 73
-0.19146190348221043 -0.23474642438919585 -1.59731248255496 113 97 72
-0.18224740173214898 -0.2411243266665567 -1.5969100478127145 120 102 75
-0.17308790253869466 -0.24746410939137203 -1.5965093132521533 124 105 74
-0.1619499389565463 -0.2550880308329726 -1.5948011441088559 124 103 73
-0.15347084026511965 -0.2609805213793667 -1.5947688152479957 131 110 77
-0.14431745142488933 -0.2673091203239565 -1.5942687673889608 131 111 76
-0.1347851095451878 -0.2738816104205784 -1.5934886337591148 121 101 68
-0.12662113153418375 -0.2795627098692466 -1.5935663276953356 114 93 62
-0.1171366257911105 -0.28609940679977364 -1.5927498663923678 118 97 66
-0.11055248159361009 -0.2907503824651512 -1.5938039878208594 122 101 70
-0.10068306743323957 -0.2975324720637317 -1.5926696571351568 118 96 64
-0.09275101389610824 -0.30305460496360537 -1.5927798479304325 139 116 80
-0.08708030423186647 -0.30710745253701677 -1.5943623391488426 138 113 76
-0.07927247905422818 -0.3125453558372732 -1.594503102457208 140 114 78
-0.07253596230984266 -0.3172865003543548 -1.5953315295149588 135 110 74
-0.06418662091050947 -0.32307175801904214 -1.595055429442082 136 110 74
-0.05492437124480393 -0.32944666299820086 -1.5941347627469917 139 112 76
-0.047230035516450775 -0.33480300256711676 -1.5942373688341334 140 112 76
-0.04007502738315455 -0.3398079542486196 -1.5946772955651425 138 111 73
-0.039036170130536174 -0.3408492400639874 -1.5992459295077717 131 105 68
-0.038665460420084174 -0.34145794260186074 -1.6042716108872273 124 98 66
-0.03379353211062791 -0.3449813506110234 -1.6062246854946973 109 85 53
-0.028935934870860713 -0.34849440939279125 -1.6081722310720743 100 79 50
-0.02453922548885351 -0.35170813376617555 -1.6104216070259496 101 83 56
-0.02171098021512141 -0.3539061412055805 -1.6137405196461383 88 69 43
-0.02357252354644951 -0.35307017228186716 -1.6203013565042113 83 65 39
-0.02487970077373458 -0.3525937318016914 -1.626491733633708 81 62 36
-0.024155060596959377 -0.3534317705138011 -1.6312780085688452 89 71 45
-0.025970206549293606 -0.35262839307478827 -1.6378436507879517 90 72 45
-0.017333042035773183 -0.3585804347548461 -1.6370905401097273 89 76 58
-0.026256698503489828 -0.3531849748714833 -1.6486652325762552 142 137 130
-0.23390833963897362 -0.2194351561962839 -1.8006110251756988 204 203 201
-0.2507413418913396 -0.20897022057708176 -1.8183310440732297 207 206 207
-0.25345100268840115 -0.20762884745968757 -1.8260977488309624 201 198 197
-0.24429136488365827 -0.2139495360157732 -1.8254222264309652 189 186 183
-0.22751803701820694 -0.22518065943779692 -1.8192672326418382 173 168 163
-0.21780197530503248 -0.23185428247287315 -1.8181063472893686 156 152 144
-0.20866916504311517 -0.23814914980614366 -1.817328151517408 141 138 128
-0.19395539864703598 -0.24804013809759468 -1.8124860769097162 136 131 122
-0.18231198265579313 -0.25594770182371646 -1.809807758434535 134 127 118
-0.17333817122992773 -0.26213156930936765 -1.8090229419179842 126 118 108
-0.1704977571257958 -0.26436125844573694 -1.812674365985957 122 112 101
-0.16593961854689476 -0.2676970009927979 -1.815063939898234 119 108 97
-0.1609623716023979 -0.27130167666691296 -1.8171322699817887 119 107 96
-0.1547767059327701 -0.27568326365129064 -1.8182957493510603 121 109 96
-0.14972115041788292 -0.2793359397026598 -1.820271858818745 121 106 94
-0.14084894078196025 -0.2854435319391476 -1.8194062729669822 116 104 91
-0.13475202051171664 -0.2897632847782353 -1.8205677832293803 117 105 91
-0.1282373067897497 -0.29435028306628963 -1.8213969734326478 114 102 88
-0.13053382577640632 -0.29326981937741814 -1.8287869385836708 115 103 88
-0.12964245620779763 -0.29423996492608356 -1.8338051087134484 115 103 87
-0.12958663802825787 -0.294673300144546 -1.8394543536463746 117 105 89
-0.12963336994305497 -0.2950412144038377 -1.845187691072239 115 103 87
-0.11754344721091053 -0.3032059716924421 -1.841747289520983 116 103 86
-0.11121314822803846 -0.30766837057978214 -1.8426281344249142 117 103 87
-0.10066852513820895 -0.314835032378642 -1.8402789955326704 115 100 84
-0.0938669775421046 -0.3195961045495245 -1.840745405752065 116 100 84
-0.08817573835584402 -0.323642933822078 -1.842037357122228 118 102 86
-0.08677933744467115 -0.3249329708816565 -1.8466086195251668 115 99 81
-0.08440523037202585 -0.3268501445535324 -1.8504270813721488 114 99 80
-0.08325780387110437 -0.32798043401487004 -1.8551893830179795 118 101 81
-0.08257981233974782 -0.3288098931550574 -1.8603171786932537 120 103 83
-0.08246912303722498 -0.3292760283479975 -1.8658898611692163 118 101 79
-0.08149647893217121 -0.33029491442067604 -1.8707968836323898 115 99 75
-0.07863457048532385 -0.33252420696961865 -1.8742286603038354 114 98 74
-0.07552207163703323 -0.334913534083967 -1.8774574201652738 115 99 75
-0.07095940915084975 -0.3382308054497788 -1.8795374726573477 115 99 75
-0.06842367077149275 -0.34024964914641637 -1.8832027568665541 112 96 72
-0.06579085613404334 -0.34233027047375175 -1.886786270159523 104 88 64
-0.06079059960818972 -0.3459251128992822 -1.8884847463096772 102 86 60
-0.057938693067491165 -0.34814471884389947 -1.8918773866883924 109 93 67
-0.05349090280268426 -0.35138433021086596 -1.893988944234947 106 89 63
-0.05135375628369332 -0.35314584753988376 -1.8979374339578046 106 89 63
-0.047988436609051666 -0.35569207276225495 -1.9008960632016778 110 93 67
-0.045459278327838026 -0.35770342274008526 -1.9045195479802384 112 95 69
-0.04626765880525646 -0.35758251866738494 -1.9108354772598384 114 97 71
-0.04493177885654498 -0.3588317021787465 -1.9154242257663023 113 96 70
-0.03747375940219866 -0.36398950960185983 -1.915036510648113 114 95 70
-0.033178510973448205 -0.36712663398135204 -1.9171990652905175 112 92 65
-0.03735891242706679 -0.3648545187218062 -1.9262792516732994 110 91 63
-0.032847787168975184 -0.3681288932998795 -1.928258103326466 112 92 64
-0.03334955016615754 -0.36820521658855243 -1.9343458466931052 109 89 61
-0.030134246779893847 -0.37065219056512144 -1.937376664435454 109 89 62
-0.03317766782996695 -0.36910909996297897 -1.9455774581988847 106 86 58
-0.03059626565371587 -0.37115200237805696 -1.9491326702641767 106 86 58
-0.027674986805144963 -0.37341106758149617 -1.9523997477525081 108 88 61
-0.024455440417552654 -0.3758596210879792 -1.95541094506938 103 83 56
-0.021359886686141916 -0.37822863539256585 -1.9585175300186335 103 83 56
-0.019940796375975345 -0.3795298944841511 -1.9630236148223952 106 86 58
-0.018448096575156725 -0.38087802082257993 -1.967468031499371 106 87 57
-0.01577259441652068 -0.3829786953570319 -1.9709137458106083 108 89 59
-0.012561340067952065 -0.38541974310756244 -1.973900013112613 104 85 55
-0.010101472731390615 -0.3873823916038153 -1.9775159121240762 101 80 49
-0.0063672692596351 -0.39015484645485016 -1.9800417973275204 102 81 50
-0.005406357449873778 -0.39116392674178324 -1.984925202368691 102 81 50
-0.006037579964515261 -0.3911615508583663 -1.991174782391951 100 79 48
0.0009697865004684725 -0.39601210361581807 -1.9908736035151278 98 79 47
0.0009554873392598195 -0.3964016421528915 -1.9965937206429825 100 80 49
0.0012313488010863294 -0.3969759084984203 -2.002070493946872 95 76 44
0.0009154995533280363 -0.3971750224690396 -2.008065761575088 97 78 45
0.004901476733126353 -0.40010442250040257 -2.010332613883675 99 79 46
0.001739600581379841 -0.3984986082764897 -2.01881445192242 107 87 55
-0.0047565639843977214 -0.39477980752169506 -2.0302322686261505 103 82 51
-0.017034282915871002 -0.38739812944272817 -2.0467549700972687 102 82 49
-0.021559088479597976 -0.38493537411745193 -2.056533818130009 105 85 52
0.0023695240341849444 -0.40050493641339785 -2.0412722500778764 106 86 53
-0.0031859637749257486 -0.3973884821128948 -2.051950912575875 104 84 51
0.003340460515372734 -0.40192629615334247 -2.0519592624911707 104 84 51
0.008567884383123281 -0.4056398922822732 -2.0530967925664996 104 84 51
0.008916276678006207 -0.40626384820411565 -2.0585630481342814 104 84 51
0.0061512956026024135 -0.4049180301680569 -2.066816800514553 104 84 49
0.013301364195596133 -0.4098462900854437 -2.066207754858846 103 83 48
0.016572054914728573 -0.4123190243335174 -2.069056070460216 103 82 48
0.01992248677106201 -0.41484155313356597 -2.0718235953996755 103 80 47
0.026367614129014783 -0.419319617268034 -2.0717856733858384 98 75 41
0.02942511661223718 -0.42165518338913816 -2.0747921031433605 99 76 40
0.028125313218806125 -0.42123742360235616 -2.08174932090489 112 90 52
0.018388567376875553 -0.4154919953538028 -2.096406863144401 109 86 50
0.01688358575286769 -0.4149481166104322 -2.1036006705173524 106 83 49
0.02534405837487297 -0.4206958123388745 -2.10168045122545 103 80 44
0.023691712593596426 -0.4200592887041884 -2.109014641965162 99 75 40
0.024221967070077177 -0.4208008303545051 -2.1143542243901328 98 74 38
0.03114226702722722 -0.4255729343670647 -2.1137964603837167 98 74 38
0.03656230071830152 -0.42939715756679064 -2.114600687776009 98 74 40
0.04268186156596121 -0.4336609325751758 -2.114735276497662 92 71 38
0.047909907460114975 -0.4373612536093905 -2.115676529401866 78 58 27
0.05221380566724604 -0.44047803383619577 -2.1174616720736266 66 45 20
0.05685187356278121 -0.4438042734547291 -2.118919505755658 65 42 20
0.06106519599766508 -0.4468619493257424 -2.1207599877015832 66 44 21
0.06446635440709542 -0.44940742147349766 -2.1233510716113555 66 45 20
0.06799860070682429 -0.452034694773855 -2.125808526013649 74 51 25
0.06755191225824253 -0.4521580664245725 -2.1320217035167786 78 54 26
0.06598716441330699 -0.4515789465784632 -2.1393058480026825 80 56 26
0.0661164468234336 -0.4520660270722605 -2.14499335681153 82 59 26
0.06791619881621863 -0.45360358895879616 -2.149093689764709 91 68 32
0.07268353728133448 -0.4570058242485739 -2.150352856468548 96 74 34
0.07737426018415122 -0.4603587426031933 -2.1516685387859793 99 76 35
0.07446600642942552 -0.4589381378809689 -2.1602776556359284 99 76 35
0.07844330355287188 -0.46184217975759084 -2.162267813307946 97 74 35
0.08297057927145757 -0.46509051816356217 -2.1637130827026 98 75 37
0.08677064030577447 -0.4678814330763189 -2.165847707105227 97 73 35
0.08798324305622202 -0.4690483785233665 -2.170486076295332 96 72 34
0.09032066676316303 -0.47092081550571857 -2.1740291268607908 101 77 39
0.09317201995116098 -0.47311513854343085 -2.177065251568882 100 76 38
0.09831407085401639 -0.47674467369968576 -2.1778489768037588 97 74 34
0.10475703213274568 -0.48118799071240415 -2.1773350758461647 97 74 32
0.09900180710161377 -0.4779886009085126 -2.188814505335343 100 77 36
0.10152102679576458 -0.47997340831694546 -2.1921568641646467 106 83 41
0.10242157537819441 -0.48094449119416666 -2.1970970819504867 105 83 41
0.11112130923096591 -0.4867968795871574 -2.194294187143342 102 81 38
0.1176919214434019 -0.49131450010198763 -2.1935735120715156 101 80 37
0.12266564678166919 -0.4948314217021454 -2.1944203543193606 101 80 38
0.12725439166454244 -0.4981063223502906 -2.195634062420687 105 83 42
0.13344551269495553 -0.5023817352876283 -2.195222937122508 108 86 45
0.13709483516354032 -0.5050669566641031 -2.1973446933544176 106 84 43
0.12281400759639083 -0.49654959330000836 -2.2175458481809223 105 83 41
0.1286760216178921 -0.5006184562234148 -2.2174532938316207 107 86 43
0.13495450106300322 -0.5049457198645435 -2.2169149924172076 108 87 44
0.13976477400529935 -0.5083547555433232 -2.2178441356404215 102 81 38
0.14573667999455708 -0.5124874093653061 -2.2175710622882336 100 81 38
0.15049038176589324 -0.5158584431901496 -2.2185192060201078 103 84 41
0.14782045631323226 -0.5145986220139684 -2.2270580955847286 104 85 42
0.14945320273333512 -0.516022820594624 -2.2311976698789544 105 86 44
0.15081283538737034 -0.5172767268763456 -2.2356175934878317 101 82 40
0.15856126911199464 -0.5225113642903119 -2.2334390285782826 97 78 36
0.1596533619242556 -0.523597491186695 -2.2381197972551035 98 79 37
0.15974516344027295 -0.524060865193372 -2.2438409638373757 94 76 36
0.1585126072726908 -0.5237003129549491 -2.250947909625549 90 72 36
0.1592558993359408 -0.5245703845055535 -2.256007187414882 89 73 42
0.15766626909917414 -0.5239893180284001 -2.2635111537706303 94 79 52
0.15720026898876988 -0.5241082333534872 -2.269852762333884 111 100 82
0.15496357330620802 -0.5231269168530702 -2.2780668887192346 139 132 121
0.15945259647840165 -0.5263275153910026 -2.2792093651845984 166 163 160
0.16338828664612048 -0.5291831326472978 -2.2809203169849304 184 182 182
0.16883428910652337 -0.5329760070543332 -2.2810171532488077 195 193 194
0.16967375932162326 -0.5339066815098947 -2.285986779644136 200 200 202
0.1722727808755985 -0.5359299423211772 -2.289085350250058 204 204 206
0.16470193156051594 -0.5316410704735557 -2.303038472570495 206 206 208
0.1652865098729961 -0.5324155498246589 -2.308308912682663 208 208 208
0.15795346709299796 -0.5282794822682053 -2.322082747356368 209 209 209
0.2819170668305208 -0.6059490615575808 -2.200213371713706 211 211 211
0.2793065712301811 -0.6047230012217796 -2.208644076828634 211 211 211
1.5865313077602834 -1.4271302288483683 -0.9716666867853098 214 214 214
1.5880558971396963 -1.4282088868937393 -0.9719351569457692 214 214 214
-0.5721688594523897 0.13948712454816198 0.0528916299271216 176 176 176
-0.4554721105383091 -0.02840924274732598 -1.1812530128040697 187 188 190
-0.43907319482281426 -0.039660375635378387 -1.179589196102171 188 189 191
0.23099371997615675 -0.48503205360290047 -0.9079708337227307 189 190 192
0.2265845928145071 -0.4823995422795507 -0.9139868563379486 191 192 194
0.2378948567315228 -0.4901769352256156 -0.9130880582599816 191 192 194
0.23340792952680461 -0.4874938323126602 -0.9191515001121185 191 192 194
-0.09541117124092241 -0.2701494129862657 -1.0696200289977704 192 193 195
0.005374990541499841 -0.33717572487018377 -1.029290641245256 192 193 195
0.004877715767019231 -0.3371669610111992 -1.0340566878311799 193 194 196
0.006504190989684994 -0.3385634470992485 -1.0378719459752803 193 194 196
-0.30738160377244766 -0.13130838930855787 -1.1846090603063624 193 194 196
-0.29176101530970644 -0.14200080817477634 -1.182673655004414 194 195 197
-0.2955425480113173 -0.1398638641643744 -1.1895478240305324 195 195 197
-0.330463091989336 -0.11714875602999675 -1.2107315562012226 195 196 198
-0.33260034231351465 -0.11610551897227778 -1.2169506320825638 196 197 199
-0.42110132188364424 -0.08586979293536745 -1.6583751552270423 215 215 216
-0.38273969981227546 -0.11123278258919411 -1.6409135691202448 215 214 219
-0.36259463377064083 -0.124740398880623 -1.6344193335427077 212 213 215
-0.34431067596218656 -0.1370326150754761 -1.6289861901344485 201 201 201
-0.3263804889358295 -0.14908987121859374 -1.6236990030135292 144 139 133
-0.3080952697732515 -0.16137285664519574 -1.6181225071910317 116 104 89
-0.29699929609010767 -0.16898072542051956 -1.616926240256185 115 98 78
-0.2839104512044226 -0.17787994516984162 -1.614450519233648 120 103 79
-0.2702985234409312 -0.18711529119258985 -1.6115989142813152 120 102 78
-0.25891741631352877 -0.19489886985436705 -1.6100911704157237 121 103 79
-0.24442054118596868 -0.20470152481188314 -1.6065845428611787 115 99 74
-0.2305645571984825 -0.21408440029986542 -1.6034256605601245 108 94 68
-0.2153235717902221 -0.22436192904675822 -1.5993377641869027 106 91 67
-0.2047517454668739 -0.23160721080722496 -1.5981524771655304 108 95 71
-0.19608621027468565 -0.2376137404481622 -1.598141354273821 110 94 70
-0.18624542590318743 -0.2443798933050761 -1.5973484545221492 109 91 65
-0.1749876807893428 -0.252061768885262 -1.5956111335150944 122 101 72
-0.16573919400067405 -0.2584388310759694 -1.595123445145299 124 103 73
-0.15659386940854275 -0.26474668538141855 -1.5946685050701566 128 108 75
-0.14761327405418911 -0.27094550426245356 -1.5942867906048082 129 109 74
-0.1383595659924809 -0.27731883925297957 -1.5936948803227868 137 117 84
-0.13039410429218135 -0.2828559029528006 -1.5939086691735567 116 97 65
-0.12247714043880692 -0.28835957715592647 -1.5941257385688532 114 95 64
-0.1146351476655576 -0.2938127530084825 -1.5943637288988457 126 107 76
-0.10493198445090451 -0.3004678141779041 -1.5933482944032233 131 110 77
-0.0970058128385069 -0.3059711868772693 -1.5934705343984683 133 110 74
-0.0919278848442619 -0.309631109648435 -1.5954521699140292 136 111 74
-0.08426799703204213 -0.31495879088387113 -1.595700774311958 139 113 78
-0.07726929765429147 -0.31985727602792946 -1.5963631501769482 130 106 72
-0.06818834891015729 -0.3260992736633359 -1.5956070605231765 130 105 70
-0.06025223367417143 -0.3315994468215809 -1.5955861227696964 124 98 64
-0.054998079409517564 -0.3353657434007042 -1.5973437091767926 127 101 67
-0.05068741880642208 -0.33852174329764734 -1.5997222577058436 134 109 76
-0.045899093350221964 -0.34198514120295437 -1.6017640391265524 125 100 70
-0.04729696828253288 -0.34145571845815365 -1.6080008215958617 110 86 59
-0.04329171653274072 -0.3444128120982724 -1.6105611783100306 108 84 55
-0.03667545470685113 -0.349053084654592 -1.6113215684719502 97 77 51
-0.03448344060516678 -0.3508389776941413 -1.6150992563409192 93 74 51
-0.03097906506306375 -0.3534706330650141 -1.6179687291650278 86 68 44
-0.03010094737675495 -0.35440905449320015 -1.6226454796757321 88 70 46
-0.03396776705017801 -0.35229036531287977 -1.6306173533676038 85 67 43
-0.03236434253978565 -0.3536971039937163 -1.634804743572551 93 75 52
-0.031861802063826994 -0.354394809045649 -1.639760242960476 90 78 59
-0.025375838861319167 -0.358945240145992 -1.6405275421921188 127 121 112
-0.019341091471590466 -0.36320362382472965 -1.6415892632577647 205 205 203
-0.23823633330800897 -0.22271060875597226 -1.8012440702304164 213 214 212
-0.2659331864472648 -0.2052997924956012 -1.8266343157142753 212 214 215
-0.2680207530330392 -0.204370571459911 -1.8339822177543232 212 213 215
-0.2592636963510908 -0.21041621510560382 -1.8336259130081447 212 212 214
-0.2730903570463167 -0.20194058664358977 -1.8493666406867384 211 210 213
-0.2635953061386668 -0.2084595890349878 -1.8484677220726031 206 206 206
-0.2494176550323573 -0.21798498766132385 -1.8441672904095827 196 196 194
-0.2352178016235325 -0.2275206133993642 -1.8397935956512244 179 179 176
-0.2252050945675531 -0.23436297056682892 -1.8383909847636655 161 159 154
-0.21866568093083172 -0.23897243040472083 -1.8394700166847318 151 148 141
-0.2081050880759011 -0.24616162152526083 -1.837599500740224 144 139 131
-0.20122242091015496 -0.25098751974941447 -1.8383732580106917 135 129 120
-0.1930390700189607 -0.2566462338328817 -1.8381699840365877 132 124 115
-0.18572322400582514 -0.2617463449489769 -1.838573700261455 131 121 112
-0.17652235868609595 -0.2680534333070069 -1.8375616878637808 128 117 107
-0.16781438359196182 -0.27404203795289384 -1.836878912144198 125 115 104
-0.15684772177800438 -0.28147605918733326 -1.8344881385467702 123 113 102
-0.15346850312833715 -0.2840449629806871 -1.8376982523389553 121 111 99
-0.14420465735003335 -0.290383196998738 -1.8365087013197965 121 112 99
-0.13936817687036007 -0.2938832839034436 -1.8385973804371654 119 110 96
-0.1297265913055355 -0.300459074093013 -1.8370629823098963 119 110 95
-0.1257815679675336 -0.30338554832240405 -1.8397812784536156 118 108 94
-0.11499114355948747 -0.3106922121679422 -1.8373169900629394 118 106 91
-0.12423581855238702 -0.3051768688988096 -1.8499915502129352 118 105 89
-0.11239941115371788 -0.31314981673104425 -1.846692621247277 114 101 85
-0.09677062429885958 -0.3235446040916499 -1.8404543848840074 117 103 87
-0.09417706263553921 -0.32560088992689085 -1.8441189126833517 119 103 87
-0.09819727077430873 -0.32342949017282496 -1.8528515081609511 118 103 86
-0.09696626323298263 -0.32461546257206436 -1.8575695807047408 118 103 84
-0.0953228220159677 -0.3260650033432971 -1.8619706240136868 119 104 85
-0.09340625095296451 -0.3276889386557949 -1.8661595783899743 119 104 85
-0.09436602069448163 -0.3274761596446554 -1.8725797970552007 118 102 82
-0.09240434597001923 -0.3291290869949396 -1.87673646805011 117 101 80
-0.08968234682600568 -0.33126708678390043 -1.8802970930198781 118 101 81
-0.08856531627372999 -0.33238068762153644 -1.8851093902774065 117 100 80
-0.08523222620778337 -0.3349079283089168 -1.8881821149140419 116 99 79
-0.08258658176533618 -0.3369961878578997 -1.891788022395587 114 97 75
-0.07882228658798662 -0.3397972256755635 -1.8945042183823515 110 94 70
-0.07539861634640888 -0.3423804118529572 -1.8974797900875922 105 89 63
-0.07045695017746395 -0.3459301992077075 -1.899239088402845 109 93 67
-0.06688037530779295 -0.34860924998410836 -1.9020708802307729 111 94 68
-0.06340260858386348 -0.35122467903868215 -1.904971846526269 110 93 67
-0.06054679373974842 -0.3534434578916496 -1.9083624150503544 111 94 68
-0.05963108619871166 -0.35442687129644124 -1.9133077509201375 114 96 71
-0.06046522683515815 -0.35429696537051136 -1.9196681287433672 115 98 72
-0.061666437716635936 -0.35393431753385274 -1.926336720921152 112 95 69
-0.05597720238080106 -0.3579549813304356 -1.9274240281079706 113 94 68
-0.050214998522876475 -0.3620206296036965 -1.9284318883007368 115 94 67
-0.04789440498988562 -0.3638970926226963 -1.9322299090705435 115 95 68
-0.04302556854125811 -0.36739269958466586 -1.9339368359438915 115 95 68
-0.038997493613257606 -0.3703529971505045 -1.936318192630275 112 93 65
-0.03765424909249521 -0.371607115849787 -1.940899212684646 108 88 61
-0.03985806794011082 -0.3706089013042549 -1.9484116363479416 105 86 58
-0.03739570003165832 -0.37257416988062575 -1.9520751962888152 110 90 63
-0.03409370501907327 -0.37507198463806957 -1.9550362836452306 108 88 61
-0.030962966457676266 -0.377460521737138 -1.9581313511338547 106 87 59
-0.031545892495716266 -0.3774928497687177 -1.9643226518578238 109 89 62
-0.030730418760106848 -0.3784126761017169 -1.9693516741678432 105 85 58
-0.028754053986557893 -0.3800687107937558 -1.9734079589768938 105 85 58
-0.025581945186584798 -0.38248244928013747 -1.976453684618589 103 83 56
-0.021659426772132007 -0.3853710975186506 -1.9788567017990946 101 81 54
-0.018159231846054114 -0.38799138350775547 -1.9816060020061708 100 80 49
-0.014125623127093978 -0.39094878508401315 -1.9838918549385842 100 79 48
-0.014608620505118242 -0.39104574910021583 -1.9900173500210883 98 77 46
-0.012700595597830044 -0.3926567852253851 -1.994107362150235 96 76 44
-0.007769311753133723 -0.39618072494287004 -1.995602088813834 98 79 47
-0.005329839542049686 -0.3981271423300762 -1.9992233896334164 101 82 50
-0.008482704606086522 -0.3965364520134998 -2.007664188877186 102 83 51
-0.0068764173287564345 -0.39795638298812225 -2.012010571738258 100 80 47
-0.007684746218961869 -0.3978500240148692 -2.0184511454328513 104 84 51
-0.011709581558710436 -0.3957119048290774 -2.0277013650625904 101 80 48
-0.01953001473296334 -0.3911778657682472 -2.0402902393402975 100 79 48
-0.020500157582902412 -0.3909734721949331 -2.046931426668436 102 82 49
-0.014204282195628914 -0.39535764346432467 -2.0472095501265395 105 84 52
0.00015286775357087334 -0.4048285655118917 -2.040371059616738 105 85 52
-0.005577460244433952 -0.4016189215339651 -2.0511930117854673 105 85 52
0.006921191519795311 -0.4099118989556397 -2.0459212892360714 105 85 52
0.006030179418230919 -0.409756240003153 -2.0524756277259892 106 86 53
-0.009153420658090383 -0.4005896569796913 -2.07175907069873 106 86 53
0.0020516006639768047 -0.408062828621752 -2.0675795761818945 106 86 51
0.009949869145931378 -0.41344877947114866 -2.0663104769140848 106 86 51
0.013662321584529069 -0.41619544237204176 -2.068765148757759 105 84 50
0.016949765168784436 -0.4186736426833404 -2.0715910890112426 105 82 49
0.022244178002038928 -0.42241487636548736 -2.072597216181427 105 82 48
0.024230198343194898 -0.4240722486347889 -2.076577519716487 125 103 66
0.018389469428102823 -0.42080416244354607 -2.087656130235457 110 88 51
0.01103600575333391 -0.4165869859573185 -2.1001476836704254 108 86 49
0.020619867762132593 -0.4230253984199439 -2.0972321161942724 105 83 46
0.0235381074515581 -0.4252698850635628 -2.100373468487313 105 83 43
0.025594470609821618 -0.42697210408525105 -2.1042981933534484 100 76 39
0.028696131853951312 -0.42933098543534814 -2.1072585202360115 98 74 38
0.03701807964839143 -0.4349687965595413 -2.105395707028364 98 74 38
0.04177307309482675 -0.43836396010363216 -2.1067973131443534 96 73 37
0.04446414623608713 -0.4404620859978019 -2.110096423337061 97 75 38
0.040282141409271666 -0.43824562651085786 -2.1197809648985304 99 78 42
0.04451893590556705 -0.44131406523175715 -2.121643793845315 89 67 35
0.04700859010116021 -0.4432854809799393 -2.1251262149488706 76 53 24
0.050847411317867075 -0.4461026637381568 -2.127338528665286 69 48 19
0.05368867220221024 -0.4482935552571842 -2.130476615664043 71 50 19
0.056707568559505483 -0.4505952947338913 -2.133440265331721 75 52 20
0.05964457983392357 -0.4528451667172344 -2.1364734079290857 82 59 26
0.06012258791985936 -0.4535541135716339 -2.1418296436496553 91 68 32
0.06196405185871168 -0.45511728334334867 -2.145895206341086 96 73 35
0.06359318705117173 -0.4565473861081773 -2.1501611921391066 95 73 34
0.06641482491261624 -0.4587238052958984 -2.1532869539594777 98 76 37
0.06679737136537256 -0.45937357612280943 -2.158742520084741 101 78 37
0.06670126727248366 -0.4597243325782325 -2.1646634773628275 99 76 35
0.06893506839832181 -0.461532651390171 -2.1683483496550955 95 73 33
0.07746859927920885 -0.4672790480443308 -2.1659451517968606 91 69 30
0.08173887867457114 -0.4703584222824659 -2.167633810173022 94 72 33
0.08947454007702776 -0.47560193724769856 -2.1659432470302833 97 74 36
0.08570953309623952 -0.4736596660450664 -2.175416527983671 96 72 36
0.08752815029720351 -0.47520590239458205 -2.179466555542065 97 73 35
0.08779279331550305 -0.4757819408424877 -2.1850356558157533 100 77 36
0.09230426750861742 -0.4790087219218167 -2.186443437544509 102 79 37
0.09615777118962832 -0.48182388743911914 -2.1884827422553905 105 83 41
0.09711694737947779 -0.4828329851511368 -2.193364950501211 103 80 38
0.10060366956347672 -0.4854182289840833 -2.195749637695564 107 86 43
0.10515678495589509 -0.48866744092033365 -2.1970661100685027 106 84 42
0.10856508420672634 -0.4912021233591488 -2.1995047705683004 100 79 36
0.10979700290621558 -0.49238028436940984 -2.204103069982011 102 80 38
0.11619825208981682 -0.496777862624489 -2.203535103067658 105 83 42
0.1223540241366447 -0.5010207764184277 -2.2031871700809473 112 90 49
0.1278328505667481 -0.50484061057605 -2.2034947382289696 111 89 47
0.12087558520629854 -0.5009209706063371 -2.216310799182722 109 88 45
0.1279027070352191 -0.5057032121195164 -2.2150446249152558 110 89 46
0.13474767681773003 -0.5103701061353212 -2.2139334749711588 112 91 48
0.14048830854974748 -0.5143484637769768 -2.213915176570645 103 82 39
0.14579292494363183 -0.5180542448419736 -2.2143180270339182 101 82 39
0.14711327984231537 -0.519283212092722 -2.218767352641179 104 85 42
0.14462935167665064 -0.518149385236275 -2.227110669096008 104 85 42
0.14627643015428793 -0.5195820216640651 -2.231236137051278 103 84 41
0.14822154378560115 -0.5211995788272094 -2.235053913485298 102 82 40
0.15274944084534975 -0.5244196579716284 -2.2362051133512812 100 81 38
0.1527197182670545 -0.5248112642577587 -2.2420527483747947 100 81 39
0.15294556562721046 -0.5253619186025028 -2.2476432791777556 96 78 38
0.15248121602420128 -0.5254851293899435 -2.2539577227527197 90 73 37
0.151677559603764 -0.5253987642213237 -2.2606359782053533 83 69 39
0.1511940039265049 -0.5255115812955518 -2.266991855526754 97 83 61
0.15072147905595806 -0.5256319614160772 -2.273346541603199 124 114 101
0.14944983394383426 -0.5252582432635992 -2.2805507645068612 154 148 141
0.15680711292104105 -0.5302270652338801 -2.278684544835877 177 174 174
0.16393520652775523 -0.5350518115161373 -2.2770283527739363 189 187 190
0.16778290935765827 -0.537845002272973 -2.2788129707453355 198 196 198
0.15874399031231173 -0.5326675167493704 -2.2942569116150895 202 202 204
0.18483825287217615 -0.5492155126050966 -2.272387108055114 205 205 207
0.15977137932599966 -0.534132925932659 -2.304941533304828 207 207 209
0.15602256625333216 -0.5322324552476406 -2.314848540612802 209 209 209
0.15263544172004212 -0.5305573876110038 -2.3243961498893144 210 210 210
0.15665934460596226 -0.5334604468776651 -2.3260065524497002 210 210 210
1.5870456353929436 -1.4294404440985464 -0.9694832203244373 214 214 214
1.5885559641103204 -1.4305075086186534 -0.9697675234829666 214 214 214
-0.585944312233494 0.14335382748022604 0.05311695895157387 176 176 176
-0.5270739312102156 0.012769543802129468 -1.2103384134194748 187 188 190
-0.5125590181190529 0.002786608239725763 -1.2096227129075148 188 189 191
-0.49259440116957237 -0.010792927208946479 -1.2065081660410268 188 189 191
0.22821378757967428 -0.4878370106900586 -0.9080265328923068 189 190 192
0.2358118313938205 -0.4931423790069739 -0.9087714982154187 191 191 193
0.2332731332760196 -0.49175649452711323 -0.9139589961722623 192 192 194
-0.3640892314070072 -0.09978552305935573 -1.2087525404420034 194 194 196
-0.3297907245057684 -0.12276190994798108 -1.1984433111112813 195 195 197
-0.32961271150920474 -0.12325012302456373 -1.2035758834938473 196 196 198
