ply
format ascii 1.0
element vertex 827
property float x
property float y
property float z
property float nx
property float ny
property float nz
property uchar diffuse_red
property uchar diffuse_green
property uchar diffuse_blue
property uchar class
property uchar detection
end_header
-0.3367 -0.2636 -2.0717 -0.625 -0.536 0.568 95 75 48 0 0
-0.3420 -0.2614 -2.0736 -0.500 -0.569 0.653 97 78 46 0 0
-0.3547 -0.2566 -2.0820 -0.458 -0.562 0.689 115 92 58 0 0
-0.3572 -0.2556 -2.0861 -0.563 -0.593 0.576 118 94 62 0 0
-0.3718 -0.2499 -2.0928 -0.978 0.007 -0.207 116 94 57 0 0
-0.3712 -0.2504 -2.0995 -0.910 0.193 -0.366 115 93 56 0 0
-0.3677 -0.2523 -2.1085 -0.780 0.472 -0.412 114 92 55 0 0
-0.3535 -0.2590 -2.1266 -0.479 0.826 0.298 113 91 54 0 0
-0.3936 -0.2425 -2.1306 -0.868 0.104 0.486 122 100 63 0 0
-0.4007 -0.2406 -2.1558 -0.751 -0.134 0.647 121 99 62 0 0
-0.4135 -0.2356 -2.1635 -0.370 -0.029 0.929 128 104 66 0 0
-0.4263 -0.2306 -2.1712 -0.913 0.112 0.393 135 110 70 0 0
-0.4295 -0.2297 -2.1811 -0.934 0.279 -0.223 139 114 74 0 0
-0.4401 -0.2254 -2.1842 -0.515 -0.385 0.766 140 116 74 0 0
-0.4728 -0.2122 -2.1928 -0.920 0.024 0.391 165 136 89 0 0
-0.4679 -0.2150 -2.2097 -0.995 0.051 0.085 151 124 80 0 0
-0.4719 -0.2140 -2.2250 -0.808 0.030 0.589 149 126 85 0 0
-0.1803 -0.3044 -1.6393 -0.547 -0.749 0.373 127 119 108 0 0
-0.1853 -0.3024 -1.6420 -0.572 -0.756 0.318 137 132 123 0 0
-0.3394 -0.2569 -2.0683 -0.655 -0.309 0.689 103 83 53 0 0
-0.3455 -0.2545 -2.0696 -0.612 -0.428 0.665 97 78 48 0 0
-0.3493 -0.2552 -2.1226 -0.992 0.125 -0.029 114 92 55 0 0
-0.3948 -0.2368 -2.1345 -0.800 0.459 0.386 124 102 65 0 0
-0.4436 -0.2177 -2.1611 -0.864 0.501 -0.049 139 114 73 0 0
-0.1996 -0.2913 -1.6439 -0.331 -0.305 0.893 125 112 98 0 0
-0.2840 -0.2712 -1.9933 -0.987 -0.078 0.137 108 90 66 0 0
-0.3424 -0.2501 -2.0647 -0.739 -0.028 0.673 113 93 61 0 0
-0.3471 -0.2483 -2.0671 -0.644 -0.231 0.730 103 83 52 0 0
-0.4280 -0.2185 -2.1547 -0.250 -0.231 0.940 134 109 68 0 0
-0.4409 -0.2133 -2.1560 -0.872 0.380 0.310 144 120 77 0 0
-0.4422 -0.2129 -2.1611 -0.946 0.273 0.175 142 117 75 0 0
-0.4416 -0.2135 -2.1679 -0.724 -0.275 0.632 143 118 76 0 0
-0.4514 -0.2099 -2.1780 -0.257 -0.296 0.920 151 124 81 0 0
-0.2852 -0.2647 -1.9791 -0.606 0.057 0.793 109 92 68 0 0
-0.2876 -0.2639 -1.9833 -0.778 0.320 0.541 109 92 68 0 0
-0.2864 -0.2647 -1.9903 -0.801 -0.177 0.572 108 91 66 0 0
-0.3729 -0.2329 -2.0820 -0.531 -0.624 0.574 119 96 62 0 0
-0.3958 -0.2255 -2.1312 -0.954 -0.132 0.269 123 100 63 0 0
-0.4362 -0.2095 -2.1464 -0.951 0.290 0.109 139 113 72 0 0
-0.4392 -0.2084 -2.1500 -0.816 0.567 -0.113 144 118 75 0 0
-0.4388 -0.2088 -2.1565 -0.805 0.582 0.111 149 124 80 0 0
-0.4800 -0.1940 -2.2074 -0.991 0.087 0.102 136 116 72 0 0
-0.2343 -0.2667 -1.6492 -0.579 -0.704 0.412 124 114 101 0 0
-0.2847 -0.2595 -1.9783 -0.663 -0.199 0.722 107 89 65 0 0
-0.4418 -0.2017 -2.1403 -0.942 0.276 -0.191 139 111 70 0 0
-0.4367 -0.2047 -2.1634 -0.875 0.423 0.234 158 129 83 0 0
-0.4803 -0.1886 -2.2059 -0.704 0.512 0.493 143 122 79 0 0
-0.5027 -0.1800 -2.2229 -0.874 -0.212 0.438 136 114 67 0 0
-0.3495 -0.2312 -2.0678 -0.429 -0.081 0.900 115 96 62 0 0
-0.3783 -0.2202 -2.0875 -0.847 -0.432 0.310 121 97 64 0 0
-0.3763 -0.2214 -2.0953 -0.945 -0.113 -0.307 126 102 67 0 0
-0.4713 -0.1862 -2.1877 -0.585 0.351 0.731 165 136 90 0 0
-0.4744 -0.1851 -2.1911 -0.610 0.334 0.718 154 125 81 0 0
-0.4785 -0.1838 -2.1999 -0.909 0.361 0.207 154 129 81 0 0
-0.4796 -0.1835 -2.2052 -0.909 0.361 0.207 145 122 79 0 0
-0.4807 -0.1833 -2.2104 -0.909 0.361 0.207 137 115 74 0 0
-0.5202 -0.1685 -2.2430 -0.606 -0.239 0.759 90 78 55 0 0
-0.5192 -0.1704 -2.2818 -0.723 -0.258 0.641 189 189 190 0 0
-0.5383 -0.1627 -2.2826 -0.689 -0.092 0.719 201 201 203 0 0
-0.3564 -0.2228 -2.0610 -0.590 0.493 0.640 113 93 59 0 0
-0.3784 -0.2141 -2.0678 -0.696 0.030 0.717 99 76 42 0 0
-0.3825 -0.2133 -2.0891 -0.847 -0.432 0.310 122 98 63 0 0
-0.4285 -0.1967 -2.1431 -0.733 0.349 0.584 140 115 71 0 0
-0.4779 -0.1790 -2.2054 -0.909 0.361 0.207 142 118 76 0 0
-0.5052 -0.1688 -2.2305 -0.872 -0.056 0.487 130 111 64 0 0
-0.5133 -0.1655 -2.2294 -0.863 -0.371 0.343 137 115 72 0 0
-0.5371 -0.1579 -2.2824 -0.403 -0.037 0.915 200 200 202 0 0
-0.5381 -0.1577 -2.2878 -0.449 -0.023 0.893 202 202 204 0 0
-0.1101 -0.2993 -1.5953 -0.277 -0.143 0.950 138 115 82 0 0
-0.2563 -0.2532 -1.9352 -0.799 -0.091 0.594 102 84 59 0 0
-0.3540 -0.2185 -2.0618 -0.517 0.442 0.733 113 90 57 0 0
-0.3781 -0.2089 -2.0668 -0.733 -0.044 0.679 93 73 40 0 0
-0.3806 -0.2085 -2.0832 -0.933 -0.319 0.169 119 96 60 0 0
-0.3818 -0.2082 -2.0884 -0.966 -0.239 0.095 119 97 60 0 0
-0.5333 -0.1541 -2.2783 -0.437 -0.154 0.886 194 194 196 0 0
-0.1214 -0.2893 -1.5937 -0.266 -0.286 0.921 123 102 72 0 0
-0.1685 -0.2703 -1.5948 -0.222 -0.049 0.974 145 121 85 0 0
-0.3564 -0.2123 -2.0648 -0.327 -0.079 0.942 114 92 56 0 0
-0.3799 -0.2030 -2.0703 -0.534 0.054 0.844 93 73 38 0 0
-0.3839 -0.2015 -2.0732 -0.754 0.022 0.657 100 79 44 0 0
-0.3874 -0.2001 -2.0764 -0.718 0.077 0.692 117 94 59 0 0
-0.3908 -0.1989 -2.0798 -0.824 0.169 0.540 122 100 63 0 0
-0.3936 -0.1989 -2.1083 -0.833 -0.433 0.344 115 91 55 0 0
-0.4792 -0.1680 -2.2078 -0.707 0.706 -0.042 145 121 74 0 0
-0.5076 -0.1573 -2.2257 -0.700 0.271 0.660 133 111 63 0 0
-0.5153 -0.1543 -2.2310 -0.536 0.062 0.842 132 115 75 0 0
-0.5201 -0.1539 -2.2706 -0.957 -0.291 -0.005 155 153 147 0 0
-0.2380 -0.2373 -1.6033 -0.388 0.087 0.918 130 106 75 0 0
-0.3361 -0.2127 -2.0003 -0.911 0.359 0.204 104 83 52 0 0
-0.3372 -0.2124 -2.0055 -0.911 0.359 0.204 104 83 52 0 0
-0.3383 -0.2122 -2.0108 -0.911 0.359 0.204 102 81 50 0 0
-0.3812 -0.1973 -2.0742 -0.343 0.546 0.764 97 77 43 0 0
-0.4547 -0.1716 -2.1785 -0.655 0.423 0.626 163 132 85 0 0
-0.4815 -0.1617 -2.2045 -0.873 0.320 0.368 148 124 76 0 0
-0.5060 -0.1527 -2.2259 -0.700 0.271 0.660 134 111 64 0 0
-0.5183 -0.1480 -2.2332 -0.657 -0.130 0.743 121 105 62 0 0
-0.5270 -0.1451 -2.2502 -0.814 -0.312 0.489 92 85 64 0 0
-0.5309 -0.1448 -2.2842 -0.853 -0.231 0.468 196 196 198 0 0
-0.0036 -0.3257 -1.5888 -0.073 -0.148 0.986 135 112 81 0 0
-0.1239 -0.2774 -1.5905 -0.415 -0.505 0.756 135 114 80 0 0
-0.1695 -0.2592 -1.5925 -0.296 -0.252 0.921 146 121 83 0 0
-0.1737 -0.2576 -1.5957 -0.281 0.011 0.960 134 110 76 0 0
-0.1802 -0.2551 -1.5975 -0.309 -0.062 0.949 126 106 74 0 0
-0.2371 -0.2324 -1.6029 -0.365 -0.011 0.931 127 104 72 0 0
-0.3384 -0.2070 -2.0156 -0.847 -0.361 0.391 99 78 47 0 0
-0.3988 -0.1850 -2.0769 -0.472 0.571 0.672 126 102 64 0 0
-0.4023 -0.1837 -2.0802 -0.639 0.249 0.727 130 106 67 0 0
-0.4499 -0.1681 -2.1753 -0.616 0.659 0.432 172 141 92 0 0
-0.4543 -0.1664 -2.1776 -0.592 0.166 0.789 164 133 85 0 0
-0.4720 -0.1597 -2.1867 -0.954 -0.134 0.269 156 128 80 0 0
-0.5273 -0.1397 -2.2485 -0.775 -0.289 0.562 81 72 52 0 0
-0.5332 -0.1377 -2.2555 -0.775 -0.289 0.562 131 126 115 0 0
-0.1264 -0.2710 -1.5882 -0.461 -0.472 0.752 131 109 75 0 0
-0.1355 -0.2674 -1.5887 -0.254 -0.332 0.908 129 105 73 0 0
-0.1763 -0.2513 -1.5933 -0.418 -0.046 0.907 127 106 71 0 0
-0.1813 -0.2493 -1.5960 -0.426 -0.273 0.862 132 110 76 0 0
-0.2363 -0.2276 -1.6026 -0.359 0.097 0.928 126 106 74 0 0
-0.2878 -0.2086 -1.6488 -0.328 0.612 0.719 101 84 61 0 0
-0.2180 -0.2430 -1.8263 -0.989 0.126 0.079 103 87 66 0 0
-0.2200 -0.2424 -1.8308 -0.864 0.504 -0.024 99 82 62 0 0
-0.2200 -0.2426 -1.8368 -0.864 0.504 -0.024 99 83 59 0 0
-0.2199 -0.2428 -1.8427 -0.864 0.504 -0.024 100 84 59 0 0
-0.2178 -0.2442 -1.8561 -0.957 0.119 -0.264 98 82 57 0 0
-0.3658 -0.1917 -2.0414 -0.639 0.272 0.719 113 91 54 0 0
-0.3696 -0.1903 -2.0445 -0.938 0.313 0.145 111 89 52 0 0
-0.4026 -0.1792 -2.1032 -0.703 -0.347 0.621 118 94 58 0 0
-0.4466 -0.1635 -2.1582 -0.929 0.093 0.359 158 128 79 0 0
-0.4494 -0.1626 -2.1620 -0.731 0.211 0.649 148 117 70 0 0
-0.4524 -0.1615 -2.1656 -0.731 0.211 0.649 170 140 89 0 0
-0.4553 -0.1605 -2.1693 -0.731 0.211 0.649 168 138 88 0 0
-0.4688 -0.1553 -2.1760 -0.779 0.211 0.591 152 121 74 0 0
-0.4679 -0.1559 -2.1829 -0.927 0.238 0.290 159 131 81 0 0
-0.5000 -0.1441 -2.2100 -0.857 0.227 0.462 123 105 59 0 0
-0.5334 -0.1323 -2.2540 -0.851 -0.144 0.505 116 109 98 0 0
-0.5377 -0.1316 -2.2813 -0.851 -0.392 0.349 194 193 198 0 0
-0.0588 -0.2927 -1.5912 -0.329 -0.053 0.943 135 115 83 0 0
-0.1757 -0.2462 -1.5928 -0.418 -0.046 0.907 129 110 77 0 0
-0.1811 -0.2441 -1.5952 -0.267 0.047 0.963 134 111 78 0 0
-0.2799 -0.2066 -1.6472 -0.307 0.686 0.659 108 88 63 0 0
-0.2837 -0.2052 -1.6504 -0.307 0.686 0.659 105 84 60 0 0
-0.2198 -0.2370 -1.8299 -0.991 0.001 -0.133 103 85 63 0 0
-0.2913 -0.2112 -1.9044 -0.871 0.490 0.031 103 86 57 0 0
-0.3512 -0.1915 -2.0215 -0.869 -0.494 0.006 107 87 54 0 0
-0.4026 -0.1732 -2.0836 -0.835 0.375 0.404 136 112 71 0 0
-0.4092 -0.1712 -2.1026 -0.701 -0.308 0.643 127 99 63 0 0
-0.4256 -0.1657 -2.1318 -0.889 0.356 0.288 153 122 71 0 0
-0.4271 -0.1653 -2.1368 -0.889 0.356 0.288 157 126 73 0 0
-0.4285 -0.1649 -2.1417 -0.889 0.356 0.288 160 130 79 0 0
-0.4540 -0.1555 -2.1629 -0.921 0.179 0.345 156 125 77 0 0
-0.4987 -0.1394 -2.2099 -0.959 0.143 0.243 123 105 59 0 0
-0.5192 -0.1323 -2.2409 -0.898 0.144 0.416 114 98 54 0 0
-0.5303 -0.1282 -2.2493 -0.965 -0.010 0.264 87 77 56 0 0
-0.5316 -0.1278 -2.2543 -0.965 -0.010 0.264 108 99 82 0 0
-0.5400 -0.1256 -2.2841 -0.923 -0.364 0.127 196 196 198 0 0
-0.5393 -0.1261 -2.2911 -0.927 -0.356 0.120 200 200 202 0 0
-0.5490 -0.1221 -2.2880 -0.930 -0.161 0.331 203 203 205 0 0
-0.0583 -0.2875 -1.5906 -0.269 -0.106 0.957 142 120 88 0 0
-0.0657 -0.2846 -1.5923 -0.364 -0.110 0.925 144 121 88 0 0
-0.0726 -0.2820 -1.5941 -0.319 -0.113 0.941 145 122 88 0 0
-0.1789 -0.2398 -1.5956 -0.147 0.099 0.984 130 111 79 0 0
-0.2848 -0.2078 -1.8842 -0.992 -0.097 0.075 104 83 54 0 0
-0.2856 -0.2083 -1.9074 -0.958 -0.233 0.167 103 86 56 0 0
-0.3519 -0.1854 -2.0076 -0.976 0.115 0.184 112 91 60 0 0
-0.3532 -0.1855 -2.0248 -0.851 -0.522 -0.050 112 92 58 0 0
-0.4017 -0.1683 -2.0831 -0.743 0.289 0.603 134 110 70 0 0
-0.4259 -0.1603 -2.1303 -0.924 0.211 0.319 156 124 73 0 0
-0.4498 -0.1516 -2.1529 -0.803 0.260 0.536 157 126 78 0 0
-0.4562 -0.1495 -2.1659 -0.880 0.233 0.415 162 132 82 0 0
-0.4582 -0.1489 -2.1704 -0.880 0.233 0.415 165 135 86 0 0
-0.5055 -0.1319 -2.2210 -0.805 0.303 0.509 118 99 56 0 0
-0.5362 -0.1217 -2.2800 -0.750 -0.450 0.485 187 187 189 0 0
-0.5433 -0.1191 -2.2858 -0.944 -0.266 0.196 198 198 200 0 0
-0.5446 -0.1188 -2.2909 -0.992 -0.060 0.110 202 202 204 0 0
-0.0575 -0.2824 -1.5903 -0.291 -0.067 0.954 145 122 89 0 0
-0.0644 -0.2797 -1.5921 -0.335 -0.152 0.930 144 121 88 0 0
-0.0711 -0.2771 -1.5941 -0.335 -0.152 0.930 142 119 86 0 0
-0.2329 -0.2210 -1.8249 -1.000 0.001 0.015 101 84 58 0 0
-0.2831 -0.2029 -1.8785 -0.932 0.271 0.242 105 84 53 0 0
-0.2844 -0.2026 -1.8835 -0.932 0.271 0.242 107 86 55 0 0
-0.2844 -0.2028 -1.8894 -0.970 0.134 0.205 106 86 55 0 0
-0.2855 -0.2026 -1.8945 -0.955 -0.079 0.285 97 79 49 0 0
-0.3421 -0.1836 -1.9960 -0.902 -0.038 0.431 106 85 52 0 0
-0.3497 -0.1808 -2.0022 -0.959 0.047 0.278 110 87 56 0 0
-0.3515 -0.1803 -2.0068 -0.970 0.037 0.239 112 89 58 0 0
-0.3543 -0.1793 -2.0106 -0.902 -0.192 0.386 113 90 58 0 0
-0.3567 -0.1785 -2.0148 -0.968 -0.250 0.018 106 84 53 0 0
-0.3562 -0.1793 -2.0334 -0.836 -0.540 0.095 125 102 68 0 0
-0.4001 -0.1637 -2.0832 -0.739 0.274 0.616 136 113 73 0 0
-0.4245 -0.1556 -2.1303 -0.891 0.360 0.277 150 119 70 0 0
-0.4259 -0.1552 -2.1353 -0.947 0.293 0.130 150 119 71 0 0
-0.4442 -0.1483 -2.1442 -0.875 -0.029 0.483 149 118 71 0 0
-0.4465 -0.1475 -2.1484 -0.875 -0.029 0.483 151 119 72 0 0
-0.4500 -0.1463 -2.1515 -0.857 -0.014 0.515 158 128 79 0 0
-0.4513 -0.1459 -2.1566 -0.885 0.115 0.450 153 124 74 0 0
-0.4534 -0.1452 -2.1609 -0.885 0.115 0.450 158 130 78 0 0
-0.4585 -0.1435 -2.1688 -0.818 -0.067 0.571 154 122 74 0 0
-0.4636 -0.1415 -2.1705 -0.827 -0.285 0.485 154 124 76 0 0
-0.5406 -0.1148 -2.2808 -0.809 -0.356 0.467 190 190 191 0 0
-0.0455 -0.2817 -1.5903 -0.138 -0.058 0.989 138 115 83 0 0
-0.0569 -0.2772 -1.5897 -0.329 -0.053 0.943 139 116 82 0 0
-0.0636 -0.2746 -1.5917 -0.423 -0.182 0.888 141 118 84 0 0
-0.0709 -0.2718 -1.5933 -0.321 -0.159 0.934 143 121 84 0 0
-0.2304 -0.2092 -1.6026 -0.501 -0.349 0.792 122 101 72 0 0
-0.2897 -0.1961 -1.9083 -0.929 -0.203 0.310 95 75 44 0 0
-0.3210 -0.1849 -1.9448 -0.889 -0.048 0.455 95 79 58 0 0
-0.3230 -0.1843 -1.9494 -0.973 0.003 0.232 86 71 54 0 0
-0.3403 -0.1789 -1.9902 -0.880 -0.155 0.449 94 73 44 0 0
-0.3464 -0.1765 -1.9915 -0.785 -0.063 0.616 102 81 48 0 0
-0.3556 -0.1737 -2.0146 -0.693 0.354 0.628 107 85 51 0 0
-0.3639 -0.1706 -2.0201 -0.766 0.174 0.619 111 88 56 0 0
-0.3672 -0.1694 -2.0235 -0.823 -0.110 0.558 133 110 76 0 0
-0.3993 -0.1587 -2.0827 -0.569 0.239 0.787 126 105 62 0 0
-0.4470 -0.1424 -2.1590 -0.891 0.102 0.442 152 122 74 0 0
-0.4490 -0.1418 -2.1635 -0.877 0.084 0.474 151 123 73 0 0
-0.4816 -0.1297 -2.1842 -0.666 0.601 0.442 127 105 62 0 0
-0.5424 -0.1088 -2.2777 -0.833 -0.340 0.436 185 185 186 0 0
-0.5450 -0.1079 -2.2814 -0.861 -0.255 0.441 193 193 195 0 0
-0.5542 -0.1044 -2.2851 -0.538 -0.162 0.827 202 202 204 0 0
0.0004 -0.2941 -1.5858 -0.054 0.022 0.998 140 117 86 0 0
-0.0332 -0.2811 -1.5905 -0.068 0.133 0.989 140 116 84 0 0
-0.2312 -0.2037 -1.6012 -0.284 -0.033 0.958 136 113 81 0 0
-0.3185 -0.1702 -1.6251 -0.745 -0.130 0.654 116 95 65 0 0
-0.2568 -0.2017 -1.8476 -0.985 -0.172 -0.018 106 87 55 0 0
-0.2661 -0.1984 -1.8589 -0.922 -0.285 0.263 106 87 55 0 0
-0.3211 -0.1796 -1.9437 -0.850 -0.054 0.525 85 68 45 0 0
-0.3235 -0.1788 -1.9479 -0.888 0.083 0.452 93 78 56 0 0
-0.3747 -0.1609 -2.0164 -0.968 -0.197 0.158 125 102 68 0 0
-0.3764 -0.1604 -2.0211 -0.929 -0.291 0.230 134 111 76 0 0
-0.3876 -0.1565 -2.0363 -0.725 -0.168 0.668 118 94 56 0 0
-0.4396 -0.1391 -2.1272 -0.881 -0.007 0.473 146 115 68 0 0
-0.4422 -0.1382 -2.1312 -0.856 0.024 0.517 148 117 70 0 0
-0.4641 -0.1308 -2.1675 -0.769 -0.174 0.615 162 132 82 0 0
-0.4900 -0.1213 -2.1877 -0.298 0.132 0.945 122 103 63 0 0
-0.5313 -0.1067 -2.2368 -0.824 0.523 0.217 123 106 63 0 0
-0.5375 -0.1045 -2.2434 -0.889 0.418 0.189 121 104 57 0 0
-0.5437 -0.1031 -2.2750 -0.897 -0.207 0.390 181 180 178 0 0
-0.5482 -0.1016 -2.2833 -0.602 -0.103 0.792 196 196 198 0 0
-0.5529 -0.0998 -2.2851 -0.534 -0.092 0.841 201 201 203 0 0
-0.5736 -0.0912 -2.2713 -0.748 -0.304 0.590 203 203 205 0 0
0.0020 -0.2892 -1.5858 -0.054 0.022 0.998 146 123 92 0 0
-0.0321 -0.2761 -1.5902 -0.165 -0.115 0.980 139 117 83 0 0
-0.2313 -0.1985 -1.6003 -0.364 -0.141 0.921 141 115 80 0 0
-0.3028 -0.1711 -1.6175 -0.489 0.052 0.871 115 94 64 0 0
-0.3205 -0.1643 -1.6229 -0.988 0.008 0.157 109 89 60 0 0
-0.2570 -0.1957 -1.8289 -0.848 -0.494 0.193 107 88 57 0 0
-0.2725 -0.1905 -1.8533 -0.749 -0.036 0.661 107 87 55 0 0
-0.2809 -0.1874 -1.8592 -0.735 0.030 0.678 106 85 53 0 0
-0.2793 -0.1882 -1.8663 -0.987 -0.149 0.059 104 83 51 0 0
-0.2803 -0.1882 -1.8773 -0.948 0.076 0.310 104 84 51 0 0
-0.2821 -0.1876 -1.8820 -0.933 0.237 0.271 104 83 51 0 0
-0.2825 -0.1876 -1.8876 -0.966 0.140 0.217 96 76 44 0 0
-0.2849 -0.1868 -1.8918 -0.941 0.030 0.338 96 77 45 0 0
-0.2866 -0.1863 -1.8965 -0.941 0.030 0.338 98 79 47 0 0
-0.2848 -0.1872 -1.9037 -0.950 0.309 0.046 100 81 49 0 0
-0.3189 -0.1752 -1.9442 -0.783 0.383 0.490 92 72 47 0 0
-0.3214 -0.1744 -1.9484 -0.796 0.391 0.462 92 74 48 0 0
-0.3253 -0.1729 -1.9513 -0.889 0.061 0.453 91 74 50 0 0
-0.3301 -0.1715 -1.9657 -0.804 -0.108 0.585 78 62 42 0 0
-0.3684 -0.1583 -2.0203 -0.678 -0.403 0.615 106 84 49 0 0
-0.4389 -0.1341 -2.1266 -0.633 0.609 0.478 140 109 62 0 0
-0.5399 -0.0984 -2.2460 -0.900 0.027 0.436 105 91 54 0 0
-0.5440 -0.0977 -2.2734 -0.901 -0.223 0.373 172 171 166 0 0
-0.5496 -0.0955 -2.2743 -0.562 -0.138 0.816 184 184 183 0 0
-0.5596 -0.0921 -2.2898 -0.993 -0.028 0.114 204 204 206 0 0
0.1188 -0.3295 -1.5946 0.047 -0.095 0.994 150 142 131 0 0
-0.1586 -0.2214 -1.5919 -0.317 -0.182 0.931 140 115 84 0 0
-0.3014 -0.1665 -1.6174 -0.333 0.333 0.882 110 88 59 0 0
-0.3227 -0.1585 -1.6261 -0.849 -0.173 0.500 137 112 76 0 0
-0.3289 -0.1568 -1.6497 -0.838 -0.362 0.409 98 78 51 0 0
-0.3427 -0.1513 -1.6463 -0.497 0.847 0.188 113 96 71 0 0
-0.2524 -0.1925 -1.8369 -0.978 0.151 -0.143 107 88 56 0 0
-0.2505 -0.1935 -1.8441 -0.930 0.311 -0.198 107 88 56 0 0
-0.2814 -0.1828 -1.8873 -0.858 0.363 0.363 101 81 47 0 0
-0.3194 -0.1699 -1.9487 -0.796 0.391 0.462 94 73 46 0 0
-0.3555 -0.1576 -2.0051 -0.974 0.222 0.047 116 94 57 0 0
-0.3859 -0.1461 -2.0173 -0.930 -0.011 0.367 134 111 76 0 0
-0.4267 -0.1332 -2.1112 -0.740 0.370 0.561 141 113 65 0 0
-0.4555 -0.1223 -2.1233 -0.866 0.360 0.348 138 107 60 0 0
-0.4579 -0.1215 -2.1273 -0.978 0.206 0.023 134 103 56 0 0
-0.5443 -0.0922 -2.2654 -0.969 -0.056 0.240 136 130 117 0 0
-0.5474 -0.0911 -2.2688 -0.860 -0.157 0.486 164 161 155 0 0
-0.5499 -0.0903 -2.2727 -0.754 -0.246 0.609 182 180 177 0 0
-0.5478 -0.0913 -2.2809 -0.534 -0.092 0.841 190 190 191 0 0
-0.5752 -0.0802 -2.2670 -0.821 -0.236 0.521 201 201 204 0 0
-0.3257 -0.1524 -1.6288 -0.728 -0.152 0.668 130 106 69 0 0
-0.3264 -0.1523 -1.6339 -0.735 -0.495 0.463 119 98 68 0 0
-0.3225 -0.1637 -1.9572 -0.756 0.540 0.370 105 82 50 0 0
-0.3491 -0.1540 -1.9789 -0.927 0.075 0.367 113 90 54 0 0
-0.3852 -0.1412 -2.0167 -0.832 -0.203 0.517 136 114 79 0 0
-0.4271 -0.1277 -2.1096 -0.666 -0.450 0.595 143 115 67 0 0
-0.4515 -0.1186 -2.1194 -0.800 0.322 0.507 140 109 62 0 0
-0.4537 -0.1178 -2.1236 -0.866 0.360 0.348 141 110 63 0 0
-0.4569 -0.1167 -2.1269 -0.978 0.206 0.023 140 109 62 0 0
-0.4713 -0.1124 -2.1697 -0.695 0.346 0.631 153 122 75 0 0
-0.5085 -0.0996 -2.2229 -0.984 0.008 0.179 131 111 63 0 0
-0.5474 -0.0859 -2.2674 -0.842 -0.146 0.519 154 150 141 0 0
-0.5502 -0.0849 -2.2710 -0.754 -0.246 0.609 175 173 169 0 0
-0.5480 -0.0860 -2.2794 -0.869 -0.236 0.434 188 187 189 0 0
-0.5640 -0.0797 -2.2765 -0.731 -0.211 0.649 200 199 203 0 0
-0.2240 -0.1857 -1.5965 -0.409 -0.181 0.894 130 109 78 0 0
-0.3002 -0.1568 -1.6164 -0.651 -0.309 0.694 116 95 62 0 0
-0.3207 -0.1490 -1.6201 -0.737 -0.177 0.652 116 94 64 0 0
-0.3240 -0.1479 -1.6235 -0.737 -0.177 0.652 116 95 62 0 0
-0.3353 -0.1436 -1.6273 -0.539 -0.431 0.724 134 110 81 0 0
-0.2596 -0.1777 -1.7891 -0.758 -0.518 0.398 96 77 46 0 0
-0.2910 -0.1670 -1.8373 -0.876 0.108 0.470 109 89 54 0 0
-0.2732 -0.1748 -1.8674 -0.914 -0.140 0.382 111 91 56 0 0
-0.3360 -0.1532 -1.9579 -0.957 -0.128 0.261 123 98 60 0 0
-0.3822 -0.1371 -2.0179 -0.643 -0.158 0.750 124 102 63 0 0
-0.3820 -0.1376 -2.0301 -0.904 -0.295 -0.311 136 112 76 0 0
-0.3986 -0.1322 -2.0651 -0.502 0.114 0.857 120 97 55 0 0
-0.4195 -0.1256 -2.1149 -0.907 -0.282 0.311 139 111 63 0 0
-0.4498 -0.1140 -2.1196 -0.800 0.322 0.507 140 109 62 0 0
-0.4520 -0.1133 -2.1239 -0.866 0.360 0.348 133 102 55 0 0
-0.4559 -0.1119 -2.1266 -0.978 0.206 0.023 137 106 59 0 0
-0.4678 -0.1081 -2.1531 -0.999 -0.032 -0.012 146 115 68 0 0
-0.4684 -0.1080 -2.1587 -0.745 0.358 0.563 142 114 66 0 0
-0.4709 -0.1072 -2.1626 -0.838 0.271 0.474 137 108 60 0 0
-0.5463 -0.0812 -2.2671 -0.959 -0.231 0.167 141 136 125 0 0
-0.5507 -0.0795 -2.2692 -0.768 -0.268 0.582 167 165 160 0 0
-0.3001 -0.1518 -1.6156 -0.749 -0.271 0.605 119 96 60 0 0
-0.3340 -0.1391 -1.6272 -0.599 -0.234 0.765 114 92 62 0 0
-0.2613 -0.1718 -1.7870 -0.838 -0.436 0.330 95 76 46 0 0
-0.2662 -0.1700 -1.7895 -0.544 -0.496 0.677 96 77 47 0 0
-0.3571 -0.1404 -1.9765 -0.881 -0.211 0.424 106 84 46 0 0
-0.4489 -0.1092 -2.1191 -0.881 -0.230 0.414 144 113 67 0 0
-0.4511 -0.1085 -2.1234 -0.881 -0.230 0.414 137 106 59 0 0
-0.4527 -0.1082 -2.1342 -0.669 0.648 0.365 136 106 57 0 0
-0.4545 -0.1076 -2.1388 -0.713 0.575 0.402 134 106 59 0 0
-0.4672 -0.1033 -2.1585 -0.905 0.247 0.348 147 117 69 0 0
-0.4695 -0.1026 -2.1626 -0.838 0.271 0.474 139 110 60 0 0
-0.4716 -0.1018 -2.1668 -0.838 0.271 0.474 144 113 66 0 0
-0.5523 -0.0737 -2.2663 -0.794 -0.388 0.468 159 155 150 0 0
-0.3381 -0.1324 -1.6238 -0.783 -0.254 0.568 111 90 59 0 0
-0.2651 -0.1650 -1.7834 -0.899 -0.351 0.261 104 85 54 0 0
-0.2688 -0.1636 -1.7867 -0.675 -0.346 0.651 94 75 44 0 0
-0.3173 -0.1481 -1.8926 -0.928 -0.350 -0.128 109 87 49 0 0
-0.3683 -0.1311 -1.9846 -0.801 0.252 0.544 116 93 61 0 0
-0.3697 -0.1307 -1.9895 -0.847 0.166 0.505 113 90 55 0 0
-0.3746 -0.1291 -1.9976 -0.749 0.043 0.662 117 95 54 0 0
-0.3885 -0.1243 -2.0166 -0.942 0.079 0.327 124 101 62 0 0
-0.4043 -0.1192 -2.0520 -0.753 0.577 0.315 114 90 51 0 0
-0.4498 -0.1038 -2.1233 -0.993 0.006 0.119 145 114 67 0 0
-0.4501 -0.1038 -2.1291 -0.932 0.265 0.247 136 105 58 0 0
-0.4521 -0.1032 -2.1335 -0.826 0.090 0.557 134 103 55 0 0
-0.5580 -0.0667 -2.2782 -0.615 0.203 0.762 196 195 197 0 0
-0.2640 -0.1552 -1.6030 -0.394 -0.180 0.901 130 109 76 0 0
-0.2697 -0.1530 -1.6051 -0.394 -0.180 0.901 144 119 88 0 0
-0.3093 -0.1381 -1.6136 -0.473 0.020 0.881 135 111 77 0 0
-0.3139 -0.1364 -1.6162 -0.601 -0.061 0.797 119 98 67 0 0
-0.3573 -0.1206 -1.6433 -0.711 -0.346 0.612 103 86 57 0 0
-0.3034 -0.1472 -1.8604 -0.990 -0.016 0.140 108 86 48 0 0
-0.3159 -0.1429 -1.8749 -0.990 -0.039 0.135 108 86 48 0 0
-0.3634 -0.1275 -1.9753 -0.787 0.461 0.410 84 62 41 0 0
-0.3695 -0.1254 -1.9825 -0.596 0.305 0.743 94 71 41 0 0
-0.3827 -0.1214 -2.0201 -0.528 0.227 0.819 108 85 47 0 0
-0.3845 -0.1209 -2.0247 -0.971 -0.154 0.181 139 116 76 0 0
-0.4536 -0.0974 -2.1310 -0.870 0.028 0.493 130 99 53 0 0
-0.4547 -0.0971 -2.1362 -0.790 -0.063 0.610 130 102 55 0 0
-0.4675 -0.0929 -2.1618 -0.994 0.013 0.108 145 115 65 0 0
-0.1624 -0.1876 -1.5623 -0.955 -0.176 0.237 108 88 55 0 0
-0.1712 -0.1845 -1.5684 -0.994 0.071 0.087 106 84 52 0 0
-0.1702 -0.1850 -1.5745 -0.802 -0.087 0.591 112 90 58 0 0
-0.2187 -0.1670 -1.5906 -0.418 -0.278 0.865 123 99 68 0 0
-0.3391 -0.1221 -1.6268 -0.562 0.033 0.827 112 91 63 0 0
-0.3482 -0.1188 -1.6319 -0.760 -0.180 0.625 67 47 21 0 0
-0.2700 -0.1525 -1.7782 -0.934 -0.220 0.282 101 82 49 0 0
-0.3158 -0.1377 -1.8739 -0.982 -0.025 0.186 109 87 48 0 0
-0.3212 -0.1362 -1.8935 -0.926 -0.082 0.368 115 93 53 0 0
-0.3314 -0.1332 -1.9272 -0.868 0.033 0.495 115 93 52 0 0
-0.3807 -0.1168 -2.0144 -0.774 -0.236 0.588 117 95 53 0 0
-0.3866 -0.1148 -2.0218 -0.960 -0.279 0.029 121 99 59 0 0
-0.3953 -0.1126 -2.0631 -0.750 0.308 0.585 110 86 50 0 0
-0.3990 -0.1112 -2.0661 -0.783 -0.018 0.622 109 83 48 0 0
-0.5290 -0.0660 -2.2221 -0.538 0.070 0.840 124 103 55 0 0
-0.5701 -0.0518 -2.2762 -0.979 0.085 0.185 201 201 203 0 0
-0.0989 -0.2051 -1.5077 -0.621 -0.672 0.403 117 102 87 0 0
-0.2195 -0.1615 -1.5893 -0.418 -0.278 0.865 119 99 64 0 0
-0.2705 -0.1425 -1.6028 -0.314 -0.069 0.947 111 92 60 0 0
-0.2778 -0.1398 -1.6039 -0.226 -0.011 0.974 122 101 70 0 0
-0.2984 -0.1322 -1.6131 -0.789 -0.024 0.614 138 114 75 0 0
-0.3331 -0.1193 -1.6242 -0.720 0.067 0.691 109 92 62 0 0
-0.3416 -0.1163 -1.6298 -0.559 -0.493 0.667 120 100 69 0 0
-0.3084 -0.1346 -1.8490 -0.703 0.520 0.485 111 87 49 0 0
-0.3164 -0.1322 -1.8725 -0.974 -0.142 0.175 108 84 47 0 0
-0.3178 -0.1318 -1.8773 -0.859 -0.026 0.511 112 88 52 0 0
-0.3535 -0.1202 -1.9509 -0.970 -0.122 0.212 105 82 41 0 0
-0.3564 -0.1192 -1.9547 -0.986 -0.068 0.155 116 93 52 0 0
-0.3835 -0.1108 -2.0231 -0.869 0.154 0.469 102 80 43 0 0
-0.3857 -0.1100 -2.0273 -0.956 0.030 0.290 136 113 75 0 0
-0.3975 -0.1068 -2.0722 -0.728 -0.243 0.641 104 82 43 0 0
-0.4797 -0.0784 -2.1793 -0.902 0.431 0.017 133 105 57 0 0
-0.5235 -0.0629 -2.2197 -0.529 0.358 0.770 123 100 52 0 0
-0.5356 -0.0583 -2.2208 -0.688 0.075 0.722 131 109 62 0 0
-0.5688 -0.0470 -2.2699 -0.632 0.044 0.774 194 195 197 0 0
-0.5689 -0.0472 -2.2761 -0.941 0.116 0.316 199 200 202 0 0
-0.2150 -0.1580 -1.5856 -0.587 -0.329 0.740 92 72 43 0 0
-0.2594 -0.1415 -1.5977 -0.570 -0.080 0.818 129 106 71 0 0
-0.2878 -0.1311 -1.6078 -0.418 -0.267 0.868 102 80 50 0 0
-0.3313 -0.1149 -1.6191 -0.699 -0.186 0.690 118 98 66 0 0
-0.3143 -0.1273 -1.8496 -0.655 0.360 0.664 107 85 47 0 0
-0.3529 -0.1151 -1.9444 -0.965 0.073 0.250 116 93 50 0 0
-0.3792 -0.1070 -2.0134 -0.682 0.136 0.719 106 82 44 0 0
-0.3779 -0.1078 -2.0264 -0.367 0.421 0.829 99 77 40 0 0
-0.3851 -0.1051 -2.0267 -0.913 0.127 0.388 116 93 54 0 0
-0.3990 -0.1011 -2.0759 -0.652 -0.152 0.743 98 76 37 0 0
-0.5214 -0.0586 -2.2203 -0.529 0.358 0.770 117 93 47 0 0
-0.5654 -0.0433 -2.2719 -0.700 0.205 0.684 193 194 196 0 0
-0.2124 -0.1537 -1.5807 -0.869 -0.331 0.369 96 75 44 0 0
-0.2144 -0.1530 -1.5850 -0.793 -0.400 0.459 89 69 41 0 0
-0.2178 -0.1519 -1.5886 -0.788 -0.330 0.520 83 64 37 0 0
-0.2598 -0.1363 -1.5966 -0.466 -0.152 0.872 122 98 62 0 0
-0.2700 -0.1325 -1.6014 -0.183 -0.026 0.983 124 105 72 0 0
-0.3049 -0.1197 -1.6128 -0.651 -0.317 0.690 145 119 80 0 0
-0.3022 -0.1264 -1.8397 -0.764 0.066 0.642 110 88 51 0 0
-0.3052 -0.1254 -1.8434 -0.764 0.066 0.642 106 86 48 0 0
-0.3210 -0.1203 -1.8787 -0.627 -0.108 0.771 90 70 39 0 0
-0.3276 -0.1183 -1.8973 -0.943 0.103 0.316 111 89 48 0 0
-0.3302 -0.1180 -1.9249 -0.917 0.114 0.381 122 99 58 0 0
-0.3334 -0.1169 -1.9284 -0.856 -0.154 0.494 122 99 57 0 0
-0.3523 -0.1101 -1.9437 -0.973 0.055 0.223 118 95 53 0 0
-0.3568 -0.1087 -1.9522 -0.894 0.194 0.404 104 81 41 0 0
-0.3583 -0.1082 -1.9569 -0.945 -0.008 0.326 110 87 46 0 0
-0.3801 -0.1014 -2.0115 -0.715 0.195 0.671 105 81 43 0 0
-0.4076 -0.0921 -2.0555 -0.777 -0.178 0.604 110 87 46 0 0
-0.4574 -0.0751 -2.1228 -0.735 0.397 0.550 133 103 56 0 0
-0.4641 -0.0732 -2.1475 -0.896 0.429 -0.111 127 99 52 0 0
-0.4808 -0.0673 -2.1634 -0.881 -0.330 0.340 123 94 51 0 0
-0.5668 -0.0378 -2.2754 -0.847 0.052 0.529 198 199 201 0 0
-0.2599 -0.1311 -1.5957 -0.417 -0.010 0.909 115 91 56 0 0
-0.3423 -0.1009 -1.6212 -0.531 -0.226 0.817 104 86 58 0 0
-0.3302 -0.1064 -1.6617 -0.758 -0.366 -0.539 94 76 44 0 0
-0.2744 -0.1293 -1.7428 -0.911 -0.347 0.223 115 93 61 0 0
-0.2757 -0.1289 -1.7476 -0.911 -0.347 0.223 102 83 50 0 0
-0.3029 -0.1210 -1.8440 -0.583 0.075 0.809 106 85 49 0 0
-0.3235 -0.1143 -1.8817 -0.896 0.235 0.376 89 69 38 0 0
-0.3289 -0.1124 -1.8894 -0.857 0.157 0.491 101 81 43 0 0
-0.3313 -0.1116 -1.8936 -0.884 0.053 0.465 112 89 49 0 0
-0.3528 -0.1047 -1.9422 -0.960 0.192 0.204 115 91 50 0 0
-0.3541 -0.1044 -1.9472 -0.918 0.190 0.347 119 94 54 0 0
-0.3557 -0.1039 -1.9519 -0.918 0.190 0.347 110 86 46 0 0
-0.3574 -0.1034 -1.9565 -0.918 0.190 0.347 116 93 54 0 0
-0.3590 -0.1029 -1.9612 -0.918 0.190 0.347 115 91 52 0 0
-0.4409 -0.0753 -2.0870 -0.988 -0.069 0.139 169 138 88 0 0
-0.4501 -0.0725 -2.1157 -0.886 0.210 0.414 130 101 56 0 0
-0.4520 -0.0719 -2.1201 -0.886 0.210 0.414 126 97 52 0 0
-0.4554 -0.0707 -2.1233 -0.735 0.397 0.550 126 97 50 0 0
-0.4772 -0.0635 -2.1653 -0.930 -0.351 -0.106 119 90 47 0 0
-0.0252 -0.2105 -1.4652 -0.781 -0.184 0.597 134 127 118 0 0
-0.0308 -0.2087 -1.4736 -0.854 -0.176 0.489 121 107 88 0 0
-0.2985 -0.1163 -1.7941 -0.949 0.276 0.152 106 84 48 0 0
-0.3039 -0.1151 -1.8249 -0.665 0.216 0.716 108 86 49 0 0
-0.3107 -0.1126 -1.8316 -0.892 0.050 0.449 111 89 50 0 0
-0.3197 -0.1101 -1.8659 -0.953 0.248 0.173 84 67 37 0 0
-0.3213 -0.1096 -1.8706 -0.926 0.096 0.366 87 70 41 0 0
-0.3214 -0.1097 -1.8763 -0.804 0.228 0.549 86 69 39 0 0
-0.3239 -0.1089 -1.8803 -0.804 0.228 0.549 89 70 38 0 0
-0.3528 -0.0997 -1.9470 -0.960 0.192 0.204 114 89 49 0 0
-0.3561 -0.0987 -1.9564 -0.944 0.176 0.279 108 84 46 0 0
-0.4158 -0.0787 -2.0525 -0.711 0.151 0.687 108 84 46 0 0
-0.5819 -0.0217 -2.2643 -0.623 -0.245 0.743 200 201 203 0 0
-0.1765 -0.1500 -1.5109 -0.740 -0.612 0.278 108 87 56 0 0
-0.1817 -0.1482 -1.5135 -0.723 -0.491 0.487 110 89 58 0 0
-0.1944 -0.1444 -1.5556 -0.979 -0.149 0.142 110 90 57 0 0
-0.1982 -0.1431 -1.5589 -0.857 -0.389 0.339 111 91 58 0 0
-0.2872 -0.1111 -1.6047 -0.316 -0.062 0.947 105 84 53 0 0
-0.3401 -0.0918 -1.6209 -0.840 -0.294 0.456 106 86 56 0 0
-0.2981 -0.1113 -1.7934 -0.949 0.203 0.243 97 77 42 0 0
-0.3005 -0.1105 -1.7975 -0.879 0.414 0.236 101 79 41 0 0
-0.3040 -0.1097 -1.8180 -0.943 -0.268 0.195 110 88 51 0 0
-0.3165 -0.1058 -1.8497 -0.968 0.248 -0.025 82 64 34 0 0
-0.3164 -0.1059 -1.8556 -0.968 0.248 -0.025 87 70 40 0 0
-0.3195 -0.1049 -1.8592 -0.855 0.461 0.237 87 70 40 0 0
-0.3207 -0.1045 -1.8641 -0.855 0.461 0.237 85 68 38 0 0
-0.3214 -0.1045 -1.8753 -0.857 0.294 0.423 87 70 40 0 0
-0.3308 -0.1014 -1.8918 -0.896 0.004 0.445 91 71 37 0 0
-0.3329 -0.1007 -1.8961 -0.896 0.004 0.445 106 83 46 0 0
-0.3374 -0.0993 -1.9046 -0.971 0.153 0.183 100 78 39 0 0
-0.3531 -0.0946 -1.9576 -0.847 0.313 0.430 109 85 47 0 0
-0.3688 -0.0891 -1.9693 -0.893 -0.033 0.450 105 82 41 0 0
-0.4205 -0.0715 -2.0414 -0.681 -0.136 0.720 112 87 50 0 0
-0.5307 -0.0346 -2.2188 -0.993 0.079 0.086 122 97 56 0 0
-0.1789 -0.1439 -1.5034 -0.669 -0.195 0.718 106 85 54 0 0
-0.1850 -0.1417 -1.5055 -0.843 -0.078 0.531 108 87 56 0 0
-0.3031 -0.1001 -1.6050 -0.486 -0.322 0.813 106 87 58 0 0
-0.3182 -0.0963 -1.6832 -0.747 -0.160 -0.645 80 64 38 0 0
-0.2917 -0.1084 -1.7853 -0.909 -0.103 0.403 112 90 55 0 0
-0.2941 -0.1076 -1.7894 -0.939 -0.025 0.343 84 64 31 0 0
-0.2958 -0.1070 -1.7939 -0.811 -0.127 0.572 95 76 42 0 0
-0.3014 -0.1050 -1.7959 -0.775 0.258 0.577 104 83 44 0 0
-0.3175 -0.0998 -1.8307 -0.618 0.184 0.765 100 79 42 0 0
-0.3474 -0.0911 -1.9372 -0.909 0.352 -0.223 114 89 49 0 0
-0.3812 -0.0797 -1.9882 -0.873 -0.030 0.486 110 87 47 0 0
-0.4613 -0.0532 -2.1267 -0.907 0.419 -0.043 117 90 47 0 0
-0.4647 -0.0520 -2.1298 -0.687 0.219 0.693 116 88 45 0 0
-0.4678 -0.0509 -2.1332 -0.687 0.219 0.693 113 84 42 0 0
-0.4849 -0.0452 -2.1608 -0.849 0.085 0.522 117 89 47 0 0
-0.4873 -0.0444 -2.1649 -0.849 0.085 0.522 112 84 37 0 0
-0.5944 -0.0069 -2.2618 -0.016 -0.296 0.955 205 205 207 0 0
-0.1824 -0.1373 -1.4952 -0.888 -0.414 0.201 103 83 51 0 0
-0.1841 -0.1369 -1.5052 -0.846 0.068 0.529 93 74 42 0 0
-0.2262 -0.1227 -1.5684 -1.000 0.000 0.002 118 95 59 0 0
-0.3425 -0.0810 -1.6230 -0.792 -0.184 0.582 100 82 61 0 0
-0.3479 -0.0791 -1.6250 -0.713 -0.060 0.699 113 94 70 0 0
-0.2994 -0.1006 -1.7962 -0.832 -0.264 0.489 93 75 39 0 0
-0.3030 -0.0994 -1.7995 -0.851 -0.095 0.517 104 85 50 0 0
-0.3126 -0.0963 -1.8216 -0.742 0.459 0.488 107 85 47 0 0
-0.3124 -0.0965 -1.8274 -0.618 0.184 0.765 108 86 47 0 0
-0.3390 -0.0884 -1.9070 -0.961 0.221 0.167 109 86 45 0 0
-0.3828 -0.0741 -1.9917 -0.602 0.141 0.786 107 85 46 0 0
-0.4178 -0.0626 -2.0592 -0.849 0.218 0.481 99 77 37 0 0
-0.4615 -0.0478 -2.1191 -0.925 0.330 0.189 119 92 49 0 0
-0.4669 -0.0461 -2.1327 -0.852 0.339 0.398 111 83 39 0 0
0.0099 -0.2018 -1.4464 -0.153 -0.745 0.649 136 131 128 0 0
-0.1835 -0.1315 -1.4831 -0.660 -0.657 0.364 103 83 51 0 0
-0.1855 -0.1309 -1.4873 -0.756 -0.621 0.206 98 78 46 0 0
-0.1870 -0.1304 -1.4919 -0.798 -0.582 0.159 104 83 51 0 0
-0.1884 -0.1302 -1.5074 -0.500 -0.509 0.700 96 75 43 0 0
-0.3476 -0.0742 -1.6243 -0.713 -0.060 0.699 117 98 75 0 0
-0.3089 -0.0924 -1.8173 -0.883 -0.203 0.422 111 89 52 0 0
-0.3118 -0.0914 -1.8211 -0.856 -0.432 0.285 107 85 47 0 0
-0.3820 -0.0692 -1.9912 -0.777 0.039 0.629 98 76 38 0 0
-0.4602 -0.0432 -2.1190 -0.931 0.248 0.268 115 88 45 0 0
-0.5285 -0.0201 -2.2169 -0.923 0.239 0.301 116 92 48 0 0
-0.5499 -0.0130 -2.2524 -0.979 -0.197 0.055 58 39 25 0 0
-0.5753 -0.0039 -2.2652 -0.504 0.045 0.863 198 198 200 0 0
-0.1629 -0.1335 -1.4610 -0.579 -0.419 0.699 99 79 46 0 0
-0.2305 -0.1112 -1.5806 -0.979 -0.126 0.158 104 82 48 0 0
-0.2358 -0.1093 -1.5829 -0.631 -0.305 0.714 98 77 47 0 0
-0.2705 -0.0971 -1.6059 -0.555 -0.433 0.710 110 88 50 0 0
-0.3636 -0.0634 -1.6241 -0.820 -0.562 0.105 108 89 59 0 0
-0.2928 -0.0928 -1.7987 -0.967 0.185 -0.175 92 73 40 0 0
-0.3086 -0.0873 -1.8108 -0.826 -0.305 0.474 105 83 45 0 0
-0.3147 -0.0853 -1.8238 -0.926 0.251 0.281 108 86 47 0 0
-0.3415 -0.0775 -1.9207 -0.834 0.323 0.447 100 78 37 0 0
-0.3440 -0.0766 -1.9246 -0.686 0.129 0.716 106 84 43 0 0
-0.3477 -0.0753 -1.9278 -0.697 -0.162 0.699 109 87 46 0 0
-0.4676 -0.0358 -2.1418 -0.734 0.156 0.661 105 80 38 0 0
-0.4708 -0.0348 -2.1512 -0.921 0.370 0.126 115 88 43 0 0
-0.2545 -0.0976 -1.5928 -0.630 -0.513 0.583 103 83 51 0 0
-0.2995 -0.0838 -1.7252 -0.978 -0.015 0.209 112 90 55 0 0
-0.3062 -0.0829 -1.8057 -0.699 -0.194 0.689 112 90 51 0 0
-0.3127 -0.0807 -1.8127 -0.889 0.141 0.436 102 80 42 0 0
-0.3134 -0.0807 -1.8237 -0.847 0.161 0.507 105 83 44 0 0
-0.4189 -0.0468 -2.0608 -0.890 0.177 0.420 91 68 35 0 0
-0.4672 -0.0309 -2.1470 -0.961 0.153 0.229 109 83 42 0 0
-0.4690 -0.0304 -2.1515 -0.920 0.327 0.217 113 88 44 0 0
-0.5106 -0.0160 -2.1938 -0.872 -0.064 0.485 119 93 51 0 0
-0.0917 -0.1484 -1.4208 -0.512 -0.533 0.674 119 97 73 0 0
-0.1332 -0.1336 -1.4320 -0.417 -0.662 0.623 112 91 62 0 0
-0.2452 -0.0958 -1.5811 -0.900 -0.417 0.128 121 98 64 0 0
-0.2508 -0.0938 -1.5833 -0.918 -0.290 0.270 103 83 48 0 0
-0.2538 -0.0929 -1.5924 -0.842 -0.451 0.296 109 87 54 0 0
-0.2736 -0.0858 -1.6023 -0.313 0.093 0.945 111 86 46 0 0
-0.2964 -0.0808 -1.7772 -0.969 -0.002 0.246 107 86 47 0 0
-0.2976 -0.0805 -1.7820 -0.969 -0.002 0.246 108 89 49 0 0
-0.3038 -0.0786 -1.8006 -0.941 -0.218 0.259 107 85 46 0 0
-0.3091 -0.0768 -1.8085 -0.860 -0.150 0.489 105 83 44 0 0
-0.3117 -0.0760 -1.8124 -0.915 0.046 0.401 106 84 45 0 0
-0.3113 -0.0763 -1.8241 -0.890 -0.101 0.444 105 83 44 0 0
-0.3208 -0.0730 -1.8290 -0.924 0.085 0.373 107 84 43 0 0
-0.3491 -0.0639 -1.8953 -0.932 -0.081 0.354 99 75 37 0 0
-0.3949 -0.0498 -2.0253 -0.610 0.287 0.739 95 70 38 0 0
-0.4649 -0.0264 -2.1356 -0.832 -0.168 0.529 102 77 36 0 0
-0.4663 -0.0260 -2.1404 -0.863 0.017 0.504 103 78 37 0 0
-0.4665 -0.0261 -2.1464 -0.946 0.158 0.283 104 79 38 0 0
-0.4680 -0.0256 -2.1511 -0.904 0.297 0.308 105 81 38 0 0
-0.5446 0.0006 -2.2349 -0.943 0.080 0.323 118 95 51 0 0
-0.0942 -0.1423 -1.4188 -0.483 -0.575 0.660 110 89 62 0 0
-0.1795 -0.1123 -1.4606 -0.799 0.136 0.586 105 84 53 0 0
-0.1763 -0.1135 -1.4676 -0.814 0.054 0.578 104 84 51 0 0
-0.1849 -0.1106 -1.4738 -0.645 -0.232 0.728 88 67 36 0 0
-0.2116 -0.1014 -1.5021 -0.874 -0.113 0.473 103 80 48 0 0
-0.2127 -0.1011 -1.5069 -0.924 -0.048 0.379 107 84 50 0 0
-0.2125 -0.1013 -1.5124 -0.893 0.434 0.115 103 81 43 0 0
-0.2094 -0.1025 -1.5195 -0.566 0.587 0.579 109 87 50 0 0
-0.2476 -0.0898 -1.5788 -0.900 -0.417 0.128 138 115 75 0 0
-0.2545 -0.0874 -1.5857 -0.818 -0.389 0.423 98 75 40 0 0
-0.2657 -0.0836 -1.6007 -0.759 -0.043 0.650 130 105 65 0 0
-0.3235 -0.0666 -1.8146 -0.812 0.041 0.582 106 84 45 0 0
-0.3648 -0.0543 -1.9586 -0.874 0.070 0.481 79 58 28 0 0
-0.3670 -0.0536 -1.9628 -0.874 0.070 0.481 70 49 25 0 0
-0.3688 -0.0530 -1.9674 -0.753 0.384 0.535 69 48 21 0 0
-0.3717 -0.0520 -1.9710 -0.711 0.295 0.638 88 66 34 0 0
-0.4672 -0.0208 -2.1506 -0.948 -0.086 0.307 100 77 35 0 0
-0.5445 0.0057 -2.2336 -0.869 0.003 0.496 118 95 49 0 0
-0.1249 -0.1262 -1.4240 -0.855 -0.476 0.205 111 91 59 0 0
-0.1785 -0.1076 -1.4603 -0.799 0.136 0.586 106 85 54 0 0
-0.2097 -0.0971 -1.5024 -0.905 0.252 0.343 115 92 60 0 0
-0.2109 -0.0968 -1.5124 -0.947 0.218 0.234 105 83 45 0 0
-0.2588 -0.0808 -1.5823 -0.811 -0.478 0.336 101 78 39 0 0
-0.2536 -0.0829 -1.5962 -0.931 0.231 0.283 108 85 45 0 0
-0.2938 -0.0716 -1.7770 -0.964 0.206 0.168 118 95 58 0 0
-0.2934 -0.0718 -1.7829 -0.954 0.296 0.042 114 90 52 0 0
-0.3028 -0.0685 -1.7880 -0.899 -0.364 0.246 103 79 45 0 0
-0.3149 -0.0645 -1.8082 -0.800 -0.341 0.493 110 88 49 0 0
-0.3222 -0.0620 -1.8145 -0.799 0.246 0.549 103 81 42 0 0
-0.3212 -0.0626 -1.8267 -0.905 -0.155 0.395 111 88 47 0 0
-0.3339 -0.0592 -1.8986 -0.707 0.017 0.707 94 72 33 0 0
-0.3621 -0.0493 -1.9127 -0.836 0.402 0.374 95 73 35 0 0
-0.3797 -0.0441 -1.9755 -0.853 -0.405 0.331 88 65 31 0 0
-0.4082 -0.0351 -2.0481 -0.641 -0.183 0.746 123 97 59 0 0
-0.4114 -0.0341 -2.0575 -0.893 -0.102 0.439 97 75 40 0 0
-0.4300 -0.0280 -2.0902 -0.883 0.256 0.394 133 106 48 0 0
-0.4761 -0.0126 -2.1598 -0.709 0.285 0.645 105 80 40 0 0
-0.1933 -0.0974 -1.4730 -0.708 0.529 0.468 101 78 44 0 0
-0.1973 -0.0960 -1.4762 -0.962 0.045 0.268 94 73 38 0 0
-0.1997 -0.0952 -1.4802 -0.837 0.144 0.528 98 76 41 0 0
-0.2026 -0.0943 -1.4840 -0.654 0.209 0.727 120 97 60 0 0
-0.2056 -0.0932 -1.4877 -0.590 0.241 0.771 113 93 57 0 0
-0.2078 -0.0925 -1.4918 -0.867 0.153 0.475 108 86 52 0 0
-0.2092 -0.0921 -1.4964 -0.956 -0.013 0.293 102 80 43 0 0
-0.2103 -0.0918 -1.5012 -0.981 0.104 0.165 112 90 52 0 0
-0.2209 -0.0883 -1.5222 -0.305 -0.086 0.948 112 90 53 0 0
-0.2549 -0.0774 -1.5946 -0.856 0.392 0.337 116 94 55 0 0
-0.3121 -0.0593 -1.7410 -0.991 0.084 -0.108 121 97 59 0 0
-0.3161 -0.0590 -1.8063 -0.800 -0.341 0.493 107 85 48 0 0
-0.3222 -0.0571 -1.8249 -0.881 -0.118 0.459 110 88 47 0 0
-0.3308 -0.0544 -1.8476 -0.968 -0.074 0.240 100 78 41 0 0
-0.3348 -0.0538 -1.8968 -0.749 -0.221 0.624 97 75 38 0 0
-0.3619 -0.0443 -1.9118 -0.732 0.135 0.668 96 74 36 0 0
-0.3629 -0.0440 -1.9168 -0.922 0.034 0.385 95 73 36 0 0
-0.3647 -0.0434 -1.9213 -0.959 0.081 0.270 93 71 34 0 0
-0.3665 -0.0429 -1.9258 -0.780 0.094 0.618 99 77 40 0 0
-0.5441 0.0157 -2.2314 -0.883 -0.014 0.468 113 91 48 0 0
-0.5478 0.0169 -2.2341 -0.962 0.067 0.266 113 92 52 0 0
-0.5465 0.0164 -2.2415 -0.982 0.177 0.067 92 70 44 0 0
-0.1971 -0.0910 -1.4702 -0.891 -0.177 0.418 112 89 55 0 0
-0.2594 -0.0708 -1.5965 -0.895 0.421 -0.144 116 96 58 0 0
-0.3125 -0.0543 -1.7511 -0.746 -0.320 0.584 96 74 33 0 0
-0.3007 -0.0589 -1.7760 -0.783 -0.365 0.504 113 91 54 0 0
-0.3166 -0.0536 -1.8049 -0.883 -0.313 0.351 102 80 43 0 0
-0.3219 -0.0519 -1.8127 -0.876 -0.276 0.395 105 83 44 0 0
-0.3290 -0.0498 -1.8421 -0.937 0.197 0.289 103 81 44 0 0
-0.3304 -0.0494 -1.8468 -0.935 0.111 0.337 101 79 42 0 0
-0.3331 -0.0485 -1.8507 -0.935 -0.037 0.351 102 80 43 0 0
-0.3563 -0.0411 -1.9032 -0.775 0.336 0.535 90 68 29 0 0
-0.3621 -0.0392 -1.9164 -0.923 0.092 0.373 95 73 36 0 0
-0.3627 -0.0391 -1.9217 -0.733 0.353 0.581 92 70 33 0 0
-0.3654 -0.0382 -1.9256 -0.733 0.353 0.581 96 74 37 0 0
-0.3680 -0.0373 -1.9294 -0.733 0.353 0.581 101 79 41 0 0
-0.3695 -0.0369 -1.9342 -0.905 0.346 0.247 95 73 34 0 0
-0.3707 -0.0365 -1.9391 -0.905 0.346 0.247 94 73 35 0 0
-0.3724 -0.0362 -1.9554 -0.740 -0.066 0.669 62 44 20 0 0
-0.3889 -0.0305 -1.9721 -0.972 -0.235 -0.011 90 67 33 0 0
-0.4607 -0.0072 -2.1161 -0.924 0.267 0.273 100 77 36 0 0
-0.5393 0.0191 -2.2284 -0.888 0.268 0.374 111 88 47 0 0
-0.5416 0.0198 -2.2325 -0.835 0.325 0.445 111 88 46 0 0
-0.5436 0.0205 -2.2367 -0.835 0.325 0.445 112 91 50 0 0
-0.5447 0.0208 -2.2419 -0.960 0.254 0.120 96 74 45 0 0
-0.5459 0.0211 -2.2469 -0.928 0.280 0.245 89 66 46 0 0
-0.2011 -0.0845 -1.4725 -0.699 -0.336 0.631 109 86 52 0 0
-0.2438 -0.0703 -1.5344 -0.798 -0.303 0.521 124 100 64 0 0
-0.2480 -0.0689 -1.5374 -0.874 -0.163 0.458 120 97 61 0 0
-0.2479 -0.0690 -1.5428 -0.972 -0.194 -0.132 120 96 59 0 0
-0.2543 -0.0668 -1.5498 -0.957 -0.220 0.187 119 94 58 0 0
-0.3244 -0.0460 -1.8157 -0.991 -0.059 0.124 109 87 48 0 0
-0.3313 -0.0440 -1.8452 -0.896 -0.125 0.425 101 79 42 0 0
-0.3329 -0.0435 -1.8498 -0.935 -0.037 0.351 100 78 41 0 0
-0.3953 -0.0240 -2.0251 -0.975 0.001 0.223 96 76 42 0 0
-0.4351 -0.0104 -2.0643 -0.846 0.350 0.401 94 73 35 0 0
-0.4342 -0.0109 -2.0711 -0.908 0.267 0.324 99 77 39 0 0
-0.4588 -0.0028 -2.1165 -0.738 0.371 0.563 99 76 35 0 0
-0.5387 0.0238 -2.2339 -0.766 0.088 0.637 110 87 45 0 0
-0.5418 0.0248 -2.2371 -0.864 0.262 0.430 112 90 49 0 0
-0.1550 -0.0952 -1.4269 -0.989 -0.067 0.135 115 93 60 0 0
-0.2113 -0.0762 -1.4929 -0.609 -0.142 0.780 122 98 62 0 0
-0.2172 -0.0742 -1.4950 -0.713 -0.109 0.692 109 87 50 0 0
-0.2455 -0.0647 -1.5326 -0.593 -0.366 0.718 121 101 63 0 0
-0.2486 -0.0636 -1.5362 -0.771 -0.156 0.618 112 88 53 0 0
-0.2495 -0.0634 -1.5410 -0.967 -0.253 0.008 116 90 53 0 0
-0.2577 -0.0606 -1.5470 -0.891 0.435 -0.133 118 92 54 0 0
-0.2472 -0.0646 -1.5694 -0.992 0.129 0.000 131 101 64 0 0
-0.2473 -0.0647 -1.5748 -0.995 0.088 0.047 129 102 61 0 0
-0.3161 -0.0423 -1.7077 -0.878 0.476 -0.048 118 93 53 0 0
-0.3173 -0.0430 -1.7854 -0.963 -0.215 0.159 116 95 55 0 0
-0.3182 -0.0427 -1.7905 -0.960 -0.275 0.044 118 98 60 0 0
-0.3185 -0.0427 -1.7960 -0.960 -0.275 0.044 92 73 37 0 0
-0.3187 -0.0427 -1.8015 -0.960 -0.275 0.044 91 70 34 0 0
-0.3218 -0.0417 -1.8107 -0.981 -0.126 0.148 115 94 55 0 0
-0.3250 -0.0407 -1.8142 -0.995 0.020 0.096 111 89 51 0 0
-0.3224 -0.0417 -1.8218 -0.892 -0.264 0.368 107 85 47 0 0
-0.3328 -0.0384 -1.8488 -0.935 -0.037 0.351 100 78 41 0 0
-0.3729 -0.0256 -1.9469 -0.900 0.259 0.350 86 66 30 0 0
-0.3866 -0.0213 -1.9834 -0.557 0.291 0.778 84 61 28 0 0
-0.4059 -0.0152 -2.0333 -0.781 0.047 0.623 136 109 63 0 0
-0.4099 -0.0138 -2.0360 -0.639 -0.156 0.753 121 97 64 0 0
-0.4364 -0.0052 -2.0861 -0.939 0.177 0.294 107 87 45 0 0
-0.5430 0.0303 -2.2409 -0.928 0.023 0.372 107 86 51 0 0
-0.1842 -0.0802 -1.4534 -0.789 0.501 0.356 126 101 69 0 0
-0.2080 -0.0722 -1.4779 -0.911 0.179 0.371 96 71 34 0 0
-0.2045 -0.0735 -1.4852 -0.704 -0.249 0.665 122 94 54 0 0
-0.2179 -0.0689 -1.4938 -0.733 -0.251 0.632 124 98 63 0 0
-0.2298 -0.0650 -1.5192 -0.959 0.053 0.280 111 90 52 0 0
-0.2460 -0.0594 -1.5261 -0.803 -0.426 0.417 100 79 44 0 0
-0.2490 -0.0584 -1.5298 -0.846 -0.454 0.280 96 77 41 0 0
-0.2504 -0.0580 -1.5343 -0.890 -0.368 0.269 138 116 82 0 0
-0.2498 -0.0583 -1.5400 -0.966 -0.129 -0.223 115 91 53 0 0
-0.2554 -0.0564 -1.5476 -0.995 0.101 -0.025 124 99 61 0 0
-0.2599 -0.0550 -1.5611 -0.765 0.207 0.609 125 98 60 0 0
-0.2628 -0.0540 -1.5648 -0.608 0.198 0.769 127 102 59 0 0
-0.3138 -0.0381 -1.7082 -0.878 0.476 -0.048 127 99 60 0 0
-0.3215 -0.0365 -1.7872 -0.942 -0.317 -0.105 122 101 64 0 0
-0.3322 -0.0332 -1.8253 -0.961 -0.263 0.087 101 79 38 0 0
-0.3494 -0.0278 -1.8704 -0.992 0.112 0.066 99 77 38 0 0
-0.3522 -0.0268 -1.8741 -0.753 0.349 0.558 98 76 37 0 0
-0.4337 -0.0007 -2.0631 -0.847 0.280 0.452 87 65 28 0 0
-0.4356 -0.0004 -2.0856 -0.893 0.190 0.408 94 72 33 0 0
-0.5450 0.0361 -2.2376 -0.926 0.352 0.138 106 85 51 0 0
-0.5440 0.0356 -2.2447 -0.968 0.057 0.244 96 76 46 0 0
-0.5454 0.0360 -2.2495 -0.981 -0.001 0.193 86 69 46 0 0
-0.1770 -0.0773 -1.4246 -0.985 0.083 0.151 116 93 57 0 0
-0.2029 -0.0688 -1.4692 -0.963 0.268 0.031 128 102 72 0 0
-0.2031 -0.0688 -1.4744 -0.887 -0.052 0.459 131 105 76 0 0
-0.2496 -0.0532 -1.5233 -0.883 -0.345 0.318 129 108 69 0 0
-0.3761 -0.0102 -1.6341 -0.919 0.384 0.087 104 83 51 0 0
-0.3244 -0.0294 -1.7170 -0.895 0.211 0.394 129 104 63 0 0
-0.3395 -0.0259 -1.8477 -0.951 0.178 0.251 97 75 38 0 0
-0.3513 -0.0222 -1.8795 -0.819 -0.418 0.393 97 75 36 0 0
-0.4343 0.0043 -2.0855 -0.846 0.368 0.386 85 65 27 0 0
-0.4475 0.0086 -2.1044 -0.940 -0.044 0.340 97 75 35 0 0
-0.4476 0.0086 -2.1104 -0.930 -0.056 0.363 88 65 24 0 0
-0.5054 0.0279 -2.1871 -0.797 0.392 0.460 104 81 39 0 0
-0.5417 0.0399 -2.2394 -0.972 0.094 0.216 105 86 50 0 0
-0.5440 0.0407 -2.2434 -0.872 0.390 0.297 101 82 50 0 0
-0.5454 0.0411 -2.2482 -0.872 0.390 0.297 95 79 54 0 0
-0.1549 -0.0798 -1.4088 -0.455 0.388 0.802 119 97 61 0 0
-0.1761 -0.0726 -1.4243 -0.988 0.145 0.046 126 102 64 0 0
-0.1869 -0.0691 -1.4398 -0.859 0.386 0.337 106 83 51 0 0
-0.2470 -0.0490 -1.5186 -0.591 -0.156 0.791 112 87 50 0 0
-0.2571 -0.0460 -1.5557 -0.835 0.320 0.448 132 108 66 0 0
-0.3400 -0.0176 -1.6077 -0.508 0.385 0.770 136 112 79 0 0
-0.3232 -0.0249 -1.7168 -0.895 0.211 0.394 124 99 58 0 0
-0.3356 -0.0216 -1.8038 -0.930 -0.211 0.301 105 83 47 0 0
-0.3581 -0.0148 -1.8850 -0.911 0.412 -0.008 91 69 30 0 0
-0.3574 -0.0152 -1.8971 -0.976 0.211 0.048 94 72 33 0 0
-0.4272 0.0073 -2.0542 -0.903 0.079 0.422 88 66 29 0 0
-0.4295 0.0078 -2.0763 -0.858 0.390 0.335 93 74 43 0 0
-0.4698 0.0211 -2.1384 -0.851 0.363 0.380 92 69 28 0 0
-0.4743 0.0226 -2.1405 -0.894 -0.104 0.435 93 70 29 0 0
-0.4880 0.0274 -2.1466 -0.669 0.508 0.542 97 74 33 0 0
-0.4940 0.0293 -2.1595 -0.557 0.571 0.603 96 73 32 0 0
-0.5035 0.0322 -2.1875 -0.797 0.392 0.460 103 80 38 0 0
-0.5096 0.0344 -2.1881 -0.978 -0.001 0.209 105 81 38 0 0
-0.1583 -0.0737 -1.4116 -0.981 0.161 0.112 111 90 55 0 0
-0.1848 -0.0648 -1.4402 -0.759 0.281 0.587 101 78 45 0 0
-0.1878 -0.0638 -1.4439 -0.698 0.206 0.685 121 100 61 0 0
-0.3377 -0.0135 -1.6083 -0.583 0.452 0.675 111 90 61 0 0
-0.3755 -0.0005 -1.6219 -0.630 0.473 0.616 134 111 77 0 0
-0.3244 -0.0195 -1.7151 -0.935 -0.030 0.355 132 105 62 0 0
-0.3259 -0.0190 -1.7197 -0.895 0.226 0.386 125 100 58 0 0
-0.3397 -0.0153 -1.8170 -0.930 -0.277 0.240 98 75 41 0 0
-0.3528 -0.0114 -1.8705 -0.928 -0.368 0.052 101 78 40 0 0
-0.3558 -0.0107 -1.8972 -0.912 0.379 0.158 93 71 34 0 0
-0.3566 -0.0105 -1.9024 -0.912 0.379 0.158 93 70 36 0 0
-0.4052 0.0051 -2.0174 -0.898 -0.034 0.439 87 65 36 0 0
-0.4219 0.0107 -2.0336 -0.665 -0.153 0.731 110 91 49 0 0
-0.4183 0.0094 -2.0424 -0.417 -0.218 0.882 128 104 66 0 0
-0.4710 0.0265 -2.1482 -0.573 0.469 0.672 95 71 32 0 0
-0.4989 0.0359 -2.1721 -0.842 0.154 0.518 105 82 40 0 0
-0.5016 0.0366 -2.1880 -0.797 0.392 0.460 103 80 38 0 0
-0.1581 -0.0687 -1.4110 -0.959 0.029 0.282 116 95 60 0 0
-0.1712 -0.0643 -1.4200 -0.833 0.211 0.512 126 101 63 0 0
-0.1766 -0.0624 -1.4225 -0.936 0.216 0.278 126 100 61 0 0
-0.1825 -0.0605 -1.4353 -0.892 0.220 0.395 107 85 53 0 0
-0.1891 -0.0583 -1.4424 -0.786 -0.216 0.579 108 86 54 0 0
-0.1881 -0.0587 -1.4483 -0.832 0.474 -0.289 105 83 54 0 0
-0.2529 -0.0370 -1.5136 -0.940 0.169 0.296 115 91 53 0 0
-0.2587 -0.0351 -1.5210 -0.986 -0.121 0.118 116 92 53 0 0
-0.2555 -0.0365 -1.5549 -0.782 0.164 0.601 119 93 54 0 0
-0.2856 -0.0265 -1.5909 -0.974 0.197 0.109 120 96 58 0 0
-0.2919 -0.0244 -1.5925 -0.723 0.485 0.492 131 104 68 0 0
-0.2973 -0.0225 -1.5947 -0.487 0.428 0.762 127 101 63 0 0
-0.3010 -0.0212 -1.5978 -0.487 0.428 0.762 113 89 54 0 0
-0.3694 0.0022 -1.6196 -0.603 0.684 0.410 151 129 97 0 0
-0.3117 -0.0188 -1.7114 -0.715 -0.037 0.698 117 93 54 0 0
-0.3148 -0.0178 -1.7149 -0.876 0.113 0.468 127 101 61 0 0
-0.3202 -0.0159 -1.7169 -0.959 0.054 0.280 128 102 60 0 0
-0.3724 -0.0002 -1.9302 -0.482 0.432 0.762 83 61 30 0 0
-0.3822 0.0030 -1.9518 -0.946 0.068 0.318 74 53 23 0 0
-0.4121 0.0126 -2.0166 -0.876 -0.122 0.467 83 65 32 0 0
-0.4153 0.0136 -2.0259 -0.700 0.279 0.658 152 125 79 0 0
-0.4116 0.0122 -2.0348 -0.491 0.044 0.870 133 107 69 0 0
-0.4236 0.0161 -2.0549 -0.886 0.111 0.451 89 68 32 0 0
-0.4255 0.0167 -2.0652 -0.898 0.085 0.431 77 54 23 0 0
-0.4460 0.0234 -2.1021 -0.798 -0.230 0.557 107 83 42 0 0
-0.4597 0.0278 -2.1326 -0.732 0.490 0.473 82 58 20 0 0
-0.4715 0.0316 -2.1526 -0.790 0.199 0.579 99 76 35 0 0
-0.4980 0.0406 -2.1717 -0.892 0.118 0.436 99 76 34 0 0
-0.4997 0.0410 -2.1884 -0.797 0.392 0.460 103 80 38 0 0
-0.5143 0.0460 -2.1996 -0.717 0.175 0.674 114 89 46 0 0
-0.5190 0.0476 -2.2013 -0.912 0.240 0.332 115 91 50 0 0
-0.5229 0.0488 -2.2100 -0.880 0.136 0.454 95 75 33 0 0
-0.1529 -0.0654 -1.4076 -0.464 -0.046 0.885 133 110 70 0 0
-0.1583 -0.0636 -1.4101 -0.931 -0.115 0.346 113 89 54 0 0
-0.1770 -0.0573 -1.4216 -0.970 0.010 0.245 126 98 60 0 0
-0.1805 -0.0561 -1.4250 -0.975 -0.143 0.168 138 110 69 0 0
-0.1830 -0.0553 -1.4290 -0.620 -0.014 0.784 146 119 75 0 0
-0.1906 -0.0527 -1.4356 -0.788 -0.080 0.611 109 88 59 0 0
-0.1913 -0.0525 -1.4405 -0.812 -0.256 0.524 117 94 61 0 0
-0.1940 -0.0517 -1.4496 -0.925 -0.314 0.215 144 119 85 0 0
-0.1952 -0.0513 -1.4543 -0.925 -0.314 0.215 148 121 84 0 0
-0.2496 -0.0334 -1.5307 -0.572 0.423 0.702 84 62 30 0 0
-0.2580 -0.0306 -1.5419 -0.637 0.336 0.694 108 83 38 0 0
-0.2789 -0.0238 -1.5833 -0.808 0.089 0.583 116 95 61 0 0
-0.2960 -0.0180 -1.5946 -0.404 0.342 0.848 123 97 57 0 0
-0.3214 -0.0106 -1.7208 -0.987 0.126 0.101 119 96 55 0 0
-0.3234 -0.0100 -1.7305 -0.954 0.031 0.297 114 91 56 0 0
-0.3249 -0.0100 -1.7800 -0.805 -0.166 0.569 92 70 40 0 0
-0.3384 -0.0058 -1.8273 -0.960 -0.253 0.120 97 74 40 0 0
-0.3441 -0.0041 -1.8518 -0.819 0.083 0.568 85 64 30 0 0
-0.3652 0.0023 -1.9404 -0.772 0.436 0.462 82 61 30 0 0
-0.4092 0.0166 -2.0178 -0.758 0.261 0.598 83 65 33 0 0
-0.4077 0.0160 -2.0309 -0.641 0.032 0.767 142 115 63 0 0
-0.4113 0.0172 -2.0340 -0.684 0.134 0.717 157 132 90 0 0
-0.4225 0.0210 -2.0426 -0.429 -0.105 0.897 111 88 54 0 0
-0.4476 0.0290 -2.0995 -0.823 -0.016 0.567 113 88 48 0 0
-0.4505 0.0300 -2.1030 -0.795 0.073 0.602 95 74 36 0 0
-0.4587 0.0328 -2.1081 -0.939 0.053 0.339 98 75 34 0 0
-0.4694 0.0361 -2.1411 -0.839 0.348 0.418 90 66 28 0 0
-0.4815 0.0401 -2.1607 -0.815 0.071 0.574 98 75 34 0 0
-0.4978 0.0454 -2.1889 -0.797 0.392 0.460 103 80 38 0 0
-0.5056 0.0481 -2.1879 -0.898 0.302 0.321 104 81 38 0 0
-0.5203 0.0529 -2.2112 -0.792 0.118 0.599 95 74 33 0 0
-0.5428 0.0602 -2.2578 -0.999 -0.050 -0.015 75 61 45 0 0
-0.5309 0.0558 -2.2878 -0.850 0.331 0.411 170 169 167 0 0
-0.5420 0.0597 -2.2833 -0.734 0.567 0.373 184 185 186 0 0
