ply
format ascii 1.0
element vertex 687
property float x
property float y
property float z
property uchar diffuse_red
property uchar diffuse_green
property uchar diffuse_blue
end_header
-0.2930800402243933 0.4168046190973209 -2.19732714518057 91 69 30
-0.2975413052524593 0.41859622066777813 -2.1995829061007957 92 70 31
-0.2946843612535065 0.417872222359272 -2.208193612183263 92 70 33
-0.29720439336465854 0.41899658084458785 -2.212136196568994 91 69 30
-0.29801982378993586 0.4195353362936272 -2.21756722634864 92 70 30
-0.29905884248457276 0.42015109144667406 -2.2228074776370326 92 70 29
-0.3050059182710532 0.42245180370650465 -2.2237342866103074 96 74 34
-0.30716356711944187 0.42345129451761593 -2.2279844261816453 94 72 33
-0.3142702335249669 0.4261485607230547 -2.2278555855274598 92 70 31
-0.31335299097316655 0.4260928828009896 -2.234818891874004 92 70 29
-0.3198145004764576 0.4285676473857885 -2.235232902217423 94 72 31
-0.31793973330532505 0.42818418149688653 -2.2430599222073497 95 73 32
-0.31886524949381506 0.42876101848282083 -2.2484010588601007 98 76 35
-0.3211848139406524 0.4298155897597348 -2.2524968833553474 100 78 37
-0.32492534699402975 0.4313566822495045 -2.2553129302719443 100 79 41
-0.32760205059959946 0.43253320534192863 -2.2590793108555256 105 89 61
-0.3297682914674512 0.4335348720005101 -2.26330351842358 139 132 116
-0.3321211545800092 0.4346003372368703 -2.2673573083318095 173 172 165
-0.3363760208467373 0.4363162541469048 -2.2696798042224637 189 191 190
-0.3482002856684429 0.44087960505823964 -2.27126036921786 202 202 204
0.14270863222021846 0.2252280070400745 -1.4539669518701084 110 94 79
0.13940377800421772 0.22688733824435398 -1.4634981861574143 101 84 65
0.05717727080802776 0.2572314581498596 -1.4447202489540873 103 85 61
0.051584073931733865 0.25946340337902196 -1.4473699064679946 101 83 59
0.04266522473428591 0.2628827820663799 -1.448328306880868 102 84 60
0.03151182771038452 0.26733139581014465 -1.4535626471525283 99 79 56
0.024792129054591105 0.26996285257412456 -1.4555760550716543 104 84 60
0.0036006840952346186 0.27845241799955295 -1.4663915179231657 113 93 68
0.004037681460441422 0.2785284927970192 -1.4720429675757867 103 82 54
0.0026269111510354715 0.2792636785893495 -1.4767397754655045 99 78 49
0.0019560764072756864 0.2797352211387433 -1.4818258078896978 111 90 61
-0.0036301590369381964 0.2819584971371269 -1.4843343636223383 110 88 59
-0.012835332315729198 0.2854704283236283 -1.484920720922286 115 93 65
-0.0170869016045207 0.28721683185243374 -1.4881003898769822 111 91 65
-0.020965290767276656 0.2888299645798389 -1.4914692358505546 92 72 46
-0.025568064961570103 0.29070065797560335 -1.4944443632301119 129 106 73
-0.030154321617630153 0.2925650273074326 -1.497417915899106 130 107 68
-0.032441010478698296 0.29361067257804896 -1.501615717930823 107 85 49
-0.0295650260755288 0.29281958963485943 -1.5085938111035118 98 79 50
-0.028099542729131233 0.2925309788227877 -1.5148276672212977 102 86 57
-0.029089895186392767 0.29311620415373296 -1.519741808087278 98 81 54
-0.029447152783401265 0.293476510377836 -1.5250043215386777 92 75 49
-0.03175008756115649 0.29452861951573417 -1.5292093751145182 86 69 42
-0.031145814231550106 0.29454760641079036 -1.5350076090205118 82 64 38
-0.031073030989117012 0.29475582935653233 -1.5405230640163432 87 66 38
-0.032699978253340645 0.2955680873315732 -1.5451072593149777 121 96 61
-0.036498423979085426 0.2971514759585353 -1.5484886894088516 129 105 69
-0.043053178330463626 0.2997130626811807 -1.5503292337123806 124 100 65
-0.04029388014651453 0.2989680797916611 -1.557351770540699 117 95 61
-0.04665041620130694 0.301458553145855 -1.5592851896370017 101 79 46
-0.04614088825233731 0.3015124943386272 -1.5650615604280507 97 76 43
-0.04769290564043621 0.30229801656233546 -1.5696842862648204 97 74 41
-0.051003354302798565 0.30370711847795956 -1.5733128108789907 106 83 49
-0.0568553813372204 0.3060169837237764 -1.5754917627145602 122 99 68
-0.06668115511890982 0.30973455573936226 -1.575389512258424 92 71 42
-0.07008977696963953 0.3111769657382554 -1.5789272951945128 81 64 36
-0.07341561348877629 0.3125897932120486 -1.5825066220281778 95 76 49
-0.07784276857312078 0.31439242718328836 -1.5854458212797273 114 92 64
-0.08335134269098604 0.3165775402750951 -1.587749815484253 112 90 63
-0.08801383530340162 0.31846252962646315 -1.590530211459467 105 87 61
-0.09309990699572118 0.32049695577435344 -1.593053015582855 102 85 61
-0.09567613413261872 0.32164279198729906 -1.597028967078847 120 97 69
-0.10384405369508382 0.32476651091089853 -1.5977251020558016 126 104 73
-0.10814246420789259 0.3265206896372228 -1.600671609060245 104 88 56
-0.11477589015126244 0.3291000408207655 -1.60223062125631 110 91 62
-0.1222612943908068 0.3319797355247057 -1.6032661245959465 125 103 74
-0.13116866296862434 0.33536098317880725 -1.6034343208461355 138 115 78
-0.13875017335302442 0.3382725816237729 -1.6043645482378208 127 103 68
-0.14619082590004728 0.341133441426875 -1.6053560006955154 134 109 73
-0.14488916126482143 0.34090609953842155 -1.6115715039636866 148 123 82
-0.15092060412793457 0.3432682658568157 -1.6133841381137688 128 101 63
-0.15919049131363117 0.34641980245273285 -1.6138274843630862 142 117 76
-0.16827429723409654 0.34985744236116656 -1.6137514508136022 148 122 76
-0.17734944527403468 0.3532907737007639 -1.613651347430556 181 154 112
-0.18416874405849232 0.3559272024038268 -1.6148985565562137 147 122 86
-0.188107991024891 0.35754721028150777 -1.617888994835867 91 67 36
-0.18663239783810476 0.3572579596087392 -1.6241974612318444 110 88 58
-0.1851291732526305 0.3569595496685948 -1.630536507723167 115 94 63
-0.1857217415097428 0.35740018874317303 -1.6355931467477043 103 83 55
-0.1836669824000679 0.3569084792816216 -1.6422975249899496 93 74 46
-0.18052187251153684 0.3560334540086356 -1.649696676076382 97 79 51
-0.16073003288160165 0.3492981182563215 -1.6675135139838742 93 74 47
-0.15188907738049595 0.34642134798848223 -1.6785571562227404 111 91 64
-0.13784784453359006 0.3417163992059947 -1.6929142641235124 100 83 55
-0.13141267774433218 0.33969028624681297 -1.7025394502139275 97 80 52
-0.10708680048019609 0.33161410806504465 -1.729165928394441 98 81 55
-0.1070169902953162 0.3318312512116287 -1.7348636942726827 97 80 53
-0.1046511279523949 0.33124174175425913 -1.7420369243028013 95 77 50
-0.10215966750311523 0.3306088587636255 -1.7493084499862444 109 89 61
-0.09922368592257075 0.3298206005997706 -1.7568842174629407 112 91 62
-0.09914344452259694 0.3300361660528638 -1.7626375041818008 110 89 58
-0.09661813488657628 0.32939357907318234 -1.7699819604671656 115 92 56
-0.093781723877497 0.32864258083620956 -1.7775470428838038 137 109 66
-0.0986324371307637 0.33059015656929214 -1.7801236917169059 136 109 68
-0.10208802246416909 0.33204772820543416 -1.7836000064583395 111 89 56
-0.10331261952992044 0.33272248233200097 -1.7885328219076904 111 91 60
-0.10690231931339661 0.33422673711911366 -1.7919127983287069 108 88 57
-0.11215412840462019 0.3363133985777437 -1.7941889430185562 112 92 61
-0.1026632820459068 0.3332322848811764 -1.8062110651946688 113 96 66
-0.10638653477467774 0.33478346919151125 -1.8095054413779388 92 76 48
-0.10733565343899759 0.3353625203623615 -1.814640510097554 84 68 38
-0.11079307327636434 0.33682020882132135 -1.8181033029972598 93 76 43
-0.11325725974761314 0.33792986042050777 -1.822225582465419 103 83 50
-0.1155116486299414 0.3389659782688813 -1.8264867185745919 107 87 54
-0.11852891330611315 0.34026900528144954 -1.8302317638453802 109 86 54
-0.11742254421827547 0.3401291487911959 -1.836763249010282 106 85 53
-0.12370394611828156 0.342573843766596 -1.8382915804613158 106 86 54
-0.12174975748825245 0.34213795924133694 -1.8454106702073432 104 84 53
-0.11978963355133715 0.3417007091440813 -1.8525504069615468 113 92 61
-0.12400634492391172 0.3434229323671978 -1.8554733271731707 126 105 74
-0.123178054855823 0.3433820066734048 -1.8618550192985317 121 100 69
-0.12464032690970106 0.3441417035984459 -1.866668843202162 116 95 64
-0.1267687068644458 0.3451341045595664 -1.8710238835784907 114 93 62
-0.1267138105925144 0.3453642315614676 -1.8768932128512457 116 95 64
-0.12929722757487722 0.34651558652711645 -1.880934549115982 114 93 62
-0.1315916440769646 0.34756597817212953 -1.8851749040421955 110 89 58
-0.1341713312436888 0.34871582050634176 -1.8892139058752908 107 86 55
-0.13418048041977892 0.34896905087426494 -1.8950561795830716 101 80 49
-0.13465062053600807 0.34938336947041554 -1.9005819169333442 102 81 50
-0.1343892832839903 0.3495429881045886 -1.9066311289828162 103 82 52
-0.13410306488517965 0.34969434498562596 -1.912707546622089 103 82 53
-0.13411862592831714 0.3499512518576783 -1.9185790060689187 104 83 54
-0.1338575138649412 0.3501121544987798 -1.924656257200847 103 82 53
-0.1319333791845464 0.34969440500182164 -1.9319332550600716 101 80 51
-0.14987801766939912 0.356193817938701 -1.9249648800970993 99 78 48
-0.15080860286039627 0.35676913549030964 -1.9301768294916988 97 76 45
-0.15098414180200598 0.35708194680992844 -1.935938486219184 96 75 44
-0.1557850292132208 0.3590039005520479 -1.9383572856494802 95 74 43
-0.1583649215070167 0.3601530076158477 -1.9423772711822287 90 69 38
-0.15082537183902744 0.35778410160823954 -1.9537694326426938 94 73 42
-0.15165680137533527 0.3583262543337785 -1.9590841797144412 99 78 50
-0.1566402650613712 0.3603112344796435 -1.9613595360024205 101 80 51
-0.15815300088054007 0.36109006938039806 -1.9661738887395241 102 81 50
-0.16083084888383714 0.36227358152225486 -1.9701307194708304 103 82 51
-0.16068460782598043 0.36247653075442443 -1.9761736828099141 95 74 45
-0.16051853134988203 0.36267299202335224 -1.9822406354286457 94 73 44
-0.16207391835433144 0.36346715827609305 -1.9870356985094269 95 74 45
-0.16207386161498616 0.3637218472805841 -1.9929936595282398 94 73 43
-0.15946117030110135 0.3630708870467806 -2.00091649359394 92 71 40
-0.16039935434039188 0.3636518452603208 -2.0061930554166447 92 71 40
-0.16373236150283665 0.3650630258497636 -2.009670324960098 92 72 41
-0.18253078092758124 0.37183266501143475 -2.0014579920318805 91 72 40
-0.18226349723843932 0.37199468705350036 -2.0076161103276986 90 71 39
-0.16956990188390458 0.3678538337273054 -2.023227416040832 87 68 38
-0.1512527714146209 0.36176887459617174 -2.0431907568363488 89 69 39
-0.15717157544321803 0.36407618915401424 -2.0447183737131316 93 73 44
-0.165193599711015 0.36711048990205963 -2.0446156105007547 92 73 44
-0.17662628980347878 0.37132343726020034 -2.0418628015795366 89 70 37
-0.18435477120756133 0.3742535503302772 -2.0419238831136104 127 106 68
-0.18578262030028897 0.3750042494358786 -2.046832239585928 110 90 57
-0.18713985603346944 0.3757306429850832 -2.0517977254451267 83 62 32
-0.18888346110163107 0.3765906540093329 -2.0564652815693996 77 57 27
-0.18935952252215266 0.37701285072906293 -2.062122831784661 78 57 28
-0.19899301474575065 0.38059773798319185 -2.0606206310150963 82 61 32
-0.1966870228725533 0.380059139206114 -2.0684542414203935 84 63 34
-0.2004807084910023 0.3816266266156258 -2.0715059009040724 84 63 34
-0.20439237773256164 0.38323446182763754 -2.074455956978597 84 63 35
-0.21214398655403216 0.3861664842665138 -2.0743567823692786 84 63 36
-0.21669850317727318 0.38799485503853237 -2.0767695184991015 97 76 49
-0.21033248532769983 0.38605785892375977 -2.0878665584702083 105 84 54
-0.21097461403228374 0.386537864946919 -2.0934049082052173 118 95 58
-0.21633595309892983 0.3886441445461011 -2.0951694624855324 147 120 77
-0.2204112953427586 0.39030678235708355 -2.097951202245871 154 125 83
-0.22165009586007656 0.3909922201835675 -2.1030080728829135 136 109 73
-0.2216044747291961 0.3912356266852888 -2.109105842833162 99 76 45
-0.2114417725080706 0.38799756289669524 -2.12340964660019 86 65 34
-0.22511010419505195 0.3932210778473599 -2.1244864336205205 85 64 32
-0.2383305350627491 0.3980273476811086 -2.119771979438026 85 65 30
-0.24881010732962688 0.4018891730019193 -2.117251051229309 85 65 30
-0.2304231164610881 0.3958290398790333 -2.1384140916626593 84 63 29
-0.23364840018845628 0.3971980599992211 -2.141859654858181 81 58 24
-0.23636636669460154 0.3983925807264454 -2.145718522232081 82 59 25
-0.2377672961553059 0.39913473026208424 -2.1506654137540653 84 62 27
-0.24158884402082398 0.40070788450639006 -2.153602755859658 86 64 27
-0.24680029463112763 0.4027576153333907 -2.1553726447993604 86 64 27
-0.24986524741101057 0.4040703172236966 -2.1589214600459097 86 64 26
-0.25384851258512586 0.40569773170941387 -2.161695127740007 85 63 26
-0.24963481708579677 0.40451437042628335 -2.1713500640713885 85 63 26
-0.2590539776358518 0.40800495550159277 -2.1695410972260967 85 63 26
-0.24812854892322417 0.4045229202556885 -2.1848962073552896 86 64 27
-0.24776247416592662 0.4046606031585941 -2.1913603355473223 85 63 26
-0.2519976621936082 0.40637445019525775 -2.1939236167307357 87 65 28
-0.2586087001254131 0.4089011942611839 -2.19445045705896 87 65 28
-0.261478087148159 0.41014642756823017 -2.198153900079564 87 65 28
-0.26398519491711486 0.4112675202051117 -2.2021634978186544 89 67 30
-0.27201176598702087 0.4142763725583922 -2.2014251818982036 91 69 31
-0.2788682494181242 0.4168838807048395 -2.201666435919397 91 69 30
-0.28103339195962684 0.4178867160422899 -2.205939816344129 90 68 29
-0.2867680228157302 0.4201093109485513 -2.2071175964047542 91 69 30
-0.2867985452486778 0.4203824349662428 -2.2132358288282483 92 70 32
-0.29430587184546714 0.42320947115103613 -2.2128453499321816 92 70 31
-0.2965020223521143 0.4242220008154389 -2.2170707481357375 92 70 30
-0.29699382320280293 0.42465274768801353 -2.222788838106447 92 70 29
-0.3014241073429648 0.42642766277238786 -2.2250519371347726 96 74 34
-0.3025830417508104 0.4270861629006051 -2.230186351597851 93 71 32
-0.30880517877070696 0.42947141353071555 -2.230849325012717 91 69 30
-0.3082525444547615 0.42954622539871556 -2.237495824123877 92 70 29
-0.3114071540393933 0.4308849798782332 -2.240859642288901 93 71 30
-0.31295931502238883 0.4316775311103477 -2.245645512118371 96 74 33
-0.31545315418350073 0.43279088660517623 -2.2495916948276253 99 77 36
-0.3183087203096377 0.4340272855824554 -2.253210951885722 99 77 37
-0.31983982526915417 0.4348126675737238 -2.258015690218772 94 76 37
-0.32223530021855623 0.4358922560818189 -2.262043572890222 117 105 82
-0.32623788488315 0.437518436932886 -2.264617205897571 155 150 141
-0.33195312093364154 0.43972659310729256 -2.2656290939334727 180 180 177
-0.3359185214421605 0.4413390745890534 -2.268211750362505 192 193 196
-0.35061809074588596 0.44686241720609465 -2.2671646510758108 203 203 205
0.1478498740583143 0.2292797447393115 -1.466572053564559 108 96 79
0.14194125535590174 0.2316250475187545 -1.469246193916127 105 91 73
0.1206054889100796 0.23945772351880223 -1.4642462089721537 105 91 72
0.12029479271175081 0.23980955708900153 -1.4696517473021644 103 88 67
0.042761539915903535 0.2685643429657909 -1.4581908938934751 105 86 63
0.0374009952536164 0.27070509341748494 -1.4609163759685817 105 86 63
0.015291503551726704 0.2792633391916401 -1.4659079141480853 104 84 58
0.013298425301911776 0.2802064339672292 -1.470311705559593 101 81 54
0.016587170931024353 0.27927578267259107 -1.4774575752363273 106 87 57
0.015662262140233862 0.2798404443852066 -1.482427520872688 113 92 63
0.009696323476158342 0.2821927468711677 -1.4847646664517942 114 93 64
-0.0012287947623457196 0.2863024174404687 -1.4844830270061071 111 91 61
-0.005501507717778353 0.28805285001250835 -1.4876717531808659 116 97 67
-0.009767205863236095 0.28980040370446714 -1.4908551273139037 114 94 65
-0.013826657879544735 0.29147450133487185 -1.4941389046347473 110 91 61
-0.018611174272247788 0.293405034816831 -1.497028213474125 124 104 74
-0.023223210007254635 0.2952740141789404 -1.4999986338853433 114 96 64
-0.015124628781452987 0.29264296636681086 -1.5097777157689733 103 86 56
-0.018665886936936993 0.29413313777321737 -1.51332832459472 104 87 61
-0.019119234111982075 0.2945304296131821 -1.5185412010417325 101 86 58
-0.019480658315642163 0.29489544893635683 -1.5238095754837355 90 74 48
-0.01961360817875013 0.2951799260449765 -1.5292083110517332 72 54 30
-0.02152682237113407 0.29609417023822726 -1.533641617322887 80 62 35
-0.02068327139092002 0.2960339087956304 -1.5395859833827918 95 75 46
-0.020142809706398423 0.2960812290423743 -1.5453743743043118 119 96 64
-0.025003547183661434 0.2980373537402653 -1.5481907390611753 126 101 66
-0.028253911348530336 0.2994241276437366 -1.5518877167911436 127 104 69
-0.032038611655644256 0.30099937930958753 -1.5552824104635452 119 98 65
-0.03503513617432885 0.30229603001391403 -1.5591094956579086 98 78 46
-0.03710729821438141 0.30326620837553586 -1.5634498427659087 100 77 46
-0.0369762342566044 0.30345883760153325 -1.5690273904841316 97 74 41
-0.04580054046480231 0.3068114149809147 -1.5695640002264768 100 80 46
-0.05338773808012265 0.309726444301229 -1.5707732882195118 109 90 57
-0.05657634614341095 0.31108936050805946 -1.5744574098472472 107 86 60
-0.06044007977747362 0.3126900783213817 -1.5777518315995556 80 60 35
-0.06295702827651734 0.3138157536781827 -1.5818084438509539 90 73 48
-0.0675926903695816 0.31568793135670137 -1.584647175580288 89 73 49
-0.07106400980434358 0.3171494389059507 -1.5881453226419469 79 61 39
-0.0748122214239455 0.3187082011570679 -1.5914772834720774 100 81 58
-0.0818326811033322 0.32141889667495305 -1.5929051893344033 107 89 64
-0.08601788297426627 0.32313057584881855 -1.5959617404095594 100 82 57
-0.093533904980597 0.32601415946484175 -1.597065224028006 136 111 81
-0.09897285901239505 0.3281659122569308 -1.5993626075368674 130 105 74
-0.10755716567565032 0.331423527648594 -1.5997975285225166 111 90 61
-0.11423194951056753 0.33400840840944135 -1.6013315097830028 107 87 61
-0.11927332689980902 0.3360181356184131 -1.603812628797609 109 87 62
-0.12780293277663812 0.3392534969711238 -1.6042103121027655 143 119 82
-0.13616124822065473 0.3424274994954834 -1.6046832601857293 126 101 65
-0.14290331061984307 0.3450325034583339 -1.606096048053328 133 108 71
-0.1455960482921097 0.3462142932576707 -1.6099174566723777 146 120 81
-0.1497816495429059 0.3479201882968901 -1.6128372677781064 133 107 70
-0.15558350366478707 0.3501931150533088 -1.6147719239101674 151 125 83
-0.16408800243433053 0.3534139649671426 -1.615053509903714 157 130 86
-0.17272686265050763 0.3566807933786943 -1.6152264793389866 167 141 101
-0.1792629196335972 0.35920872194343884 -1.6166541872972 112 90 56
-0.18116671094126308 0.36011114424412394 -1.6208970246403218 90 67 38
-0.18788831077054552 0.3627028851425296 -1.6221821041579292 108 86 58
-0.17769884977729133 0.35936552226305213 -1.6338630397933172 105 85 58
-0.17902712879478577 0.3600668619146986 -1.63847567616728 93 74 44
-0.1767671555821118 0.3595110547030248 -1.6453151704793003 87 69 39
-0.16455825565532112 0.3554709913081995 -1.658360220367377 93 75 44
-0.14847192653482422 0.35007556074678936 -1.6738828556252514 97 79 50
-0.13506606086270084 0.3456217863164731 -1.68780084294781 102 85 57
-0.12575118083514408 0.34260266841476955 -1.6992116956909604 103 86 58
-0.11908224677488116 0.340511451625661 -1.7090010337129085 97 81 53
-0.09396488298724776 0.33196774267694806 -1.7304912172831468 96 79 52
-0.09589685800638065 0.33288943274958926 -1.734932995056344 94 76 51
-0.09537090015846805 0.332951674913048 -1.7409391127899116 90 73 47
-0.09484410108140068 0.33301406281622004 -1.7469559010365574 105 87 59
-0.08356385102423286 0.32931875242002084 -1.7598716115869517 111 91 63
-0.08493939419926944 0.3300476555272124 -1.764708461261344 113 91 61
-0.09046933321870959 0.3322277970293903 -1.766869016363396 115 93 59
-0.08373259966245111 0.3301236270429174 -1.7769492752439529 130 104 64
-0.08673919610042585 0.33142262575408243 -1.7807429061993332 127 102 62
-0.0883216919111845 0.33222437647699316 -1.7854591923957264 116 95 60
-0.09048896884530316 0.3332302446314176 -1.7897950299004612 107 89 59
-0.09343222764865056 0.3345067709705851 -1.7936214709891012 110 90 61
-0.0997600576389015 0.3369635085012154 -1.7952189882901655 108 90 60
-0.10278270067461853 0.3382670379257793 -1.798977518636614 114 96 69
-0.09884684762376694 0.33714481042943245 -1.8073345799899752 97 81 55
-0.10345228222853015 0.33900015446724013 -1.8100482205385993 84 67 41
-0.10482406744539774 0.33972843200135683 -1.8149033239431889 102 84 54
-0.1063488698591426 0.34051010859940867 -1.819658612475821 122 103 69
-0.10781375311151747 0.34127099607179706 -1.8244557775992676 120 100 67
-0.11501750997458582 0.34402976729991464 -1.8253979994290184 109 89 56
-0.11757784523943626 0.3451715436265162 -1.8294484311121866 113 92 59
-0.11594830907545378 0.34485541212837034 -1.8363298733185947 111 90 58
-0.11774318870116623 0.3457310870181748 -1.840903188028382 110 90 59
-0.11670887961274312 0.34562294405164107 -1.847402568454382 113 93 61
-0.11895521038895335 0.3466558814819246 -1.8516748922776236 118 98 66
-0.11881280533421401 0.34685852691397867 -1.8575818022023385 122 102 70
-0.1188635698579465 0.34712867876561615 -1.8633648990123868 116 95 64
-0.12048322357668045 0.34794417650537546 -1.8680749149678235 113 92 62
-0.11984123696843546 0.3479743037309588 -1.8743497078314717 114 93 63
-0.12319336247507662 0.34939162814269575 -1.8778659891092464 117 96 66
-0.12603388385132358 0.35063111280664794 -1.8817320530631285 112 91 61
-0.1288866276869291 0.3518746701536194 -1.8855857056640892 111 90 60
-0.1296980653137001 0.35240990787600873 -1.890864094056271 107 86 55
-0.13083757099676946 0.3530591360833558 -1.8959170329128858 105 84 53
-0.1308692982749839 0.3533244236066165 -1.9017535408014739 102 81 50
-0.1309696034923607 0.35361384103130544 -1.9075498756992761 107 86 55
-0.13007462187810936 0.35355870498614417 -1.9140594079996998 106 85 55
-0.13012787206945964 0.353832608826971 -1.919907344420495 107 86 56
-0.129113880740633 0.35373723650281197 -1.9265243464452102 101 80 50
-0.13007867350124885 0.3543275783003108 -1.9317392663348194 99 78 48
-0.13480467578663158 0.35622006912295967 -1.9342607111955386 97 76 45
-0.13770594728547036 0.35748056570220577 -1.9380828083321897 97 76 45
-0.13994638121730185 0.358512253863168 -1.9423776086122242 95 75 44
-0.14388375570602602 0.3601308073000847 -1.9454428244299766 95 75 44
-0.15238861712017154 0.3633283040486674 -1.9451831939035769 90 69 39
-0.14329696542213333 0.36044179305297963 -1.9577088745173934 91 70 41
-0.14858553513974537 0.36252696534269546 -1.9597794814061062 100 79 50
-0.1516862032740935 0.36385560362983604 -1.9634382721914831 101 80 50
-0.1539103471077033 0.3648812754609607 -1.967736060717231 101 80 49
-0.15687268116736963 0.3661617880456199 -1.97148852900715 97 76 45
-0.1550714337046099 0.3657977145707745 -1.9787580228881216 99 78 48
-0.15439691087061053 0.365823199278181 -1.9852086811541492 101 80 50
-0.15659186845467632 0.3668391821607317 -1.9895369431431345 101 80 49
-0.1552431675496565 0.3666328697509644 -1.9965074101571283 98 77 46
-0.15522829296011587 0.3668871173905953 -2.0024946557935164 95 74 43
-0.15521347112987788 0.3671417636759816 -2.008490627725692 95 74 43
-0.16216837440048842 0.3697987032262221 -2.0092498473609406 93 72 41
-0.17480785682282302 0.37441314340495957 -2.005695654120528 93 73 41
-0.16762271839521675 0.372197381272223 -2.0171026831989076 94 74 43
-0.1497071641308505 0.366288602918172 -2.036698690028186 94 74 43
-0.15104189840265891 0.3670102549280714 -2.041723215253996 95 74 43
-0.16410646096038206 0.37203021401602365 -2.043817172003652 89 69 39
-0.17331651883311117 0.3754598401461404 -2.042775751992775 112 90 57
-0.178244590714134 0.3774157251393514 -2.0450012703074503 135 112 76
-0.182986163616154 0.3793069177012164 -2.0473574507987555 98 77 43
-0.1862655757828473 0.38069509890898345 -2.0508343451856583 88 68 36
-0.1902769992157728 0.3823344961831313 -2.0537361178034836 81 62 31
-0.19425500721273026 0.38396200939935277 -2.0566545513014125 81 60 31
-0.1905666248372634 0.38295688603527717 -2.0655585183099214 86 65 36
-0.19568286455574857 0.3849750493464028 -2.067583245500454 84 63 34
-0.19416876677845302 0.3847173890992921 -2.0748084021503943 84 63 34
-0.19298947293738894 0.3845752699414008 -2.081785282101266 83 62 34
-0.19859848037089867 0.3867618242409916 -2.0834062652182337 84 64 37
-0.20182024334844262 0.38812918068073066 -2.0869044826017986 102 81 53
-0.205543271314026 0.3896680921297462 -2.0899979909496915 105 82 51
-0.20703083519061444 0.3904406635777256 -2.0948672006572826 139 114 74
-0.2202701713980761 0.3952389136213212 -2.0903336427024772 154 126 82
-0.21797448647122347 0.39471491250402535 -2.098216393530308 155 128 84
-0.20818772237158512 0.39162718131568763 -2.1121483623199753 110 86 49
-0.2070562934088951 0.3915040995745661 -2.1191477910712946 94 72 42
-0.1975132858464298 0.38850361542176814 -2.1329710350106494 88 65 34
-0.2336390528449473 0.40165233288808927 -2.1218879725990947 86 65 31
-0.23177742110937327 0.40127967100313766 -2.1294844944335383 87 65 30
-0.21096139798152913 0.3944321085560767 -2.1526637818665804 84 62 27
-0.21747153906919137 0.3969222351618 -2.153445802370141 83 60 25
-0.2239588301596971 0.3994036341370983 -2.154225365716503 83 61 25
-0.22663364112075784 0.4005827582693031 -2.1581411896098035 85 63 27
-0.22546603579996766 0.4004505561109768 -2.1652449544812544 87 65 28
-0.2257593568945051 0.4008173647969011 -2.1711465621565162 87 65 27
-0.22780752666070675 0.40178297500174426 -2.175590217229665 86 64 26
-0.2295698629612417 0.4026511160783888 -2.180272842727708 85 63 25
-0.2281308204352429 0.40242817440728634 -2.1876454868248225 86 64 25
-0.23226120951744345 0.40410357952921677 -2.1903427484096225 85 63 25
-0.24060818681455076 0.40721480460582704 -2.1894678448264067 85 63 26
-0.23933243149161254 0.4070479785105342 -2.19671398835523 83 61 24
-0.2450337423299156 0.4092569292421977 -2.198048618413922 87 65 28
-0.2511530417357734 0.4116073521969398 -2.1990093268820265 88 66 29
-0.2543819836689122 0.41297358305388643 -2.202419205365229 89 67 30
-0.25738068919947893 0.41426124294269256 -2.206020180327941 91 69 32
-0.26012926320757696 0.41546363855978924 -2.209830980014855 91 69 31
-0.26848918379252273 0.41857315640883924 -2.2088042281489884 90 68 30
-0.27206415879696866 0.42005543932783396 -2.2118799904347832 90 68 30
-0.2773130611203276 0.4221059978756936 -2.2134979062139033 91 69 32
-0.2868285286473927 0.4256047302531596 -2.211393854636365 92 70 33
-0.286329828058075 0.42570225356599944 -2.217975919410056 93 71 32
-0.2911703240913433 0.42761228383274086 -2.2199062088047534 93 71 31
-0.29457153246341755 0.4290333939809137 -2.2230830477644234 94 72 31
-0.2977249002321003 0.4303701353654484 -2.2264704297607447 94 72 32
-0.30087497327430396 0.4317055015909082 -2.229854768020684 92 70 30
-0.3036657321227583 0.4329188181528988 -2.2335504858492494 90 69 28
-0.3074344807921396 0.4344633443992488 -2.2363759205581983 90 69 28
-0.30898179626826106 0.4352549817895063 -2.2411650075776746 92 72 30
-0.31052968348171456 0.4360468923739885 -2.245955419085965 95 75 34
-0.31801599282591814 0.4388492341841318 -2.245445352265113 100 79 39
-0.3218074647067622 0.440399962803142 -2.2482161635346594 96 76 37
-0.3225058734478617 0.44090384683864514 -2.2537546892455276 95 79 44
-0.3237268179967281 0.44158471957012657 -2.258828797050587 131 122 104
-0.3230159620825884 0.44161258547989446 -2.2656501546490775 167 165 160
-0.33317368813620135 0.44558262063044807 -2.2688220482578254 195 196 199
0.14543187282577358 0.23578821388059604 -1.4698795392488664 109 97 83
0.10583923462336564 0.2505348595006426 -1.4668951587516768 103 87 67
0.10034002009413978 0.25272397445210115 -1.46967868845844 101 85 64
0.10075363568255413 0.252821767603265 -1.475426882002298 103 85 65
0.08156110320675669 0.2598509215069958 -1.4712724496113414 103 85 66
0.07602457320052736 0.2620508130209667 -1.4739822979030655 105 87 66
0.06320234440110312 0.26682445875797256 -1.472967842675251 101 83 62
0.027832984453929177 0.28004084765809223 -1.4712720658186373 99 80 52
0.025573918176466537 0.2810785842105028 -1.4755584419062089 105 86 55
0.018938067587891128 0.28390110548369885 -1.4830246124296689 100 81 51
0.013937697361844636 0.2859055073254808 -1.4858703979305985 107 86 57
0.009793735018564509 0.2876073592822448 -1.4891536382052517 112 92 62
0.005551632380080884 0.2893434390033483 -1.4923766915103034 114 95 63
0.02563629026278119 0.28250386776306086 -1.50844479396014 110 91 61
-0.0008735326578067082 0.2920887759425014 -1.4998879684682314 111 92 63
-0.005876195865297973 0.2940918209930301 -1.502683394647823 115 97 70
-0.002812215864917589 0.2932528762465803 -1.509775796870561 107 90 63
-0.0035314881278100674 0.293747102289814 -1.5148592473634006 106 89 62
-0.004140193839572426 0.2942026040403373 -1.5200068121493553 103 86 59
-0.005690561513475689 0.2949897878835013 -1.524650988014408 103 86 60
-0.006618606699768437 0.2955580341602865 -1.5296338214660763 96 78 52
-0.00859255150653232 0.29649442116661984 -1.5340517080798648 91 71 44
-0.008271402881592227 0.29662352892038546 -1.539721980349542 104 85 53
-0.010246959162883207 0.2975606606573469 -1.5441430261807505 130 108 74
-0.015694737814139714 0.2997184979218721 -1.5466553077817509 124 100 66
-0.01739244822261171 0.3005576554921259 -1.55122242309441 112 90 57
-0.021711187082085415 0.30231786463006083 -1.5543394905250787 113 92 61
-0.02467961920937889 0.30360328706580564 -1.5581972973475844 109 88 58
-0.028865337717092765 0.3053160654127441 -1.561372376947432 99 78 49
-0.028701442661889676 0.3055011493980302 -1.5669719041599124 100 77 48
-0.03720775127709425 0.3087302567958742 -1.567712119414592 100 78 45
-0.041260646674874724 0.31039524350630915 -1.5709353373672248 109 89 55
-0.04604646608915136 0.3123170238844982 -1.5737357769050682 110 90 59
-0.047640595505780314 0.3131186965951912 -1.5783355530585204 91 72 48
-0.051872833317505807 0.3148456127822204 -1.5814347417157866 80 62 39
-0.05650314401044981 0.31671169444689473 -1.5842973419638702 80 64 42
-0.06118334697614003 0.318594789812802 -1.587120561622132 86 70 50
-0.06497299744286683 0.32016531537916604 -1.5904450451844452 89 74 51
-0.07163247987474475 0.32274096403713 -1.5921055578175853 116 99 73
-0.07280258478623852 0.3233930428350331 -1.5969265693251073 111 92 66
-0.08053832866028082 0.32634438724005554 -1.5979346405634396 109 89 60
-0.08722220887499216 0.32892646035230755 -1.5995328695936852 137 113 80
-0.09540148832475898 0.332031083570443 -1.6002369184127274 126 101 68
-0.10242930227021574 0.33473168633760875 -1.60159194367461 132 108 77
-0.1106912117262756 0.3378631007292755 -1.6021993004010802 120 97 69
-0.11628289148931042 0.3400595106118488 -1.6043596709289105 110 88 63
-0.12449769282803846 0.3431724352475991 -1.6049491517534336 128 107 72
-0.13117854573863713 0.34574803050200964 -1.6064261555664658 142 118 80
-0.1363953828339775 0.3478111414595907 -1.6087581261052115 142 119 78
-0.14107220741620013 0.34968498706235157 -1.6114001924014003 149 124 85
-0.14756459200990513 0.35219249710176537 -1.6129393353496067 135 109 72
-0.15662571454262753 0.355596199059276 -1.6129101636748044 149 122 80
-0.16370122677821342 0.3583054098217495 -1.6140537120067813 153 125 81
-0.16965183926283117 0.360621069188962 -1.6158592732270178 150 126 85
-0.1725754339361229 0.3618797574386665 -1.6194926840501151 88 69 34
-0.17513628142856252 0.3630117101433302 -1.623343507176582 91 70 38
-0.1828946039001087 0.365956195787796 -1.6240032806449674 107 85 57
-0.18354507898200212 0.36642134080586314 -1.6290134448971278 94 76 48
-0.16199689721134947 0.3591487319497144 -1.6477357776752046 97 78 48
-0.16351820698619746 0.3599197808208636 -1.6522615580967606 99 80 50
-0.1489707082003574 0.3550925490431166 -1.666776663180757 102 83 53
-0.13547849167110537 0.35063584282737914 -1.6807009210515849 110 92 62
-0.12285389221027843 0.3464840339245943 -1.6941453936697393 101 84 55
-0.1092850440614348 0.3420061333181087 -1.7082422240031414 96 79 52
-0.0876671535384036 0.3349793396717482 -1.7331392610509997 90 73 45
-0.08742060735510454 0.33514358917759335 -1.7389708790040281 86 69 44
-0.08546225418466119 0.33471292960967924 -1.74590013272504 94 77 51
-0.08740378987955716 0.3356388618307454 -1.7503571524239554 108 90 60
-0.07859838091362242 0.33282935615184994 -1.7616934180791 111 91 62
-0.07918358117911206 0.3332849530365175 -1.7670436508890361 111 89 55
-0.07787707098003455 0.3330836202578761 -1.7736182665135303 124 100 59
-0.07311753338204097 0.33168362296175746 -1.782438244092169 132 105 64
-0.08336412512491781 0.33549520475159744 -1.7815556431798394 127 104 69
-0.08703499713117185 0.33702267758668314 -1.7849160344090673 101 82 54
-0.08253677089633066 0.33571490279886007 -1.7936004226857127 109 91 64
-0.08889282499464357 0.33817408299655555 -1.7952054056334448 110 91 61
-0.09328561130379381 0.3399514958804931 -1.7980813556883313 113 96 69
-0.09852690890330046 0.3420226793742669 -1.8003879194714534 106 89 64
-0.0919688333098172 0.34000286525724954 -1.8104799619378016 89 73 48
-0.09416584340151629 0.34101886297389006 -1.8148022186573978 89 72 46
-0.09984882393141103 0.3432426170090579 -1.8168044856891352 111 91 60
-0.10270890882784106 0.3444878725972033 -1.8206747289788232 120 100 66
-0.10512196400869667 0.34557815447843476 -1.8248403262201065 109 88 57
-0.10546653359439623 0.3459522450798491 -1.8303929969832824 106 85 54
-0.1064048942286816 0.34653214568134805 -1.8355523927312387 107 86 55
-0.10871486376159056 0.3475868227886958 -1.8397891038060323 110 89 58
-0.1108263196366212 0.34857276110976165 -1.8441588075306625 112 91 60
-0.11052700666470766 0.34872496941123043 -1.8501672034945431 118 97 66
-0.11225671370469742 0.3495790873075826 -1.8548009812264596 120 99 68
-0.11295740103191315 0.3500775800365548 -1.860139821606443 122 101 70
-0.11268955683827853 0.3502416394607034 -1.8661488030255016 112 91 60
-0.11320118918963801 0.35067538211867305 -1.8716304955342207 111 90 61
-0.11360436132892526 0.3510719379024075 -1.877193234427685 117 96 67
-0.12048404985954142 0.3537048461752297 -1.8782751313177777 119 98 69
-0.12225815134808193 0.3545745643218464 -1.8828843408401439 111 90 61
-0.12141972149191593 0.3545428148463476 -1.8893156759494205 110 89 60
-0.125047011215838 0.3560521426825497 -1.8926359409268856 108 87 56
-0.12469577701364226 0.35618904777998645 -1.8987398538144569 105 84 53
-0.1250136775764804 0.35655709507030964 -1.90438283458178 106 85 54
-0.1251605356385091 0.3568664962048354 -1.9101535761325759 103 82 51
-0.1258558930817742 0.35736524855868146 -1.9155437755602027 105 84 53
-0.1250068962587651 0.3573322170176024 -1.9220361468274716 104 83 52
-0.1256722740738524 0.3578212709426021 -1.9274619246044102 100 79 48
-0.1280489099974303 0.35889976337282214 -1.9316705654127904 94 73 42
-0.12911767977525646 0.3595279961017917 -1.9368146839425604 97 76 45
-0.14438185766636152 0.3650411999286497 -1.9317578329191172 97 76 45
-0.1453123836059353 0.3656208459178806 -1.936978281182166 96 76 45
-0.1468186974493053 0.36639871075359426 -1.9417867054950608 96 77 47
-0.14511700554415524 0.36607367662052787 -1.9489242864789929 94 74 44
-0.14261498422674806 0.36547425395540234 -1.9566602260710755 93 72 43
-0.14531507495270024 0.366663285651878 -1.9606189706097534 98 77 46
-0.14495659520024895 0.3668014565156893 -1.9668134234171568 102 81 50
-0.14608590929462067 0.3674510343403127 -1.971925620008534 100 79 48
-0.14639171856105632 0.3678180319458614 -1.9776479150222772 95 74 43
-0.14702000021763884 0.36829603486076024 -1.9831392733320183 95 74 43
-0.14943609254888007 0.3693877679887424 -1.9873119064470979 97 76 45
-0.1516633700982321 0.37041463827106236 -1.9916227827513742 97 76 45
-0.15047583455414382 0.3702703576187638 -1.9984776069442018 93 72 41
-0.15166056635376485 0.37094001918237074 -2.003572980000212 94 73 42
-0.15427450461982206 0.37209969166048484 -2.0076001689377874 95 74 43
-0.16286277274797772 0.37530634725407064 -2.007131583472281 93 72 41
-0.16359026721186187 0.37581896399862114 -2.012562369745813 92 71 40
-0.1684753118408247 0.3777555928332206 -2.014853452402985 95 74 43
-0.1454666980936261 0.3701420885936326 -2.0382952927242846 98 77 46
-0.14829817622095554 0.3713774674097006 -2.0421853550298743 101 80 50
-0.15071580661256734 0.37247107320645695 -2.0463873780901296 97 77 45
-0.16078565278985313 0.3761820950934855 -2.0447297340712964 98 78 44
-0.16945010164865865 0.37941091792953974 -2.04411450634191 123 100 66
-0.1692135111984563 0.3795954989250734 -2.0503227289209294 114 90 58
-0.16886864175396488 0.3797435105808637 -2.0566244702332734 94 73 39
-0.17300737037343417 0.381423848886409 -2.0594639903691316 88 68 35
-0.18812653398218493 0.38685423388912676 -2.0537641459497906 85 65 34
-0.18099935143759127 0.3846857370259966 -2.065335703943502 86 65 35
-0.18809880167352133 0.3873754650214563 -2.0658327902333316 88 67 38
-0.1836038340150573 0.3861074498897875 -2.0753919362027595 87 66 36
-0.18796270689890882 0.38786130051238454 -2.0780223085395426 86 65 36
-0.18914335907070945 0.3885307066611168 -2.083146684052738 86 64 37
-0.18948320169888067 0.3889135872410493 -2.0889392119216423 93 73 46
-0.19085759841445898 0.3896494280591412 -2.0939189727072507 106 85 56
-0.1958487140783765 0.3916178040342926 -2.09602590603196 121 98 62
-0.2036420054853198 0.39454013898191476 -2.095884557611582 142 116 73
-0.21223039704022956 0.3977320630007972 -2.0950805087819866 155 128 83
-0.20864209986002563 0.39677706313073 -2.1040110117875277 141 116 73
-0.20492607960001535 0.39577971725662997 -2.1130697656143047 100 79 43
-0.20114034018157434 0.39475980263086613 -2.1222109282092334 90 69 37
-0.19004990455262094 0.39125639310005095 -2.1372873574518394 89 65 34
-0.22958119518135695 0.40577100585251613 -2.129559084841534 88 65 33
-0.21140942249586403 0.4004083218385147 -2.1628354231832994 85 62 30
-0.21403111567682132 0.4015690451463996 -2.1668203144913947 87 64 29
-0.22828559640326462 0.40803067474136534 -2.191905987337271 86 64 26
-0.22929912334504998 0.4086460623769133 -2.1972297568135652 85 63 26
-0.23408224564536873 0.4105376302425615 -2.1993673718082176 84 62 25
-0.23957006507130774 0.4126670682286683 -2.200893422828439 86 64 27
-0.2452687233987157 0.41486708911407333 -2.2022232050366313 89 67 30
-0.25095088758302486 0.4170607455546238 -2.203549212677151 90 68 31
-0.2546483243577109 0.4185826322731404 -2.2065561922542525 91 69 32
-0.24768366463502606 0.4165006935814419 -2.218706274724603 91 69 32
-0.2569432209973238 0.4199022026635038 -2.216934624575275 90 68 31
-0.2652329577662835 0.42297460446263013 -2.215965005159945 90 68 31
-0.2712862008902778 0.4252905078235236 -2.216900635190089 91 69 32
-0.27168893651997317 0.42569823237676563 -2.2227206315522543 92 70 33
-0.27332796213701854 0.4265234564040675 -2.227472050634097 94 72 33
-0.28649379964363675 0.43123713024456944 -2.2221651335133643 93 71 30
-0.28812986657672174 0.43206025787800867 -2.226894202375715 93 71 30
-0.2905533812342488 0.4331489134842032 -2.23093366030956 93 71 30
-0.2929761488216614 0.43423721211661037 -2.23497138757802 90 68 27
-0.29333120242405303 0.43462877683001244 -2.2408312933494092 89 67 26
-0.2979167877589443 0.4364455243083625 -2.2429555156247813 88 69 27
-0.300765197034724 0.43767680696051986 -2.2466081662295445 92 73 31
-0.3055393255544705 0.43955606260332114 -2.2485430102561788 94 75 33
-0.30871186883334906 0.44089580718087557 -2.251892814640366 97 78 37
-0.3161314154578802 0.4436638519793839 -2.2514371948096534 95 77 38
-0.3165455415145351 0.4440750471661848 -2.257238811704304 103 89 63
-0.3215538092950735 0.44603091219379787 -2.2589154306727512 149 142 131
-0.32005333907396794 0.44579886778699596 -2.2664474212504775 175 175 173
-0.33906777387782583 0.45273043117687894 -2.2615968855083395 198 199 201
-0.3366464606167845 0.45273391510550515 -2.282330494558468 207 207 209
0.12319353521697496 0.24976326402437163 -1.4744729027087833 106 94 78
0.11759808817284967 0.25198111892464425 -1.4772382731804115 104 91 76
0.1116148466872357 0.25433478201059734 -1.4797948442256756 105 90 76
0.09247844488897611 0.2615610891633409 -1.4812270871945294 107 91 74
0.07945928569630512 0.26638541345583244 -1.4801437762669716 104 86 66
0.06653800751051925 0.2711734662430707 -1.4790685845188456 95 78 55
0.059209519056673154 0.2739946029915764 -1.4808193915555203 82 65 41
0.05549982124719527 0.2755436517833978 -1.4844120961750389 102 85 58
0.045301460486406986 0.2793711245152928 -1.4846464889727335 107 88 59
0.039914174834345784 0.28150802157210986 -1.4873436705310659 103 85 57
0.04773460933825857 0.2790082206558432 -1.4969002170578916 103 84 56
0.025784066566623354 0.28695760783519486 -1.4909461016964756 110 90 62
0.028894094023104666 0.2861112157404966 -1.4980512844926164 113 93 64
0.031875119782275085 0.2853109342293746 -1.5051078882505164 111 92 63
0.028291544960453885 0.2873057556281472 -1.5197287233271657 111 93 67
0.016934405144422293 0.29153208662258323 -1.519183636104424 106 89 63
0.01180147725678149 0.2935762711958527 -1.5219364609524395 106 89 63
0.009662041633649532 0.29457145355745673 -1.526286271137952 104 87 61
0.007745063993400525 0.2954887040975668 -1.530755287157824 103 84 58
0.006154171253576202 0.29629180379282377 -1.5354009110916076 91 71 42
0.005574589008351727 0.2967410197944771 -1.5405974051048548 110 90 58
0.004740760853560455 0.29727942934449525 -1.5456604721525298 127 107 70
0.0035515395594116206 0.2979423489658555 -1.5505332825166729 123 100 65
-0.006387416692187453 0.30166537940900995 -1.550603172388597 104 80 49
-0.012272994653143854 0.30396980873865065 -1.55287607015762 102 82 52
-0.01547056012953052 0.3053339562092352 -1.5566203834745116 99 78 51
-0.01665948760679048 0.305995939656985 -1.5614747112470826 103 82 55
-0.01954540279081196 0.30725093399561976 -1.5653865768043067 97 76 49
-0.027002487608091708 0.3101024057882209 -1.5667392924464107 100 78 49
-0.03107344144535762 0.31177047462591434 -1.5699698377012734 106 83 52
-0.03520567081887116 0.31345955702846473 -1.5731574236754648 103 82 52
-0.03902816629207262 0.31504014530918045 -1.576511258851448 93 73 47
-0.04232547485548471 0.31643714143942286 -1.5801552916919432 73 55 32
-0.046073654054391344 0.31799117797464793 -1.5835373808371975 78 62 40
-0.05065442226666017 0.31983526244579696 -1.5864369480532077 84 68 48
-0.05363660478651727 0.3211214959605222 -1.590241629707886 82 68 50
-0.06088502500309856 0.32389467020192164 -1.5915898816234528 102 87 66
-0.05979681428045558 0.3237616423702462 -1.5977252627548206 111 94 68
-0.06497895723664537 0.32581376160558717 -1.6002435260539574 103 84 58
-0.07404668514999607 0.32921870600498304 -1.6004922283851064 121 99 68
-0.08181655875139537 0.33217042827507715 -1.6014687030334651 131 108 74
-0.09065726885023534 0.33549390149617475 -1.6017956123111263 132 109 76
-0.09848502435917383 0.33846357821222156 -1.6026891076531213 138 113 81
-0.10472810146671802 0.34088079147286965 -1.6044917965742136 129 106 75
-0.11328939346341121 0.34410365916052005 -1.604907600965854 110 91 63
-0.12134762539403726 0.34715037583139857 -1.605594802924621 107 89 58
-0.12719525966259831 0.3494273818215108 -1.6075719195438123 119 99 62
-0.13567949198663748 0.35262015356685816 -1.6079596622707764 141 118 79
-0.13730792121454888 0.35342927837776106 -1.6124257886131457 143 118 79
-0.14408028688017693 0.35602554910641915 -1.613802495009323 136 110 73
-0.15166002151087266 0.3589013570489111 -1.6146727099759455 150 121 79
-0.15748396975160606 0.36116645468756436 -1.6165817475689002 162 135 88
-0.16339769558211192 0.3634620008207986 -1.618420250124634 143 120 80
-0.17222352358888743 0.3667674787090308 -1.618469198972365 80 62 28
-0.17133414351458326 0.3667008361065023 -1.6244248965394936 98 77 45
-0.1689329176975215 0.3661102682545433 -1.6313183936411206 113 91 63
-0.16412055513052648 0.36468432836271225 -1.6397119865467662 102 83 56
-0.16339845903943645 0.3646776735461159 -1.6456090179380385 94 74 47
-0.1604626655360542 0.36390421650717053 -1.652886980863443 94 74 46
-0.14152409313099307 0.3575864943332524 -1.6701238347124838 101 81 54
-0.12325912132806272 0.351505927970427 -1.6870261095860595 99 81 53
-0.09500344854202286 0.34247281973017146 -1.721527923203578 95 77 52
-0.07909142210205067 0.337218867062985 -1.7372213938021313 95 78 50
-0.07772000666532636 0.3369986724791239 -1.743778005999385 84 67 42
-0.07599994835208762 0.3366585024976563 -1.7505697996171694 100 83 56
-0.0784558093546795 0.3377629377056838 -1.7547143077914509 109 92 63
-0.07401418438636342 0.33648293293641307 -1.7632684575582644 111 92 62
-0.07622688548670087 0.33750377988518754 -1.7675789656549206 113 91 55
-0.07740664121875751 0.3381676956704055 -1.772553313091065 128 103 61
-0.07841745795835375 0.33877339988149374 -1.777639918296996 130 105 66
-0.07673102505747781 0.3384478853229546 -1.7844780245922474 116 96 63
-0.07882860325493024 0.3394293560972806 -1.788871560417327 109 92 65
-0.08207922664592654 0.3408087422326145 -1.7925125310529113 111 93 67
-0.08254042723577254 0.34122544477539185 -1.7979728595063549 108 91 64
-0.08762245057451934 0.3432363209442819 -1.8004067691078598 111 94 69
-0.08409139639219992 0.34227643859686024 -1.8084982581433227 93 77 54
-0.08822546661657238 0.34396013706874384 -1.811549990188927 86 70 46
-0.09154725579979306 0.3453634657274371 -1.815130715431227 102 85 57
-0.09752524097522075 0.3476817592272415 -1.8169400620798155 107 87 56
-0.10053866657814481 0.3489780956655899 -1.8207091614584858 111 90 59
-0.10183848817842583 0.34968410891469537 -1.825619971641185 103 84 53
-0.10234614805163916 0.35011751773684646 -1.8310650370698527 105 86 55
-0.10156047932438195 0.3501060534948772 -1.8373867547783047 107 88 56
-0.10145352706369748 0.35032864480641623 -1.8432617056577105 110 89 59
-0.10388434021315734 0.3514246025137095 -1.8474262866914197 118 97 66
-0.10339825327445501 0.3515173461387855 -1.853570870409285 119 98 67
-0.10476771139734475 0.3522484964485109 -1.858460961682907 116 95 64
-0.10624669572898399 0.3530174011361319 -1.8632786043995377 111 92 60
-0.10622840671151579 0.3532719107537372 -1.8691252307060562 110 90 60
-0.10887753147535595 0.35444310024843384 -1.8731449212463758 115 95 66
-0.10901208843311411 0.35475059603287296 -1.8788971372106524 120 100 71
-0.10981128222505393 0.3552866261790688 -1.8841969594469021 119 100 70
-0.11479693802036112 0.35725979772026306 -1.8865942568234972 112 93 63
-0.11551179818111934 0.3577669281865451 -1.8919536810978086 108 89 59
-0.1170823528173131 0.3585678310821876 -1.8967204466974052 107 87 55
-0.11856456993051201 0.3593385115278292 -1.9015507467912336 107 87 56
-0.11867652067860518 0.35963949228478287 -1.9073464938694902 107 87 55
-0.12036209819431032 0.36048018562551953 -1.9120403366331495 107 87 55
-0.11620283738107295 0.35931818668972904 -1.9208701775765702 106 85 54
-0.11652593803933031 0.3596928254046813 -1.9265457897590217 102 81 50
-0.12394883050852101 0.36249915695852947 -1.9271749801114648 103 82 51
-0.12712501351899064 0.36385052018124864 -1.9308123331344123 99 78 47
-0.12862442252692757 0.36462774689128424 -1.9356451333986613 98 77 46
-0.1319638459455968 0.36603465006444713 -1.9391581758023744 97 76 45
-0.13464440327407462 0.3672159046716846 -1.9431398517406695 95 75 44
-0.13674630283242362 0.3681991322859374 -1.9475365073750208 96 77 47
-0.13436832578356955 0.36765078580820965 -1.955179860863768 100 80 51
-0.13642395235992028 0.368618576996529 -1.9596186268827862 100 79 50
-0.14097167627738033 0.3704378359184268 -1.9622395054709478 98 77 46
-0.13923158729612217 0.37010881056217504 -1.9694483205165434 102 81 50
-0.1387320222476725 0.37020412418628046 -1.975763244632164 100 79 48
-0.14066547322133294 0.37113050405097103 -1.9802985613783193 98 77 46
-0.14041562367319238 0.3713117682986249 -1.9864454446158835 94 73 42
-0.1446821755263093 0.3730343839301148 -1.9892585409443657 88 67 36
-0.14829699463128376 0.37453424612714253 -1.992545310815064 87 66 35
-0.14663232831952056 0.3742335590306573 -1.9997565735118792 93 72 41
-0.14837168849694415 0.3750939702578784 -2.0044412077531404 93 72 41
-0.14438472038600647 0.3740029776458583 -2.0134169357352163 92 71 40
-0.14896567600290522 0.3758321345528711 -2.015980997365891 92 71 40
