ply
format ascii 1.0
element vertex 685
property float x
property float y
property float z
property uchar diffuse_red
property uchar diffuse_green
property uchar diffuse_blue
end_header
0.09932453304160274 -0.3735724908862558 -1.9648665688433042 92 71 40
0.09879144444798107 -0.37612583569722 -1.968673823205675 88 67 36
0.09937576440066408 -0.3738386906717374 -1.9761811492385335 86 65 34
0.09896499638461742 -0.3758624465125262 -1.9804000692004755 83 62 31
0.09947910226088669 -0.3738805940431206 -1.9877007634703474 84 63 32
0.0993376473069156 -0.37473842761140486 -1.9928277160438144 84 63 32
0.09940060284663073 -0.3747113437806158 -1.9986444594677306 84 63 32
0.09887441235127409 -0.3772354755438481 -2.002489824338314 84 61 30
0.09695639229082324 -0.3857851550254777 -2.0016418692641103 85 63 31
0.0961291794066743 -0.38961158236945737 -2.0044516450552794 85 65 30
0.09588006160995755 -0.3909353769614278 -2.0092124482577254 83 62 31
0.09550372779231 -0.3928098890136462 -2.013543594074051 96 73 43
0.09546135116687875 -0.3932391660735486 -2.019013232725423 98 75 43
0.09588983383858234 -0.3916312194783827 -2.0260987998183597 91 69 37
0.09526594833204828 -0.39457735532275173 -2.0295932721355054 96 76 43
0.09582413360109762 -0.3924091967530645 -2.037145888193731 95 75 41
0.09574759231235921 -0.3929876443223004 -2.0425291789257294 86 66 31
0.09519519617065017 -0.39562469312641263 -2.0462740034534717 86 66 31
0.09487976392375602 -0.3972367079202334 -2.050836986951253 85 65 31
0.09455186250618747 -0.39890271380451126 -2.055358133961491 96 75 44
0.09450260197093116 -0.39936385019946924 -2.0608515323903545 90 70 38
0.09419447142936853 -0.4009445972114536 -2.065446968211025 83 63 30
0.09349837061574265 -0.4042027859778439 -2.0686846017013196 92 71 38
0.09314207094411972 -0.4059917499589068 -2.0731103439934326 105 82 52
0.09278567806268198 -0.40778114834978646 -2.0775364771034757 103 81 48
0.09232303408037762 -0.41002981449500275 -2.081587944128793 114 92 55
0.09089937415388655 -0.4164316970374807 -2.0822334931714916 90 69 36
0.08969467065056322 -0.4218865211949126 -2.0836368711527764 88 67 36
0.08950051611319648 -0.4229741692599022 -2.0886241556221377 88 66 36
0.08961606055861385 -0.4227239385234064 -2.094721488342133 84 61 29
0.08918012830008072 -0.424856548911559 -2.0988535622677786 87 64 32
0.08863187164015617 -0.4274743215974598 -2.1025813998459695 93 70 37
0.08790677484222369 -0.4308557684753777 -2.10566938040786 89 67 32
0.08796459567493632 -0.4308556909668931 -2.111577877819148 88 66 29
0.08844120791285077 -0.42904751648669553 -2.1190115009770802 92 70 32
0.08736398267248477 -0.43394941825720407 -2.120820999066808 93 71 34
0.086162073663619 -0.43938905125474625 -2.1221631773435417 93 71 33
0.08563670105442998 -0.4419073468116484 -2.1259588918505314 90 68 29
0.08521712822696668 -0.4439688304011795 -2.1301392104786565 90 68 31
0.08519233617463265 -0.44432634332369136 -2.1357677723618105 93 71 34
0.08539306940022492 -0.44371086261747306 -2.142233458202822 95 71 34
0.08579008282875318 -0.4422488837687257 -2.149435069475771 91 71 35
0.08639253615664633 -0.439901140113091 -2.1574123462700747 99 76 36
0.08699968001810184 -0.43753402417377796 -2.1654267672787086 112 88 44
0.08453564691139044 -0.4484168892481182 -2.1620382973779106 115 90 48
0.08435976862500207 -0.44942780928810216 -2.167141870859946 114 89 48
0.08345210229299431 -0.4535952274903384 -2.1695134409658925 108 83 42
0.08202097518462113 -0.4600197308371647 -2.1699121955404763 102 78 35
0.08136979222944281 -0.4630799951830417 -2.173222186902276 102 78 34
0.07977634779606849 -0.47020290832074274 -2.1729754458919706 111 87 43
0.07868307021994488 -0.47516835093968707 -2.17459488732876 116 92 48
0.07740620763264786 -0.48092460444070495 -2.175504616074738 113 88 44
0.07716568465314924 -0.4822129191685213 -2.1803338793147486 112 88 42
0.07721622149477729 -0.48224687546052775 -2.186274888789656 116 92 46
0.0769495346628143 -0.48364833918743677 -2.1910131797950503 117 92 45
0.07753156631689409 -0.4813926188753085 -2.1990040915270637 119 93 46
0.0782411460560309 -0.4785881853020328 -2.207504363055187 118 92 45
0.0768160040268711 -0.48498177061675657 -2.207808973973969 116 90 42
0.07455378151244445 -0.4949804720621712 -2.2048617510928925 119 94 45
0.07317946382246623 -0.5011529309378158 -2.2053127140231723 117 92 43
0.0720375040439913 -0.5063237544741204 -2.2066452645805943 115 92 42
0.07333655703142354 -0.5009816035900883 -2.217458553961833 117 94 43
0.07113769918816874 -0.5107032708076108 -2.214663031445634 127 104 52
0.0694408072569054 -0.5182620381961022 -2.213793623280403 132 109 57
0.06772075539305865 -0.5259193447090458 -2.212806721891414 135 112 60
0.06782915112527162 -0.5257044531797659 -2.2189801993866167 132 109 58
0.0659772273859312 -0.5339278085206337 -2.2174377790520845 130 107 57
0.06551674203418391 -0.5361613059858721 -2.2213635635882008 127 105 55
0.06507404723910858 -0.5383181770321409 -2.22535831083115 118 99 49
0.06501235387924657 -0.538835566611835 -2.2308652360535373 108 90 42
0.06476801979324703 -0.540139060746619 -2.2356515157097903 107 91 42
0.06543100499269415 -0.5375393502514432 -2.244063271018447 106 89 43
0.06544814492904194 -0.5377187551698167 -2.2499114324616185 103 87 44
0.06485238088512169 -0.5405347155896207 -2.253308230824938 94 78 42
0.06450536379060925 -0.5422807032838406 -2.257701575653088 88 73 40
0.06413766978687196 -0.5441156434322352 -2.262012351549871 89 76 49
0.06429021170983021 -0.5442228032265479 -2.2800513867678815 170 169 167
0.06264375539741367 -0.5515550437045427 -2.2791652933495983 188 188 190
0.05718668630668992 -0.5757694403139066 -2.2742232229114827 207 207 209
0.19105579244521514 0.10333397290787638 -0.9469523617693413 179 179 181
0.18861289384130847 0.09226823238658188 -0.9484215599029069 180 180 182
0.18844853456977984 0.09133838010544526 -0.9530159300456247 178 179 181
0.18609951581326184 0.08069190295946027 -0.9545739461188185 181 180 182
0.18569999852459307 0.07871660182809637 -0.9588304623301347 182 181 181
0.1851465228237183 0.07605664996740163 -0.9628704741055164 179 176 173
0.18481389903955536 0.07437886069274563 -0.9672201510341645 167 161 154
0.18412020808677462 0.0710955766227156 -0.9710580635430954 155 149 138
0.18372150418321123 0.069124023351266 -0.975312552276816 139 133 121
0.18336370920242728 0.06733434946665329 -0.9796255873649831 124 112 96
0.1830475084667445 0.0657295655842795 -0.9839990300401159 114 100 77
0.18360857269795539 0.06802440738460991 -0.9896439266676527 115 97 70
0.18335145214096019 0.06668188681942427 -0.9941117378875145 108 88 59
0.18331762599689877 0.06633175702295646 -0.9989080160214427 107 88 58
0.18337002951604442 0.06636465317795298 -1.003836131370751 105 85 55
0.18272988071273108 0.06331952949565844 -1.0077479003421466 105 84 53
0.18261213837596937 0.06259601396403497 -1.0124313057799885 96 74 43
0.18249438002880825 0.061872265052235864 -1.017118622424147 90 68 36
0.1842549628969743 0.06949418356908682 -1.0246241202647077 97 75 43
0.18418752721348178 0.06899313047178679 -1.0294086001835543 97 75 42
0.18577009183589932 0.07582217180659617 -1.0366936593607758 101 79 43
0.18563363214178114 0.07501361514569582 -1.0413945315215558 102 79 44
0.185475900242409 0.07411041352128189 -1.0460666486972399 95 73 36
0.18465331755635492 0.07025399950120897 -1.0497221029030674 96 74 36
0.18367619586635853 0.06571147006752781 -1.053133138619633 93 70 33
0.18381100318952434 0.06610748525534965 -1.0582578898736272 94 70 35
0.18256258078951348 0.06036052512593826 -1.0612379413118553 98 75 38
0.18273439260250227 0.06092063959327182 -1.0664258663285593 101 76 40
0.18335505623150683 0.06347341086730929 -1.0723269825297823 100 77 40
0.1838867506852429 0.0656305576864637 -1.0781024975469162 100 77 41
0.18372131455390162 0.06469216025410923 -1.0827864639779083 103 80 44
0.18365389912550667 0.06418876840400711 -1.087629883463706 98 75 39
0.18429761046953597 0.06684187554326726 -1.093615727897935 99 76 40
0.18395045335294935 0.06509618229400277 -1.098024389289597 97 73 38
0.18373510520412029 0.06393548058528925 -1.1026465660549796 96 74 38
0.18182326802395565 0.05524547871661867 -1.1045201748050808 97 76 40
0.18235576976239765 0.05740387837776906 -1.1103535123110988 99 78 41
0.18188624872309717 0.05511524347213376 -1.114560778350953 106 84 49
0.18274529011090496 0.05872174046445544 -1.1209508070818655 96 74 41
0.1833704755245431 0.06128988203907437 -1.1269732021994008 82 61 26
0.18333342908694183 0.06091935408558341 -1.1319123627294698 97 76 39
0.18358425517494698 0.061825689933870276 -1.137336409494784 93 72 36
0.1825768330893407 0.05715007164151881 -1.1406646558466906 96 74 38
0.1831424703094553 0.05945239851270867 -1.1466276822394075 94 70 35
0.18258532289246976 0.05677417645157984 -1.1507096370342622 90 67 32
0.18412179585099192 0.0633813829216821 -1.1583389620956002 91 69 34
0.18420359170609082 0.06353627009347906 -1.1635198228886514 92 70 34
0.18302407292312242 0.05809762910297811 -1.1665505452185265 85 63 28
0.18323631439190727 0.058830726786944565 -1.1719604243986876 81 58 26
0.1829238113919602 0.057236819284267826 -1.1764741039339666 79 56 24
0.1813114233407883 0.04987978465691034 -1.1787367610114683 79 57 24
0.18188419165685177 0.052210770288682096 -1.184783868693396 77 55 22
0.18190669901453077 0.05210189978578644 -1.1898838440121149 91 73 39
0.18175760729139423 0.05123213847691366 -1.1946889597608248 85 67 32
0.18135950660845643 0.04925854185340289 -1.1990589224109744 79 62 26
0.18096135450595824 0.04728471612336116 -1.2034288235341375 81 62 30
0.1805417094988936 0.04521563969855391 -1.2077605463573586 113 94 66
0.180165043500004 0.0433370309648603 -1.2121687000092285 112 95 68
0.17922412925009834 0.03895819460450234 -1.215565670239375 123 106 78
0.1765836765606173 0.027049480409233384 -1.2158948822225184 124 108 84
0.17533907321213593 0.021326373076887117 -1.2187136840180226 136 122 103
0.17470824742873467 0.018322900049375757 -1.2226339229007601 150 139 124
0.17380835787814358 0.014127672113642742 -1.226060152386086 172 165 156
0.17351221702795133 0.012607058775790436 -1.2305839392419866 192 188 185
0.18433692193721882 0.05560498821348736 -1.3704613764897697 102 99 93
0.18134673857155661 0.042164409928877045 -1.3697316267543351 97 90 79
0.17858951587226574 0.02975554281343651 -1.369432838379121 101 92 77
0.17595876316635042 0.017907343895725347 -1.369354149668214 98 85 69
0.17374464271471657 0.007902476726021068 -1.370089968252538 102 88 70
0.17169881170347007 -0.0013572825482534023 -1.3711418234900348 109 95 77
0.16972910820797932 -0.010279475715309627 -1.372324304298667 97 83 63
0.16750018733218247 -0.020346381313295914 -1.3729476543042576 101 88 66
0.16733834196741848 -0.021276409360527326 -1.37782097636157 82 68 45
0.16605153274487416 -0.02717814297197252 -1.380360612991393 111 93 69
0.16325796018991703 -0.03973764707475791 -1.3797436539310362 106 85 57
0.16149509302855816 -0.04774127031151565 -1.3812467868337672 127 105 76
0.16031921355609702 -0.0531505047122483 -1.3839619126573963 125 102 70
0.1587866654768698 -0.06013499220389734 -1.3859123835070952 119 96 64
0.1573450009007759 -0.06671724542788143 -1.388037308972389 125 102 70
0.15669733355216514 -0.06979145851913654 -1.3918331063261546 126 102 72
0.15459177235872695 -0.07930504544034006 -1.3925149618679105 127 104 72
0.15253742296676226 -0.08859132551300197 -1.393279294279084 124 101 70
0.15140265335487813 -0.09381532279870974 -1.395993480920546 116 93 61
0.15033391205771643 -0.0987472505718931 -1.398838294817509 105 86 57
0.14892775705257588 -0.10516865243268947 -1.4009418258133055 114 93 64
0.14796398138142486 -0.10963611812214252 -1.4039904822102482 130 107 73
0.14707917699239803 -0.1137545458197326 -1.4072022458571396 127 102 66
0.1465429522377495 -0.11633376993346822 -1.4111691804792543 125 102 64
0.14557939262131114 -0.12079931781045594 -1.4141949282180342 121 99 62
0.14225814094517117 -0.1356714582195056 -1.4120125903776535 98 74 46
0.1416889279970197 -0.1383949324085671 -1.4158737610295165 97 74 46
0.1413283433562867 -0.1401975303016667 -1.420195447716701 126 102 63
0.14049937458808404 -0.14406715246918372 -1.423473472651167 134 107 65
0.14009032873742522 -0.1460834795125618 -1.4276839067420881 134 104 70
0.13902065048193088 -0.15101476083884446 -1.4304106618527512 131 104 72
0.13875771867363207 -0.1523861785727565 -1.4349443907011823 112 89 56
0.13815551651358549 -0.15525444705620112 -1.438712886113227 130 102 63
0.13795728813943117 -0.15634048837128345 -1.4433948162875734 147 118 76
0.13742446961623894 -0.15890255234897804 -1.4473177235624797 139 112 70
0.13701255171006085 -0.16093126169547894 -1.4515146670427947 149 122 78
0.13659349533636594 -0.16299143921790082 -1.4556948659974853 143 113 70
0.13598619177275179 -0.16588177554632694 -1.4594411975131354 145 117 73
0.1353015074046794 -0.16911319210200376 -1.46300519434751 139 112 69
0.13417496534883255 -0.1742927250594219 -1.465539906603986 138 112 71
0.13312862849974283 -0.17911813298424678 -1.4682491682359924 130 103 64
0.13229160492333114 -0.18302029763951982 -1.4714363796225423 91 63 24
0.13040322814507593 -0.1915569027661973 -1.4721528208536145 130 100 58
0.1286025784912333 -0.20012852091916966 -1.4833042392311446 152 122 76
0.12848671583373122 -0.2008508873502911 -1.488165161449232 145 115 70
0.13276361734814957 -0.1824297030844081 -1.5086872307047152 144 115 76
0.13203566499775982 -0.18585101654162423 -1.512129376706936 140 112 75
0.13001230575807174 -0.19497919745086817 -1.5124452428101016 123 94 55
0.13103701604618206 -0.19067860174453533 -1.5201021932129073 142 110 69
0.12988971494412693 -0.1959465911509234 -1.5225141200430619 133 104 57
0.12808746193788895 -0.2040988720937128 -1.5233193394400184 140 113 66
0.12803863402848104 -0.2045276226207018 -1.5283833518796113 95 69 27
0.12573866075618317 -0.21487048899254446 -1.5279363882543364 129 102 57
0.12587209095832513 -0.21449634286622332 -1.5334410977763597 137 108 63
0.12364922404880865 -0.2244978970120331 -1.5331408541122027 120 94 57
0.12267436004164031 -0.22900335943379857 -1.5358995229146613 112 89 54
0.12365893680105655 -0.22488187942006221 -1.5435156191878505 122 93 58
0.12463566825171855 -0.22079588344445705 -1.5511351405955742 145 113 69
0.12435125705141434 -0.22226220249510975 -1.5556236934823837 149 121 66
0.12530323571949437 -0.21828660843091702 -1.5632163293898615 147 116 65
0.12151376472745123 -0.23517984567562678 -1.5588943704933071 135 103 60
0.12106182701084627 -0.2373828452122334 -1.5629458432361207 136 105 64
0.11897640179469979 -0.24677391137547144 -1.5628561746992453 144 115 69
0.11618949440599452 -0.2592504008648014 -1.5609539872110583 147 119 66
0.1189585032720486 -0.24792412657389545 -1.5887988607836478 167 136 87
0.11866226336465724 -0.24944220109676724 -1.5932502450523707 157 126 82
0.11600669812164932 -0.2613367053486681 -1.5915834821240806 152 123 85
0.11392717311895376 -0.27069637954776465 -1.5913771054984682 143 115 75
0.1112725021352799 -0.28258396232228394 -1.5896401760873444 131 104 63
0.10968306141388942 -0.28978616284518494 -1.5906547402943474 138 115 71
0.10766155641219274 -0.298887132312629 -1.59051320240113 126 100 59
0.10557006578386521 -0.30829461892608445 -1.5901590577041724 130 106 65
0.10595902362147774 -0.30679707251462635 -1.5963366533344567 150 125 84
0.10382751587304719 -0.31637891301247356 -1.5958388767673204 138 110 69
0.10379679490837307 -0.31672613479837075 -1.600903916934553 157 129 88
0.1022146601810496 -0.3238918263752273 -1.601831267258253 167 142 98
0.10271218569613658 -0.32191761836803734 -1.608310394539782 130 105 64
0.10192040931301263 -0.3256093984673015 -1.6113387934144872 129 106 68
0.10109127415928904 -0.32946503064771754 -1.6142593113094503 117 93 57
0.09977983016428862 -0.3354393271511575 -1.6158671734841763 91 68 34
0.09909461993402913 -0.3386618726466785 -1.6191585434375122 100 79 44
0.09837979871371053 -0.3420142707540373 -1.6223639587438183 88 67 32
0.09996358178740607 -0.33527015823511946 -1.6318420996997838 79 57 25
0.10088037591921245 -0.3314568603165136 -1.6395266889859565 87 66 33
0.10532163519309883 -0.31238206754824277 -1.6621545028073703 104 82 50
0.10796064216121877 -0.3010104211653504 -1.6746938748898357 105 84 50
0.11043243368023438 -0.29037512066596344 -1.686822040647053 122 102 62
0.11196547825272758 -0.2838631587886126 -1.6963869071211304 115 95 58
0.1135458621044765 -0.27714477276662114 -1.7061176180194855 113 93 58
0.11342382701252814 -0.2779005218763356 -1.7111137880603062 107 88 50
0.11354470132785882 -0.27759030978035504 -1.7167972620928875 118 98 55
0.11330896217171249 -0.2788455521934087 -1.7214844415106312 114 93 52
0.1136465013798015 -0.2775851439453698 -1.7277954187362552 112 92 54
0.1134481314468091 -0.27867684193401937 -1.7325990834599396 107 87 52
0.11427397551158236 -0.2752747862213591 -1.7403204319702832 107 87 49
0.11403221127782842 -0.2765575205113981 -1.745016079430732 94 74 38
0.11354396089690093 -0.2789216791887922 -1.7490086596390186 95 72 38
0.1137447353877019 -0.2782633209086955 -1.7549783696814603 105 82 43
0.11344335866216465 -0.27980792646295244 -1.7595119747629875 132 109 66
0.11262541573227325 -0.28361816627782566 -1.7625544510931754 108 84 40
0.11201486578287603 -0.28651858036336064 -1.7661904931495174 109 84 42
0.11042029145114218 -0.29373386804861945 -1.7669615482641947 107 84 42
0.11245114680949576 -0.2850517715924167 -1.7782845230622528 105 82 41
0.11112709195953077 -0.29108056937722193 -1.7798363526208714 105 82 41
0.11001792610959858 -0.29616660970263714 -1.7820020628679842 102 80 40
0.11023073946524743 -0.2954570721477019 -1.7880458806163106 92 73 36
0.10987826270575617 -0.29722578623278884 -1.792431646357591 120 99 58
0.10981705289930352 -0.2977179424529863 -1.7976806199704365 130 107 69
0.1100802721217024 -0.2967885318541471 -1.8038991585683808 90 67 34
0.10960523037103677 -0.2990947651542304 -1.8079300376153282 90 67 32
0.1088911017862501 -0.30244855816788685 -1.8112449689742247 91 69 33
0.10857346249722917 -0.30406493744567253 -1.8157424700617215 94 71 37
0.10671953197902125 -0.3124118892663475 -1.8156227415506547 92 69 34
0.10627019036795908 -0.3146047467653352 -1.81971189003012 87 64 30
0.10451243277017064 -0.32252877561579574 -1.8198427748857737 87 64 30
0.10467174930093039 -0.32205519689993506 -1.8257642902225997 86 64 30
0.1045649593538562 -0.3227474485839563 -1.8308861345208352 88 67 32
0.10384349004867485 -0.32613168360938477 -1.8341373320914802 90 69 34
0.10301501698041465 -0.3299842149126798 -1.8370549828879992 91 70 35
0.10302524127942958 -0.33016426868831034 -1.8425393640462873 92 70 36
0.10247590476198981 -0.3327943911053377 -1.8463081429603034 91 70 36
0.10210498055393821 -0.3346433684976058 -1.8506249818764196 88 66 33
0.10175020898845957 -0.33642165599211427 -1.854992202128889 84 63 30
0.10092836585691058 -0.3402442888936033 -1.8579091062762423 83 61 29
0.10021374750478906 -0.34359732499268136 -1.8611521629755599 82 60 27
0.10050579363426727 -0.34254482246443213 -1.8675349613419927 82 60 28
0.10100861247926911 -0.34057054899020645 -1.874590890510849 82 61 28
0.0989806161110675 -0.3496702027905475 -1.8737081447284718 83 61 29
0.09764010952720097 -0.3557608511449784 -1.8749625144500635 86 64 32
0.1007563838605588 -0.34235411083871814 -1.8902906680832658 90 68 36
0.09548286022148822 -0.36564891146734063 -1.8790793656022369 92 70 38
0.09428780474523908 -0.37110140143385806 -1.880748336037935 85 64 32
0.09472850895376322 -0.36939934323750107 -1.887619712892698 84 63 31
0.0951317200746797 -0.36786187968128403 -1.8943865429957156 84 64 31
0.09697039894640677 -0.3602754284313689 -1.911285665504474 85 64 32
0.0959850463092946 -0.3648108837897782 -1.9136257435039217 85 65 33
0.09721418259237062 -0.35966515266096344 -1.923121124425101 88 68 36
0.09601687114501585 -0.36512704928684514 -1.9247717482539122 88 68 36
0.09507184436922803 -0.3694856453167133 -1.9272284241245203 90 69 37
0.09347949568818467 -0.3766728568745464 -1.9275616857309075 97 75 43
0.09415347778126765 -0.3739552827414538 -1.935291500240694 98 76 44
0.09482039340797756 -0.37126941054487783 -1.9430181074738475 98 76 44
0.09547025969220865 -0.36865885107504504 -1.9507084795685636 99 77 46
0.09476692956314746 -0.3719609868559659 -1.9539503891814372 96 75 44
0.09331838103551325 -0.3785183231237429 -1.9547187617454784 92 71 40
0.09435005492524298 -0.37424109434067104 -1.9637033722509307 92 71 40
0.09410302230327468 -0.37554993323947417 -1.9684565213096088 88 67 36
0.09569844994914221 -0.3688123610372175 -1.97936567252347 86 65 34
0.0943697589684388 -0.3748456190201659 -1.9805191048100275 84 63 32
0.09465642168074508 -0.37382472064507005 -1.9870802270211978 82 61 30
0.09458360229698286 -0.37437388826119816 -1.9924434579982604 82 61 30
0.09432277773066808 -0.3757440820033591 -1.9971777523901846 88 67 36
0.09405642116066802 -0.3771385285430629 -2.001895828139479 87 65 35
0.09194833222424119 -0.3865720822814528 -2.000360282008843 85 64 33
0.09104207102434007 -0.3907588799316884 -2.002885820086813 86 66 33
0.09061442694913364 -0.3928565254688133 -2.007036445913638 85 64 34
0.09079702363834581 -0.39229121560511204 -2.013276795050995 90 68 38
0.09066057149114831 -0.39311847755092716 -2.018432187656538 99 77 45
0.09070935247049253 -0.3931377812266653 -2.0242305810010484 88 66 33
0.09013882368267888 -0.39585919991984136 -2.027898116972132 91 70 37
0.09066286591157371 -0.39380579995715603 -2.0353538664163984 98 76 43
0.09043162521470927 -0.3950474821892474 -2.040203680410462 88 66 33
0.09010704456673495 -0.3966963812969315 -2.044731482382361 85 64 30
0.0899697459809611 -0.3975286075520536 -2.049914795713085 87 66 33
0.08959768706291248 -0.3993847221967754 -2.054280761244392 89 68 37
0.08984968510627583 -0.3985198725385909 -2.0608391104321573 87 66 35
0.0869448731747597 -0.4114184363188828 -2.056291161318297 82 62 30
0.08789413206600949 -0.40751375337641416 -2.065306559508171 81 60 28
0.08795869436097083 -0.40746649212790714 -2.0712148112000914 86 63 34
0.08772405048782667 -0.40872370183886786 -2.0760693863500643 89 68 34
0.08731745634383947 -0.41073042260972503 -2.080314713007874 117 95 54
0.0860642579503877 -0.4164264106111938 -2.081536576227945 99 78 41
0.08494669316122377 -0.4215307031120677 -2.0832272596785297 84 62 31
0.08501638792410916 -0.4214616052197477 -2.0891666773699917 86 64 32
0.08382065235223383 -0.42690575727120833 -2.0905590996066943 85 62 30
0.08411821838439154 -0.4258442614481754 -2.097326912892574 81 58 27
0.08441703467726976 -0.4247778800638269 -2.1041128401839138 86 63 31
0.08411997593365061 -0.42630727787828443 -2.1087493980395635 84 61 28
0.08434898864268102 -0.42554576705456215 -2.1153026720650847 88 66 31
0.08327939276876523 -0.43043953994857626 -2.1171286635486495 93 70 35
0.08271761556361239 -0.4331216772826458 -2.12079969697407 94 72 37
0.08217775981640532 -0.43570823770392864 -2.124547823322654 92 69 33
0.08263759452229737 -0.43394276355053263 -2.1319713938386315 89 67 28
0.0825524937894746 -0.43455001176761704 -2.137401412768736 90 67 31
0.08315581515325166 -0.4321611966105979 -2.1453843281309086 92 69 33
0.0807673489396745 -0.44279354976106977 -2.142289435925083 95 72 38
0.08069498329530214 -0.44334547572664806 -2.147769149581557 88 67 33
0.082157963853529 -0.4372170589891443 -2.158981154404493 92 69 30
0.08202812957760958 -0.438020182145364 -2.164274181123865 106 82 39
0.08030661987709763 -0.44574791573090866 -2.163604656523616 108 83 42
0.0791707996207995 -0.45092682177294624 -2.1651103557003397 111 86 45
0.07798417125486616 -0.4563261048085251 -2.16640960516245 104 79 38
0.07643390238378855 -0.46330625073802123 -2.1663184621202074 103 78 36
0.07478726210222512 -0.47070452629312565 -2.165838754816511 105 80 38
0.07397478643432256 -0.4744745562136224 -2.1685033369784334 110 85 42
0.07289111182013638 -0.47942337686497655 -2.1701261581987454 116 92 48
0.07152965586619887 -0.4855792646297346 -2.170673818064451 116 92 46
0.07184801127820775 -0.4844321146698991 -2.177635701213403 110 86 40
0.07164583301163743 -0.485548125846752 -2.1826129534708394 113 89 44
0.0721420619974433 -0.48362886764701624 -2.1902832170369884 117 93 48
0.07118687743434564 -0.4880178969714623 -2.1923681333669744 119 93 48
0.07220288735062846 -0.4838408763342 -2.2020717219945323 117 91 45
0.07103071551927292 -0.48917258457497476 -2.203311579713274 113 87 40
0.06784750910561506 -0.5032406358622481 -2.1967099810135555 115 89 42
0.06869091018362762 -0.4998143097874459 -2.205761066824825 120 95 47
0.06715978221889325 -0.5067032336132697 -2.2055488180226765 119 95 47
0.06546120550247712 -0.5143184650676678 -2.2046563930642824 112 89 38
0.06424886213815535 -0.5198209532424138 -2.2056490605799874 119 96 45
0.06343464441169172 -0.5235939151502423 -2.2081944072903563 129 106 55
0.062141584649785475 -0.5294456412362984 -2.2088381319056163 130 107 57
0.06259210181131263 -0.5277267458629858 -2.2163733622590702 129 106 57
0.06099830340615159 -0.5348832189012542 -2.2158026545459237 129 105 56
0.06113981218373976 -0.5345061954097052 -2.2221203007651975 126 104 54
0.060128018161070704 -0.5391352838950795 -2.2238422574820964 116 96 46
0.062086818880909056 -0.5308718858055176 -2.2374474996412594 106 88 38
0.06127791907940748 -0.5346207313689962 -2.2399889827783688 106 90 42
0.06001934479112778 -0.5403203519557798 -2.2407115427229933 103 87 41
0.06046830308593214 -0.5386109779349182 -2.248307379311519 101 84 40
0.0591300070738065 -0.5446556781198548 -2.2486888223391257 95 77 40
0.058619924854671907 -0.5471070104284863 -2.2524102809628275 86 71 38
0.05799495777347746 -0.5500565235386743 -2.2556618912717528 90 76 48
0.05977183332653527 -0.5425894171208232 -2.2687026129255714 105 94 74
0.06142700785449305 -0.5356519288464704 -2.2812912113190773 134 127 118
0.05932698458777447 -0.5449986608827473 -2.2785311257425107 165 162 159
0.05810661963293387 -0.5505301121910383 -2.2793497922607506 185 184 185
0.053258032409569764 -0.5722669934508611 -2.2767830372868767 207 207 209
0.18607156346347214 0.10285969111061183 -0.9416012514114924 178 179 181
0.18465702295341774 0.09633590679623089 -0.9444794240264454 177 179 182
0.18273720333152405 0.08754913804433673 -0.9466425053405403 179 179 182
0.1823261808109099 0.08552188995094806 -0.9508865756076335 179 178 174
0.18052316150225714 0.07725956262617095 -0.9531805270105933 169 162 151
0.1799746013173092 0.07461669273224475 -0.9572204823753409 142 129 109
0.17932280676574697 0.0715115551159683 -0.9611121054921932 118 100 75
0.17888786355975078 0.06937771202424231 -0.9653083907537293 118 97 68
0.1783607063652281 0.06683094656045285 -0.9693722358424282 117 98 65
0.17846466012095263 0.06711028471854907 -0.9743406866449266 112 93 62
0.17809257161882341 0.06525782940222774 -0.9786289929070853 106 86 55
0.1777339271766355 0.06346555709702495 -0.9829370676291829 109 89 52
0.17821671939291314 0.06544040493788084 -0.9884724025326097 110 89 50
0.17801215935678436 0.06433766132697172 -0.9930132054971357 102 79 45
0.17780743253195042 0.06323406737659604 -0.9975564478404136 98 75 43
0.1775807645696777 0.062032156784168346 -1.0020699136018778 101 78 46
0.17745258090821955 0.0612709620563458 -1.0067321814458854 95 72 40
0.1770121235216942 0.05911199614085455 -1.010931705704702 91 67 38
0.17743324630371138 0.060808938209841346 -1.0164239800880726 89 66 37
0.1789083104444006 0.0672218967899213 -1.023517901012481 88 65 34
0.1787906737085681 0.06650679291732453 -1.028224749289162 87 64 32
0.17907398348691814 0.06758557732717929 -1.0335462435065765 97 74 42
0.17895750875299965 0.06687525082834578 -1.0382657869555627 99 76 43
0.17918971325461736 0.06772474447383325 -1.0435254780125476 88 65 32
0.17934820678424057 0.06824412687454212 -1.0486804165871024 95 73 37
0.1788439169888114 0.06579830705547302 -1.0528146841994985 100 77 43
0.17839811043640227 0.06361415130429054 -1.0570385483206741 95 72 39
0.17794244572261578 0.061385930740397776 -1.061246214813142 89 67 30
0.17724032587529004 0.058055462765726984 -1.0650650458183795 90 66 30
0.17503689213567236 0.04801089748672466 -1.066505191983389 86 62 26
0.1749292474301063 0.0473396849081969 -1.071248440751782 93 69 33
0.17526561107124788 0.048653780988038686 -1.0767045538940012 98 74 38
0.1744369402128766 0.04475811275238245 -1.0803033436911955 94 70 34
0.17461220952182854 0.04535143708007866 -1.085512868430028 91 67 31
0.17479332926896662 0.04597059399195269 -1.0907402429237714 91 67 31
0.17506336030052752 0.04698690627432012 -1.0961206305495106 87 64 30
0.17464814686565647 0.044939609688517346 -1.1003918732548035 81 58 24
0.17531142953938567 0.047713188833236 -1.106431897028638 90 67 33
0.1755180887245955 0.048445192281700133 -1.11173519254158 101 78 44
0.17611365209202196 0.0509150251747747 -1.1176911049601717 101 78 44
0.17702424801403327 0.05479221059777539 -1.1241854938011622 90 67 33
0.17693651131183738 0.05420725609180799 -1.129032084262073 93 70 36
0.1767108702302811 0.05300589083859791 -1.1336519465824548 86 63 30
0.17602789819118098 0.049760950712858465 -1.1375038071377048 86 63 29
0.1756423571383833 0.047845090350733865 -1.1418547606948612 88 66 29
0.17549120550587316 0.046976402545420126 -1.1466043032528745 88 66 30
0.17578357463547645 0.04808895768487498 -1.1521147408739547 80 57 23
0.17598494650861563 0.04879461930078044 -1.1574794583520527 94 71 37
0.17629209473369994 0.04997241837035504 -1.163035326330477 88 65 31
0.17666601019060718 0.05144802682406269 -1.1687172645384962 84 63 29
0.17721469390979439 0.05370374454797722 -1.1747144252576314 89 69 35
0.17663625678682301 0.05092524490199235 -1.1787592254709567 86 66 32
0.1767475752079522 0.05122706365374402 -1.1840100116901087 79 59 25
0.1763466748558839 0.04924133908626355 -1.1883670523496213 96 76 42
0.17613236722018522 0.04808876638296794 -1.193053859188726 93 75 39
0.17605417476131946 0.047543810743437664 -1.1979850654313033 82 66 30
0.17594254729961534 0.04684939692334961 -1.2028615345513876 116 99 65
0.17543199567462123 0.044373936792696966 -1.2070282463432713 100 85 51
0.17534109959363503 0.043771845328626435 -1.2119476958832482 106 89 55
0.17433279639485905 0.039074620505471946 -1.2152156462112047 114 93 55
0.1690882076997314 0.015469849448759454 -1.2107944013912493 117 92 57
0.16834382413731733 0.011952465649971544 -1.2144920666220365 134 110 76
0.16760024490495418 0.008438875991676975 -1.218185904791231 127 103 72
0.16668265552444111 0.004148981301019539 -1.2215550081039035 121 100 71
0.1661440730558374 0.0015505773328786665 -1.2256148079841842 119 101 79
0.16624977291283832 0.0018269473211832143 -1.230865020726546 142 130 113
0.16742164135016974 0.006859787313184429 -1.2381045997249838 182 175 165
0.16807159126543614 0.009563286488586842 -1.2443941303743495 202 199 199
0.18466930903542322 0.07994659323751785 -1.3702088275078466 168 168 167
0.17985306570281373 0.05828165587858303 -1.3658395036136248 100 97 92
0.17700031572480054 0.04536726072415287 -1.3653704661542694 92 85 76
0.17429891710208978 0.03312861303471448 -1.3651701764086464 93 82 70
0.17185918588601257 0.02205699692475971 -1.3654668923990698 96 84 69
0.1695954438267844 0.011770535359531986 -1.3660915022620963 104 91 74
0.16753997518695965 0.002412865109643114 -1.36711439767867 99 86 67
0.16600309357756243 -0.004634147468091765 -1.3691800291876783 103 90 71
0.16358996294643338 -0.01558278157194748 -1.369414814362658 104 90 68
0.16147858905103007 -0.0251864251276116 -1.370244461529392 114 99 76
0.16002773337954146 -0.03184785340422658 -1.3724240355189414 109 93 68
0.15860932947143835 -0.03836414548570555 -1.3746548418333437 114 96 69
0.15723563766693216 -0.04468074453992965 -1.3769633788854811 119 98 69
0.15562568388475828 -0.05204855840163586 -1.3787582103337115 127 104 73
0.1553157082153785 -0.05362865760612662 -1.383285284120513 124 101 68
0.15405141993377297 -0.05945672477706854 -1.3857862351267998 121 98 64
0.15167820459826348 -0.07022006128104508 -1.3859084691394647 125 102 70
0.1514203441412632 -0.07156744356590938 -1.3905271752435473 118 95 64
0.14790949522159652 -0.08739186304503699 -1.388158775692993 127 104 72
0.14807266057192223 -0.086864825354936 -1.3936638167968818 122 99 67
0.14687870642170422 -0.09237695504643112 -1.396240146819291 127 104 72
0.14530698654078095 -0.09956942838204691 -1.3979828686097133 101 81 51
0.14374106255699015 -0.10673538300175522 -1.3997192766190167 61 41 19
0.14263063241834428 -0.11187420576860535 -1.402433761437392 123 100 68
0.14188331986781114 -0.11539725604672635 -1.4059343758801501 130 105 66
0.140846335385637 -0.12020859721689714 -1.4087905523361952 126 102 67
0.14067644777350186 -0.12116280458787426 -1.413555182955337 109 86 58
0.13785031560672412 -0.1339309401654744 -1.4124236252306734 103 80 52
0.13719660596256839 -0.1370362661772918 -1.4160953709996058 127 102 67
0.1361911855278326 -0.14170545908138565 -1.4189759494558098 128 102 61
0.13533684761498127 -0.14570246016059968 -1.4221857740578336 136 107 69
0.13451448362822366 -0.1495570035288485 -1.4254600929365897 131 101 68
0.13394285161227 -0.1522965241086608 -1.4292944455787382 109 84 51
0.13342543491321043 -0.15479490634108795 -1.4332488835928257 108 85 51
0.13270619383106325 -0.15819038823035986 -1.4367414569979 152 124 84
0.1323907971185341 -0.15979055814334286 -1.441151910892271 141 111 68
0.13168435492031835 -0.16312886256141468 -1.4446663427388915 149 121 80
0.13220055235705458 -0.16103306077763185 -1.4509908388965862 149 121 82
0.13097412199284153 -0.16668222294774138 -1.4533032775897983 152 125 86
0.13112900274390255 -0.1661926247117128 -1.458805276045474 155 126 86
0.13082268679847114 -0.16775267740103894 -1.4632428882874295 137 108 69
0.129725245165373 -0.17282786003617856 -1.4658341797330783 162 134 93
0.12909180825135508 -0.17584110397589037 -1.469501299347259 162 134 94
0.12808635540421853 -0.180506871056814 -1.472289385984605 101 74 35
0.12328960657911184 -0.20260765473667336 -1.4814911453165953 148 114 66
0.12310215702533053 -0.203638527865377 -1.4861794407495172 154 125 79
0.12749813132878474 -0.18431649722300103 -1.5018794571699812 129 104 62
0.12613716092800706 -0.1905598290709623 -1.5037842276085225 147 118 80
0.12472982178189532 -0.1970084085713164 -1.505560642923697 149 118 78
0.12318596465974127 -0.2040624168234788 -1.5069887353237812 94 65 25
0.12422744611363884 -0.1996386261209292 -1.5146932510733229 123 92 53
0.12323210639132123 -0.2042571283880965 -1.5174446159371637 129 101 55
0.12234371268264858 -0.20840054281498838 -1.520448022574194 131 105 60
0.12251235624764151 -0.20785217084477653 -1.5260436817818395 95 68 30
0.12071921538228991 -0.21601053520059138 -1.5268055640997353 126 99 60
0.12051658793929777 -0.21710982373807197 -1.5314837303199917 130 103 62
0.11741196495597589 -0.23108636499493296 -1.528951872961243 115 91 53
0.11815324915787019 -0.22799680116762328 -1.5359658965405718 108 83 47
0.11917655966108329 -0.22365671062918074 -1.5437047111595779 138 108 68
0.12007112266003689 -0.2198887109827986 -1.551144090019959 141 109 61
0.12028947922707084 -0.2191212225035125 -1.5569015472761691 149 120 65
0.12112243540217763 -0.21562794925738982 -1.5642229057917099 150 119 68
0.1196244986642252 -0.22247386265081492 -1.5656530251768257 142 111 66
0.11818737983089371 -0.22904931734308837 -1.5672190600902516 143 112 68
0.11299984476836888 -0.25225612270896003 -1.559191048807719 145 114 68
0.10976853398360263 -0.2669843905626039 -1.5612519013253536 153 126 78
0.11502566823083073 -0.24448055845464978 -1.5956466596673307 164 132 89
0.11134865136104147 -0.2609808822004268 -1.5912747017269218 144 115 75
0.10867201578495492 -0.2730452573994683 -1.5894690172880865 139 109 68
0.10593262578562097 -0.2853862197782376 -1.5874588026409413 145 116 73
0.1043436095505255 -0.2926278380861427 -1.5884438987783096 131 107 64
0.10277497863422122 -0.29977832274913085 -1.589462135061577 133 105 66
0.10076616839011823 -0.3088783350882843 -1.5892905790103975 130 107 64
0.10061568930696922 -0.30974409690555077 -1.5940433035564865 128 103 61
0.09910827910087813 -0.31662131406215127 -1.5951720139648977 137 108 67
0.09857368308673256 -0.31918846487162744 -1.598890579023258 152 127 85
0.09808518944602782 -0.3215513053365518 -1.6027305029808279 172 150 109
0.09418867936301512 -0.33900839846046177 -1.5973678064612988 131 106 67
0.09391551252383609 -0.34041632104842984 -1.6017574322676393 113 87 52
0.09370482968976024 -0.34154760961447567 -1.6063186394576319 100 76 40
0.09329340937959758 -0.34356788658271575 -1.6103355563957642 116 95 58
0.0921724144657422 -0.348729935528309 -1.6124114438712076 97 78 39
0.09176856245293023 -0.35071641792181346 -1.616441697386414 87 67 31
0.09500698185365584 -0.3365783997483174 -1.6304955277926294 80 59 27
0.09454288325918375 -0.33883277296984143 -1.6343904387755213 81 61 28
0.0960148051177361 -0.3325175611983541 -1.6436460577872911 108 86 51
0.09884565391322578 -0.32018896678933306 -1.656710024903521 120 97 65
0.10205540874039778 -0.30618563997465864 -1.6708866896148415 105 82 49
0.10516293789045493 -0.29263714410562325 -1.6848408777836086 110 89 51
0.10700731534270087 -0.2846804765592192 -1.695313640800788 112 92 54
0.10770914736473355 -0.28178070591370075 -1.7026109485216956 114 94 58
0.10780412732021866 -0.28156658594799555 -1.7082146099218714 117 98 57
0.10757985731646996 -0.28276515046354284 -1.712922875754046 122 101 55
0.10737427507181695 -0.2838811600268537 -1.717687142468794 124 103 57
0.10854461480466712 -0.2789111973658526 -1.726375085331052 113 91 50
0.10842234045722293 -0.27965946582679496 -1.7313962320763092 106 85 47
0.10834925883807774 -0.280190358877378 -1.7365631914063981 102 83 44
0.10898780420011696 -0.2775744749714814 -1.7437824772516453 110 90 54
0.10833607012922948 -0.2806647998422456 -1.7472977251304125 98 75 42
0.10824190243649559 -0.2812896292778615 -1.7524218614974978 115 92 55
0.1079597416729642 -0.28274582229849893 -1.7570055915425589 135 112 70
0.1076056324466727 -0.28452016563336935 -1.7613817712490423 119 95 53
0.10565565203196398 -0.2933491216363138 -1.761097339357648 108 84 41
0.1041781746792998 -0.3000884474942097 -1.7621692200754806 105 82 38
0.10754229376107376 -0.28542798947320047 -1.7774501640225535 104 81 39
0.10614540361259246 -0.2918113336470457 -1.7787640537791085 104 81 40
0.10888251330485221 -0.2799252869484676 -1.7922835363402154 100 76 37
0.1082055946824834 -0.28312727373794055 -1.795733845098465 96 73 37
0.10751420601047179 -0.28639299705985405 -1.799135969402315 106 83 44
0.10618559780402541 -0.292473800035771 -1.8006311977324214 119 94 55
0.10579319330692658 -0.29441804969984026 -1.804911603979925 87 63 29
0.10535809117095293 -0.2965509109788931 -1.8090638200551543 89 66 31
0.10350644651343166 -0.30494065224772976 -1.8089496185770053 91 69 32
0.10391456360015307 -0.30334872719187655 -1.8156342360911255 92 70 34
0.10187083171173454 -0.31258552778692805 -1.814905471480803 92 70 33
0.10123731582885385 -0.31559368773796176 -1.8184317087411286 90 67 33
0.10066037497594828 -0.3183518623079741 -1.8221259338812663 90 67 34
0.10045533277533142 -0.31946787384324427 -1.82695363101013 86 66 32
0.10015645318478947 -0.3209983004228947 -1.8314970085804876 87 67 33
0.09999443404958899 -0.321924613879416 -1.83646296137965 86 66 32
0.09910004067769639 -0.326083936656167 -1.8391740861063668 82 62 28
0.09905928197090066 -0.32647508995282776 -1.844516859240051 84 64 31
0.09890404928874832 -0.3273717219303167 -1.8495108717280535 84 64 31
0.09936797815000424 -0.32553607997526407 -1.8564361805781893 85 65 32
0.09801226578901145 -0.3317307161936253 -1.8576973972543736 84 64 31
0.09783484758178228 -0.3327255368100739 -1.8626296381681586 82 62 29
0.0966752541521535 -0.33805392583493626 -1.8644818401820848 82 62 29
0.09761815681519871 -0.33410617924202507 -1.87294104421965 81 61 28
0.09591865550221255 -0.3418159379540272 -1.8730788997054058 83 63 30
0.0941528427215247 -0.3498172548744341 -1.8729823424615393 86 66 33
0.09235546613703705 -0.3579567976956483 -1.872759869387998 90 68 36
0.09612561652550118 -0.3415410709476237 -1.8902519939251934 89 66 35
0.09661969726506979 -0.33957549022727296 -1.897352053415193 87 64 33
0.09614217311961376 -0.34189488010599295 -1.9013545018563882 85 62 31
0.09602066264047861 -0.342644480269482 -1.9064997710914746 85 62 31
0.09543805894681973 -0.3454271514259609 -1.9101635764531657 84 63 32
0.09374335566020871 -0.35311232322634933 -1.9102280190861765 84 63 32
0.09264372495359324 -0.35817341500604555 -1.9121976167967707 84 63 32
0.09189016125609926 -0.36170862263823034 -1.9152793292926484 86 65 34
0.0925052219833807 -0.3592115427306126 -1.9228180721774557 90 69 38
0.09010068665612973 -0.37002254725574457 -1.9204986363357623 89 68 37
0.09024126873157803 -0.3696166854864064 -1.9264903222028131 88 67 36
0.08871689067004788 -0.3765474690235444 -1.927014421122128 91 70 38
0.08983340369200152 -0.371841919799345 -1.9362304321494328 96 76 43
0.09067313518625136 -0.3683568450716576 -1.9445591832857296 91 71 38
0.09147286671278294 -0.36504888006988756 -1.9527785803360553 91 70 38
0.08944777682566693 -0.3741845595731028 -1.9516198051768479 89 68 37
0.08806543007055019 -0.38048811916770353 -1.9525750341995491 91 70 39
0.08886842160986688 -0.37716658318630863 -1.9608256987990076 90 69 38
0.0891011581592393 -0.37635715563750427 -1.9671850642472397 88 67 36
0.09112505080673806 -0.3676611506439882 -1.9795856513894075 88 67 36
0.09089300953187197 -0.36889970382103676 -1.984417112602546 87 66 35
0.08989607375641943 -0.3735058870170141 -1.9866622484341974 83 62 31
0.08910662741294936 -0.37719820970654905 -1.9896001910111045 81 60 29
0.08896927793021478 -0.3780198118921358 -1.9947505933554541 96 75 44
0.08960344985893477 -0.3754457777550582 -2.0025400239968234 97 76 47
0.08653630536847555 -0.38916235198466786 -1.997676586697064 86 65 35
0.08569921723493609 -0.39306307414763814 -2.0004183646303075 86 65 34
0.08473438833693038 -0.39752556703711917 -2.0027116883536054 83 62 31
0.08495960833118252 -0.3967514469858254 -2.0091029563071596 83 62 31
0.08432845168931156 -0.3997455021522427 -2.012540927706581 101 80 47
0.08440699475331627 -0.3996172494463108 -2.018438498408939 88 66 31
0.08434190313153105 -0.4001211766626295 -2.023845067704807 86 62 29
0.08444238967023952 -0.3998970584121433 -2.0298361434457335 85 61 30
0.08476736991525645 -0.39868596612559526 -2.0366228737824685 84 61 29
0.08431612705048909 -0.4008890249494445 -2.040698098197699 85 62 30
0.08414590349225966 -0.40185630174872117 -2.04576164443888 85 62 30
0.08375050539780511 -0.4038138304253637 -2.0500344910911075 82 61 30
0.0834070095247571 -0.405543164419894 -2.054491045471363 85 64 33
0.08245979116293499 -0.40992662282253706 -2.056805085618854 84 63 32
0.0834669164686833 -0.40571870840833196 -2.0660661948620196 84 63 31
0.08252556096448986 -0.41007629659856043 -2.068398568183497 83 62 31
0.08228585287252096 -0.41134968242945863 -2.073232004431859 87 66 35
0.0822457408517622 -0.4117460236626997 -2.0787849780017384 98 76 40
0.08176879538626233 -0.4140622114772239 -2.0827724448775475 100 77 41
0.08121435901739055 -0.41671882376954933 -2.0864785375366743 87 64 32
0.08085468393965968 -0.4185196218825605 -2.090886373875169 85 62 29
0.08084607310662094 -0.4187781670221419 -2.096569041548005 82 59 28
0.07827473767681077 -0.4302944607300201 -2.0929325765820272 81 58 27
0.07853594194291055 -0.42936748006066244 -2.0995896804029277 87 64 33
0.0801935244585497 -0.4223081113602818 -2.1113695855893524 81 58 26
0.07760634614124087 -0.433891668344227 -2.107615120983679 81 58 25
0.07634788820253283 -0.43963881937543553 -2.108705557042774 88 65 31
0.07629039146590456 -0.44011207196776797 -2.11420935271915 94 71 37
0.07570308047118363 -0.4429117076462267 -2.1177598895507868 93 71 35
0.07508442034145868 -0.4458488163754977 -2.1211902141765036 89 67 30
0.07571121583729888 -0.4433186005946303 -2.129248321627046 90 67 31
0.07535451303801595 -0.4451060340532226 -2.133658998480719 88 66 29
0.07504587189595824 -0.4466825572459258 -2.138250115885995 86 66 30
0.07614287657199799 -0.44209045540131353 -2.1481135672485294 88 65 31
0.07745700250938452 -0.436546761972795 -2.158823428856197 92 69 33
0.07710951086802588 -0.4382951297020147 -2.163303787821453 101 77 36
0.07634704534620074 -0.44186416435803144 -2.1662165015620776 108 83 42
0.07474952770588138 -0.4490962382874066 -2.165956790563487 109 84 43
0.0731349951807027 -0.45640200433008765 -2.165607964874675 107 82 41
0.07154308400002775 -0.46360758963613297 -2.1653204868214093 114 89 48
0.07037558507370628 -0.46895085796238445 -2.1666300989618352 111 86 45
0.06897849372806011 -0.47530036291648253 -2.167044344583722 105 80 39
0.06883956918125832 -0.4761320408708653 -2.1722707400999126 113 89 45
0.06817856830768038 -0.4792530041300105 -2.175491607919026 118 94 50
0.06780262868352022 -0.4811239916512048 -2.179807710765498 111 87 43
0.0666980749415628 -0.4861890820291141 -2.1813030588552977 114 90 46
0.06758655906317532 -0.48251733660380003 -2.1905208579064226 117 93 49
0.06787636084131725 -0.481470629476362 -2.1974346693393176 118 94 49
0.06731256709138286 -0.4841654300901161 -2.2010312048061578 119 95 47
0.06626468866648842 -0.4889814488298536 -2.202729965459129 118 94 46
0.06508786324282455 -0.49436196343668326 -2.2039092573000443 118 94 46
0.06429631896308008 -0.4980537785668322 -2.206587847141676 121 97 49
0.0636139778634969 -0.5012668531983996 -2.2096888187324306 124 100 52
0.06255214155897015 -0.5061421101139238 -2.211283049288124 122 99 49
0.060532455837908686 -0.5152123983927275 -2.209065653149686 124 101 51
0.059682474450494766 -0.519158308775734 -2.2114641189811253 128 105 55
0.058389766681308714 -0.5250427208683235 -2.2120884303152106 131 108 58
0.05826440942269895 -0.5258145855110792 -2.2173586271144416 128 104 56
0.05589269336117907 -0.5364225411969774 -2.2136343075967364 129 104 55
0.055367645345531555 -0.5389438406152629 -2.217286418636745 125 102 52
0.05807909777538105 -0.5272963426823484 -2.233970339059763 120 100 50
0.05742023995134393 -0.5304044636511507 -2.2371102523949364 108 89 39
0.056645231426240464 -0.5340207526629928 -2.2397742475561575 106 90 41
0.05542158788941981 -0.5396002058264263 -2.240609116392982 103 88 41
0.05520891822227193 -0.540754800102919 -2.245540489207817 103 86 43
0.05430192289114673 -0.5449477301207103 -2.247642678996254 94 77 39
0.05344301577680839 -0.548929833456772 -2.2499305901880486 88 72 40
0.052571706860739614 -0.5529658078089177 -2.2521576466507227 88 73 44
0.0547301477971322 -0.5437476793911228 -2.2668320081885636 97 86 64
0.05639622096820063 -0.536685308027316 -2.2795306403588436 125 117 106
0.05442420605797044 -0.5455365328560718 -2.2772367450758457 161 157 152
0.05275451288993453 -0.5532896783782579 -2.2819960734783007 194 193 193
0.05129868486797451 -0.5598809193326711 -2.281775080770255 201 201 202
0.18026751220884538 0.09864016691601313 -0.9351201590807714 179 179 180
0.17905234691106464 0.09298344061908836 -0.9382605688635899 177 180 180
0.17844947180773713 0.0900898488866444 -0.9422395683284683 178 180 179
0.17667311024012172 0.08190178689649424 -0.9445773915763002 168 164 160
0.17543261742913305 0.07613205326754241 -0.9476472660199352 132 122 111
0.17494294552237805 0.07374995227348952 -0.9517638348915145 117 96 73
0.17445343952530826 0.07136865120980435 -0.9558792081464375 129 101 65
0.17379907121895916 0.06824374019571589 -0.959758275446715 126 98 57
0.17370184334350486 0.06763197278144661 -0.964431289576288 122 95 53
0.17287655682723657 0.06373630171074818 -0.9680607873109428 119 95 55
0.17310909765251137 0.06461168474904533 -0.9732139297845857 111 89 51
0.1731481149267885 0.06461399847369032 -0.9780947712093351 107 84 51
0.1722437409721182 0.0603618613826159 -0.9816037645808582 103 81 43
0.17300852394027974 0.06363662874617787 -0.9875556094619664 94 72 37
0.17286006024010844 0.06279297938724954 -0.9921769436764998 85 63 34
0.17279115950506468 0.062307930819648805 -0.9969197441132119 96 73 43
0.17218153473114856 0.05938488073341586 -1.0008616770161278 93 70 37
0.17196359522329355 0.05822774025899197 -1.0053867926134197 80 56 27
0.17248767684292407 0.0604154935711248 -1.011030654723021 67 43 18
