ply
format ascii 1.0
element vertex 683
property float x
property float y
property float z
property uchar diffuse_red
property uchar diffuse_green
property uchar diffuse_blue
end_header
-0.03534940715451951 0.15611896410792414 -1.2267512904822269 119 100 42
-0.032492792811740556 0.16763457162704803 -1.2269513927563975 87 70 30
-0.029476089138934083 0.17981154373579045 -1.2268263791791232 98 80 40
-0.02611658910624777 0.1934030234905766 -1.2260400766943989 144 121 78
-0.023775242142101694 0.20280018376241776 -1.2270715712588849 160 136 100
-0.026606806125348645 0.19087647105531075 -1.2375671252018183 122 97 58
-0.02795009031675752 0.1850854190134686 -1.2453711448690221 132 110 69
-0.030071253974796028 0.17608613544358664 -1.2546422925869016 81 59 22
-0.030683609287109406 0.17330572314963577 -1.261150752959123 73 52 22
-0.030810840173060933 0.1725248221592232 -1.2667715860498168 79 58 28
-0.032137683316036184 0.1667966215933705 -1.274648720004165 93 72 41
-0.0329713523614997 0.1631009601700243 -1.2816266503996974 103 82 50
-0.03279326974389074 0.16357719965415496 -1.2867151917839428 91 70 38
-0.032646580029444525 0.1639236989809107 -1.2918685185283423 83 62 33
-0.03251153118915734 0.16422190329748004 -1.2970497706763504 87 66 37
-0.03308719663513714 0.16158776893883342 -1.3035949686018609 90 69 39
-0.033739386206634525 0.15863710401311354 -1.3103038176116997 93 73 41
-0.03410999397117369 0.1568474515839241 -1.3164883871613566 77 57 29
-0.03560987245829288 0.15039709652145178 -1.3248704199336254 67 47 17
-0.035999152235370216 0.14852865903673945 -1.3311275024975606 86 61 22
-0.03713281650702829 0.1427963677415789 -1.355462385739115 184 151 85
-0.03574745564447175 0.14825184406695596 -1.3582734415667597 169 135 79
-0.032878478362449934 0.1598340545553793 -1.3581222364728744 132 100 62
-0.030737389957218142 0.1684121464517933 -1.3593872461778693 129 103 64
-0.02808391411111036 0.17910754485471508 -1.3596007525862408 139 117 78
-0.026974622907752793 0.1834266023682038 -1.3628866253565421 123 101 63
-0.02544453289932945 0.18948426529547352 -1.3653138885647391 131 109 75
-0.024103239706348575 0.19476275001024096 -1.3681081123307643 112 89 58
-0.02290396394914271 0.19945511142865607 -1.371178519391602 95 73 43
-0.021912591207852924 0.20328896803543917 -1.3746629784537525 131 112 74
-0.02091438539865416 0.20715140810552313 -1.3781261131513505 133 111 71
-0.0196972712915868 0.21191884446837944 -1.3811312891973109 153 131 97
-0.019512199471617267 0.2124214814353454 -1.3862576572036804 142 118 84
-0.018105285283805464 0.21797406394158603 -1.3888555367158033 177 149 114
-0.016775271425487348 0.22320943134367965 -1.391599563573128 173 144 110
-0.01633443676303868 0.2247695227081949 -1.396188846364915 159 135 103
-0.015496791087629552 0.22797012570730268 -1.3999471214485826 180 155 115
-0.013737289151859844 0.23498263211067016 -1.40175951472394 188 161 114
-0.013220014471028468 0.2368592768895197 -1.4061775384617048 185 158 111
-0.012368228180520704 0.2401193007022015 -1.4098860316073303 169 142 92
-0.011167989493802405 0.24482074181072044 -1.4128473186971227 178 149 94
-0.010281222936983636 0.24822608735736013 -1.4164677475366718 164 134 80
-0.010176844673229754 0.248395230392766 -1.4217607414298408 139 111 64
-0.009611027010031928 0.2504730536330468 -1.4260668093738733 143 116 71
-0.007602729420326956 0.2585190711579379 -1.4272546034512212 142 117 75
-0.006967131014185765 0.2608862533605562 -1.4313962879914452 115 89 48
-0.005787606582871446 0.26550439595279807 -1.4343518186340365 117 91 49
-0.005976411398880624 0.26446010673747283 -1.4402870178824627 110 85 47
-0.0051450434566584075 0.2676377300639265 -1.4439959685692707 116 91 54
-0.004883068086795644 0.26845867992348216 -1.4489534020344428 104 78 41
-0.0035295219613328127 0.2737982406663438 -1.4515030942335039 110 84 47
-0.002836625758326994 0.276403276581257 -1.4555043898079336 103 77 40
-0.0022982266148538766 0.2783687511572124 -1.4598467448845485 113 86 50
-0.0014007167423210898 0.28182127839954707 -1.463386566922945 107 82 52
-0.0012893096634511853 0.2820186298279913 -1.468682704655199 74 53 26
-0.0024394265604190113 0.27699085659642964 -1.4768241423709523 76 54 23
-0.0021680885895202645 0.2778495275301291 -1.4817826837463408 121 94 53
-0.001984260956621145 0.2783454982617013 -1.486943638292306 179 147 96
0.00027488175759429745 0.28743888679737284 -1.4873893842769264 193 163 108
-4.8360083844470325e-05 0.28583424086553766 -1.4937019507804474 200 175 123
0.0006833858046665087 0.2886003963610518 -1.4976112642567865 185 163 110
0.0033496457891361436 0.29938335101779906 -1.497069015426216 120 97 54
0.0038894540790320314 0.30135513121653484 -1.5013983392133907 89 65 33
0.0023242022953703645 0.2946019000231992 -1.51060222580983 85 62 30
0.005348007755928572 0.3068695053443895 -1.5091752458871375 82 59 27
0.004709212090107079 0.3039554941351496 -1.516249274895625 83 60 26
0.0020770956688065806 0.29277632302136963 -1.5280080902641064 78 55 21
0.0026059342278737796 0.29470113468252357 -1.5323943546814538 83 58 23
0.0028784107183983665 0.2955628802747264 -1.5373847988470086 88 64 20
0.004073735423534383 0.30025162474391526 -1.5401963336497628 164 139 80
0.004576289284956958 0.3020675999788422 -1.544641198086301 203 173 107
0.005078920475843088 0.3038838813586709 -1.5490861852848652 210 179 117
0.005297285832167167 0.3045209142752485 -1.5542110462260847 129 101 53
0.008867690203727505 0.31906446986437476 -1.551299501323295 77 55 21
0.007456778707816705 0.3129422490565611 -1.56032866324886 83 62 26
0.007854489293090988 0.31432344683720187 -1.565021035810818 96 72 27
0.009335548803363111 0.3202003874551106 -1.567089236531381 138 115 70
0.00738496911195638 0.31183559992714704 -1.5774890841766098 86 62 23
0.008779376009681303 0.31735303166797185 -1.579765352987167 114 90 50
0.009492943919078595 0.32004489920395895 -1.5836945826669129 88 64 25
0.010299030054315123 0.323121016602285 -1.5873931435847592 74 53 22
0.010856526036056233 0.32516522809625736 -1.5917000006056723 114 92 60
0.011863293073010331 0.32907500631122805 -1.5948943111936467 114 91 48
0.011826377566851148 0.3286510061233595 -1.6006722791796535 176 150 101
0.013759623540456775 0.33640897799837094 -1.6015501651953437 160 133 85
0.013801070311895203 0.3363103573543081 -1.6071343831922862 133 108 72
0.017080503006950493 0.34966189996447505 -1.604602526222789 125 100 75
0.018600528119597448 0.3557064178570855 -1.6064529185453325 122 101 77
0.020316327865066236 0.3625651588177283 -1.6077915655122554 100 83 58
0.022929184621901633 0.37315234143244824 -1.6068358018050488 100 83 57
0.023968297352136084 0.37720135730784127 -1.6098465711819887 99 83 55
0.025414427054632677 0.38294237861768715 -1.6118096053646864 117 101 72
0.025710080881249583 0.3839022798298279 -1.616702462880457 195 179 145
0.026652702645248452 0.3875513525990178 -1.6199368651034773 138 117 81
0.02771162387184821 0.3916842666857953 -1.622864031086183 117 94 59
0.028838777906430635 0.3961013212342335 -1.625605246624024 96 72 42
0.030613721439837482 0.4032124511334092 -1.6266546248213867 77 53 27
0.030754304144466463 0.4035281295075067 -1.6319378096752764 74 50 23
0.030823616963574912 0.40354709498537594 -1.6374136503889793 100 77 45
0.02931625608290238 0.3970077804295724 -1.647030235229724 97 74 40
0.02770911455944544 0.3900517240188597 -1.6569445285580433 92 69 35
0.026091394462711776 0.38304989256680694 -1.6669238423775503 98 77 43
0.024069993932380768 0.3743667354244103 -1.6780093229877433 83 64 35
0.021806266162914284 0.36467313326352657 -1.6897830718158382 75 60 39
0.019523213607151632 0.35489678370089445 -1.701657244356026 61 48 31
0.01901738326901914 0.352514596723407 -1.7088285332480553 58 42 25
0.017910950827199748 0.34763168424006097 -1.717629266071558 79 63 41
0.017779198765801113 0.3468046827350258 -1.7238353181881036 76 60 35
0.01881363998086981 0.3508321078740951 -1.7269037134280822 62 45 23
0.01955364924151516 0.3536340880775551 -1.7307608107090897 58 42 21
0.019431152500151927 0.35284482209232404 -1.7369585752756738 65 49 26
0.01941479545521746 0.35249701272011136 -1.7428784004500932 75 58 30
0.020260474224698427 0.3557389437183677 -1.7464493413483098 105 84 50
0.02060325876554711 0.3568864826629655 -1.7513949903006767 118 94 53
0.020427774179999747 0.35587494240916195 -1.7577711488167698 122 98 55
0.019141112567132523 0.3502335660528205 -1.7672298210503197 88 66 30
0.01819657612791395 0.3460161053329888 -1.775772697584834 71 51 23
0.020208393848958756 0.3541162816591447 -1.7761211623962585 81 60 33
0.01964591497336847 0.3514897337685606 -1.7836245548244225 80 59 32
0.01990796556484263 0.3522987067641433 -1.7888399490653462 75 54 27
0.018947013906404478 0.34800972388822454 -1.7974940364695042 73 52 25
0.0192279496199608 0.3488964374551165 -1.8026769190466214 91 70 39
0.01994265350715456 0.35159134515888935 -1.8066385606090423 92 72 39
0.02017142467963022 0.35226031570830124 -1.8119744283156556 87 66 36
0.020616006454515723 0.3538289410193767 -1.8167020132230325 81 60 31
0.020975003576471044 0.3550405727187419 -1.821675339684186 84 63 33
0.021767191175084896 0.35805880532114626 -1.8254119330204348 80 59 28
0.021512439251412788 0.3567102376613663 -1.8321498128403317 78 58 26
0.0236159365241225 0.3651988160084811 -1.8321093114778082 75 56 24
0.023423958839524875 0.3641118083131048 -1.8386729551767649 73 54 22
0.023409888127110437 0.36376649435690117 -1.844734127307263 74 55 23
0.023480418344978493 0.36377374202686436 -1.8505592860519804 72 53 22
0.024460344449048765 0.367575871136292 -1.853740115145367 74 55 24
0.025220366574471145 0.3704605470265162 -1.8575561893695234 77 57 27
0.025583542985551905 0.3716888748044156 -1.8625329911290325 78 57 26
0.026472510014340783 0.375112089064834 -1.8659645590794212 77 56 25
0.0267555392509517 0.37600572505716884 -1.8711794544232565 82 61 30
0.027054592150025605 0.37696605111783776 -1.8763514573887976 89 68 37
0.02730779964160006 0.3777347193914659 -1.8816640432564822 87 66 35
0.026692723524194037 0.3748767582198638 -1.8895709069266196 86 65 34
0.026660410347167054 0.374451946259232 -1.8957559722496078 89 68 37
0.026628043980674893 0.37402641067986575 -1.9019517301116733 83 62 31
0.026960080597064146 0.3751227856937223 -1.907061246030583 81 60 29
0.02805689156007375 0.37941441858957003 -1.9098655052373843 81 60 29
0.02783089844648884 0.37817892568565026 -1.9166654346444967 82 61 30
0.027608224548634458 0.3769566259115718 -1.9234695314040295 83 62 31
0.027710868686783588 0.3770933533152378 -1.9292964811088102 88 67 36
0.02908365690898458 0.3825389772647646 -1.9312489703350069 84 62 31
0.02738572296618344 0.37514815988976746 -1.9426012289797272 82 59 28
0.030027709136632802 0.3859003803040634 -1.9406473886181212 81 58 27
0.03050423432378177 0.3875998108659568 -1.9453344702227922 79 56 25
0.030843791273212517 0.388726406954869 -1.9504465075358197 76 53 22
0.031183667780113805 0.38985416378545884 -1.9555612446780255 76 53 22
0.03186044989594272 0.3923909435402346 -1.9596306664732406 83 60 29
0.03248660816462527 0.394716081761696 -1.9638554788308347 91 71 38
0.033026533753445816 0.39668053384658064 -1.9683486778689372 88 68 35
0.03388480982830211 0.3999770123112225 -1.9718414114871063 90 70 37
0.03375395589905747 0.39913468329422186 -1.9784455493138422 95 75 42
0.0339503976742751 0.3996614949405543 -1.98402770288006 91 70 39
0.03487897756511785 0.4032523643300809 -1.9872946819810156 87 66 34
0.03504358460079915 0.40364563347906324 -1.9929840473621558 83 62 29
0.03508522212818252 0.4035237612109948 -1.999072855012896 84 61 29
0.035578870978902444 0.40529395319404415 -2.0037247460608727 84 61 29
0.036209072160216335 0.40763589831836267 -2.007939147898723 83 60 28
0.03738859853651516 0.4122783966169117 -2.0103832278696308 83 60 28
0.03797563673277046 0.41443999341846066 -2.014727980270405 82 59 27
0.03265185805115439 0.3912418179634279 -2.050840649810675 86 64 28
0.03819225692062561 0.4141554915675818 -2.0390626809739074 107 86 43
0.03879393734494396 0.41637769976383304 -2.043375153577327 138 112 65
0.038617713982779814 0.4153397335702744 -2.050243803911787 170 139 94
0.03963032670898688 0.41928413202276654 -2.053206301887657 119 94 53
0.03940431130406692 0.41803666166558323 -2.0602559402722838 92 71 33
0.039499153809097756 0.41813365955299914 -2.0662562626690044 82 62 28
0.03953341534398441 0.41797623066491935 -2.0724668600765748 80 59 28
0.04280823059726101 0.4314072591114816 -2.0678739990806294 83 62 30
0.0417548159340584 0.42668883846048783 -2.0777126516514226 84 63 32
0.04411352919026065 0.4362805465347957 -2.0761292639148152 81 60 29
0.043609081634535696 0.4338635505438322 -2.0841489404546483 82 61 31
0.04373071242183353 0.4340721485918003 -2.090075286443516 77 56 27
0.04410251739399776 0.4353300249324361 -2.095162658189429 98 77 41
0.044159220949952116 0.4352655044409018 -2.1013235744166523 111 85 45
0.04484973377918103 0.43786044342787844 -2.1053349760500777 151 119 69
0.04518422522000551 0.438961239290018 -2.1105596729424185 174 141 85
0.04626505309274734 0.44319471512128283 -2.1132310188860144 170 140 93
0.047075331594216493 0.44629290552121476 -2.1168212158361355 110 87 47
0.04828612539225409 0.4510729727858258 -2.1190254241466455 88 67 29
0.04832046327572878 0.45091362378221306 -2.125282825972288 85 63 31
0.04932393985702904 0.4548237758087438 -2.128190419695263 85 64 32
0.050231593518293496 0.4583319153896471 -2.1314217313740613 83 60 27
0.04933334568269984 0.45425463013409245 -2.140943022374839 81 58 24
0.05094998148649016 0.46074107530421676 -2.141698009769306 82 59 25
0.05235239540720393 0.46632850912378326 -2.143182407706079 83 60 26
0.05184137875445069 0.4638765384450451 -2.151380033960826 83 62 27
0.052736115183140586 0.467331216430392 -2.1546396294561294 83 63 28
0.053442344057516925 0.46999395081229906 -2.1585588498171506 86 66 31
0.053889344581579054 0.47156719428706806 -2.1633944135327687 86 66 31
0.053884682959540464 0.4712415845628254 -2.1698390949711643 84 66 29
0.05402275256886904 0.4715155517924113 -2.1757854796835323 83 63 29
0.05694163099714626 0.48348224553578584 -2.171786925511692 82 59 27
0.05803953182818944 0.4877932950551114 -2.1742756853002043 83 60 28
0.058558978656366265 0.4896719699746334 -2.17883515241856 83 60 28
0.05944763819751728 0.49310369060524156 -2.1820619762825517 84 61 29
0.06030583879780567 0.49640762384613046 -2.1853917185766747 85 62 30
0.0608909853107 0.4985630313728159 -2.1897061634836295 83 60 26
0.06163192087353171 0.5013740339972248 -2.1934522396395324 84 61 27
0.06223951045574376 0.5036240712670814 -2.1976809336300263 85 62 28
0.061309794492514544 0.49940384055468606 -2.2075380250238794 85 62 28
0.06220143440389864 0.5028489379566707 -2.2107364416713415 85 62 28
0.0633656606385975 0.5074419480851045 -2.212923389327025 85 62 28
0.06391792975237627 0.5094590155023067 -2.2173574596846124 84 61 27
0.06421865197001492 0.5104168679178469 -2.2227228979651943 83 60 26
0.06533769954859672 0.5148207684172061 -2.2250534088343166 86 63 29
0.06569813872289253 0.5160300860221817 -2.230197558383875 85 62 28
0.06655093144789606 0.5193132141517263 -2.2335060175398627 85 64 30
0.06749087893393743 0.5229638380670125 -2.2364811926039803 88 70 33
0.06809458123349209 0.525198138893672 -2.240711000626667 91 76 37
0.06938155067465794 0.5303117323996072 -2.242365013319026 89 75 36
0.0698244618841235 0.5318688844512003 -2.247192025656689 86 72 33
0.06989081000192124 0.5318387648481757 -2.2534476895983624 85 74 34
0.07139850640098946 0.5378840659499046 -2.254236777102702 88 75 42
0.07189287119824092 0.5396582224228887 -2.2588660662853273 106 97 75
0.07490236060854133 0.5520372204974903 -2.2538858936797856 152 149 139
-0.059667840892039734 0.053555056747078555 -0.9028641113418976 138 134 131
-0.054217957138766065 0.07577461397555535 -0.9007797236342007 116 104 91
-0.05171275797289665 0.08585369912053387 -0.9024980799365202 120 105 82
-0.049240213621594434 0.09579947518305604 -0.9042323632362672 129 108 80
-0.046335585228377024 0.10752881145048243 -0.9053660513691808 150 123 93
-0.04467541890225727 0.1141263594496264 -0.9081280086792709 115 89 55
-0.044078642909545336 0.11633782140672372 -0.9123008441669214 134 110 74
-0.04452088655171768 0.11426264210058656 -0.9178735741232229 103 81 52
-0.04450267419377711 0.11408667590689964 -0.9228352855745328 94 74 43
-0.04446069873262721 0.11400842583854837 -0.927771381422229 110 91 58
-0.04435980328707657 0.1141729999294599 -0.9326332487241024 89 69 36
-0.04372782912559956 0.11652910867899874 -0.9367699571102789 94 73 42
-0.0443131766554202 0.11386086154517433 -0.9425885113150199 99 78 47
-0.04409915426560014 0.11449149322017454 -0.9473111785934925 86 67 38
-0.044275281022875104 0.11351132226619465 -0.9525829357744408 86 67 37
-0.0441191178642122 0.11390253103393672 -0.957397764369748 82 62 35
-0.044467810085264334 0.1122090171200198 -0.9629297557461327 74 54 29
-0.04576795121906513 0.1065861725282431 -0.9698226161201244 84 65 35
-0.04896721375857453 0.09311952652564259 -0.9794464291939902 81 61 30
-0.04783817530275171 0.09675496841992409 -0.998231047862637 108 96 86
-0.05012470084657247 0.08705094211839837 -1.0066851263404037 32 20 11
-0.051921777488071905 0.0793671731006631 -1.0144607409420339 42 33 23
-0.05493619960246132 0.06665165384680272 -1.0240631169412964 113 108 98
-0.059932023771395934 0.04574570755251095 -1.03664955562289 182 180 180
-0.06289410618738313 0.030037350850413647 -1.1098989639783077 116 115 116
-0.06115853212426124 0.036948693687172074 -1.1125059426054944 34 30 29
-0.0603709724219737 0.03993823846444211 -1.1166009590814294 26 21 18
-0.05870815453586106 0.04654990891315208 -1.119296137807157 26 21 18
-0.058152913020105154 0.04857869388989461 -1.1237497155953347 23 18 14
-0.05689174991870799 0.05352921234283131 -1.127066695350619 23 18 14
-0.05705233572460115 0.052595313413554 -1.1326718602975197 24 19 14
-0.05614922529273175 0.056064184294749464 -1.1365595014735386 31 24 18
-0.057123420937133726 0.05176134595571735 -1.14350435575262 36 28 22
-0.055519454222575454 0.05813185064199283 -1.1462463764922708 38 30 23
-0.054935510472081533 0.060279534434849846 -1.1506516887127398 41 32 24
-0.05461470920601534 0.06133756615271213 -1.1554912811322715 29 20 10
-0.05648431018606685 0.05332403421969378 -1.1639712931276516 57 47 34
-0.054973852427859335 0.05930827093621793 -1.166848868867199 47 37 22
-0.05250677329231483 0.0692557207650758 -1.1681095444138898 74 61 41
-0.05034970276358185 0.07792037762077703 -1.1698634189712356 88 77 51
-0.04812696414286183 0.08685829616232471 -1.1714824010907314 112 102 68
-0.0469353992960599 0.09152502423441566 -1.174826663528099 127 115 78
-0.04489046973453523 0.09972829446273518 -1.1767064327326842 141 125 84
-0.04372170652344734 0.10430183519022651 -1.1800638537175023 132 108 53
-0.042431140000510736 0.10938065561329047 -1.1832023463237045 138 114 57
-0.04091993507024237 0.11537454224127508 -1.1859485059061272 130 108 53
-0.04358382216158241 0.10406279275241381 -1.1959209127115784 150 129 76
-0.04232934362144515 0.10899232582999441 -1.1991159825995843 149 127 70
-0.04075478993897251 0.11524940189598099 -1.2017403716292918 138 113 51
-0.03892043253317909 0.12258448085820567 -1.2038927739017409 140 115 61
-0.03883878634241121 0.12265266695491228 -1.209117596573201 138 116 65
-0.03816777561722687 0.12516462768901276 -1.213304959838778 164 144 84
-0.0361254837051941 0.13336395085557945 -1.215050572836172 163 144 83
-0.03416651232783095 0.14121882384634393 -1.2169223061981198 155 135 80
-0.03329149582036532 0.14457836662072981 -1.2207171804487154 138 118 67
-0.03183736503766042 0.15034065145226216 -1.223463455023405 138 118 56
-0.03077289723948451 0.15448696363519238 -1.2269006556701165 109 91 32
-0.028203650301234506 0.16487745875331905 -1.227596037138503 92 74 33
-0.026140819896923226 0.17316804689730864 -1.2291843070425774 97 77 38
-0.02401902118767331 0.1817045313307566 -1.2306412377399372 122 100 56
-0.018770380321229727 0.20321999911495825 -1.226322590619475 170 146 108
-0.02013046860676332 0.19730744245785348 -1.2341379802650523 120 94 55
-0.022204469906746224 0.18842985425849829 -1.2433058241096804 135 114 72
-0.023530708695741115 0.1826546804317063 -1.2511206571711893 81 58 22
-0.025209195277099042 0.1754155693726816 -1.2596222124669103 74 53 22
-0.026517407459523773 0.16971227876574546 -1.2674621711906113 75 55 24
-0.02643990002685105 0.16976210967754246 -1.2727179889901694 86 67 35
-0.02765947661590415 0.16442464815765778 -1.2804355721025085 98 79 47
-0.027375372508010004 0.16533139239288885 -1.2853223735234667 85 66 33
-0.027310975574302912 0.16532531027871117 -1.290632066574839 79 58 29
-0.026782318764369442 0.16724753855258456 -1.2950594533265638 76 55 26
-0.02687329603377578 0.1665953945454774 -1.3006785827762477 78 57 29
-0.026861375349514063 0.16637031930519708 -1.3061085020919687 94 74 45
-0.02809647078283052 0.1609629350898169 -1.3139640970709785 72 52 25
-0.028328196370982495 0.15972402065728414 -1.319893806337327 80 59 30
-0.029911898494060854 0.15286539344693828 -1.3284774398789048 77 54 17
-0.03101178197006421 0.14801616588524802 -1.33614454310002 125 98 44
-0.032989027731607085 0.13951846143437946 -1.3455652054963094 164 133 66
-0.03272415370119888 0.14034018146920302 -1.3505908533523896 170 135 72
-0.03086340756833582 0.14779699678540492 -1.3524522284768987 190 156 92
-0.026102072317734384 0.1673160433923751 -1.3485114245028418 186 152 96
-0.025185231185591017 0.1708507866685905 -1.3521973983437972 142 111 71
-0.02393123544524718 0.17578805312638962 -1.3552000016217418 127 101 62
-0.022927166115065567 0.1796863568146469 -1.35869524574949 143 120 82
-0.02212832599208092 0.1827313324188637 -1.3625984997255476 137 115 78
-0.02084514556948444 0.1877914557848197 -1.3655131146673014 153 131 96
-0.019485623151635795 0.1931698039358712 -1.3682600639886022 135 112 80
-0.01831084576428854 0.19778009846053363 -1.3713722589799444 116 94 61
-0.017102030861216144 0.20253255122844455 -1.3744042206546991 117 97 60
-0.01605612838609269 0.20660754796101738 -1.377761613057252 133 110 71
-0.015011763052552737 0.21067656265476975 -1.3811139341343137 132 111 79
-0.014250963929283003 0.2135656352300837 -1.3850477665014476 126 106 74
-0.013202343316100068 0.2176530828870637 -1.3883769369529637 179 156 122
-0.011952881872065849 0.22257712131601165 -1.3912768525920376 168 142 106
-0.010842187988665139 0.22692394923309311 -1.3944571178027 135 114 83
-0.009908726133621093 0.23053322881570087 -1.3980022521472972 159 137 98
-0.008885559043979849 0.23451642154785224 -1.4013506718784552 197 173 128
-0.007947920799558653 0.23814379438847455 -1.404873044474011 186 159 113
-0.00701988683660533 0.2417314978059858 -1.4084092592046722 167 140 91
-0.00562900641738133 0.24724763932673588 -1.4109467422643567 181 152 98
-0.004515281430959098 0.2516098088764425 -1.4140666016950256 160 129 77
-0.0034198176309812867 0.2558963730931239 -1.4172163447881092 155 126 80
-0.003751720303865641 0.2542355959166057 -1.423451126418277 144 117 75
-0.004198252279556489 0.25209642129866733 -1.4299490885301163 135 110 70
-0.004021006351776907 0.25255623754065654 -1.4351003469703947 118 92 52
-0.004239129348745138 0.25136779533419795 -1.4411238719120865 110 85 44
-0.0038320410267066313 0.252785012235563 -1.4457837803079046 109 86 46
-0.00019760041564316488 0.26765703522781403 -1.4433183750283785 108 84 49
0.0007703414316177909 0.27141382727462077 -1.44671260919734 103 79 41
0.0016238349657695245 0.27469375625268083 -1.4503541389863832 110 86 48
0.0019470199159710294 0.27576243940668144 -1.455174293090892 114 90 52
0.0025724215491821634 0.27809140583719144 -1.4593203791404177 118 93 56
0.0028302699056759056 0.27888736705921063 -1.4642914188048861 117 93 61
0.002901957143624234 0.27890654339142074 -1.4696869791171263 77 56 30
0.0026201114983368384 0.27745044441978395 -1.4758908561693216 75 52 22
0.0026204090406376224 0.2771708725758401 -1.481466371350723 118 93 55
0.0028974325509094345 0.27804557295078197 -1.4864189430173433 153 122 74
0.005651456024791793 0.2892569598137779 -1.48570239539585 174 145 91
0.008869973316282698 0.3024088009549982 -1.4838812470068028 208 185 132
0.008743519344843798 0.30132061956505274 -1.4953002885495659 119 96 53
0.009418255264810521 0.30385666152772006 -1.4993096292231123 90 65 35
0.009254831860291038 0.302893321878877 -1.5052707616782988 85 61 30
0.011166511016566502 0.3105943245694768 -1.5063872722706364 84 61 30
0.010158998530724953 0.3061057327776229 -1.5143361125763153 81 58 26
0.009528074772557502 0.30318867953628775 -1.5214228819092208 77 54 21
0.007978739766294166 0.29643452939279086 -1.5307010866059376 82 58 21
0.007976610374814577 0.2961418370393175 -1.536341584285338 85 62 20
0.008088620510326744 0.2963255504990405 -1.541718985109649 159 135 76
0.009754801709006153 0.303002533368836 -1.5433882419408 202 173 105
0.010694460547589713 0.30664463338954473 -1.5467809862384214 212 181 116
0.010911327633014029 0.3072665175237285 -1.5519065733467952 126 98 47
0.013245901038266103 0.3167390126559609 -1.5519216349417186 78 56 22
0.013729873615195648 0.3184777527361012 -1.5563920742604662 81 60 25
0.014544110006261962 0.32159706891912765 -1.560059712331126 88 64 24
0.016795544151491676 0.3307251876892846 -1.5602140351367388 138 114 73
0.013373278155409618 0.3161320952951955 -1.5742370507516052 84 60 21
0.014533818525195655 0.32069907364011974 -1.5770622101139933 101 76 37
0.015621953877561545 0.3249638018351162 -1.580055052372809 101 77 38
0.015547706850362511 0.32436740520303975 -1.5859152643946677 73 54 22
0.01609059416637844 0.32635190015207327 -1.5902528565548335 82 64 35
0.016958284635275073 0.3296951697123718 -1.5937805617832466 102 80 41
0.016898039769933856 0.32915648991033786 -1.599622927504774 163 137 87
0.018075154730463616 0.3337946480616078 -1.6023701811806157 165 137 88
0.01968877646297812 0.3402599889713842 -1.6040069846529805 138 112 73
0.021546562606349767 0.3477481199288726 -1.6050080085109104 128 104 73
0.023356507580334432 0.3550371765858222 -1.6061072060228945 122 101 74
0.025150450426921725 0.3622603748996635 -1.6072247668068047 110 94 68
0.02683752682889813 0.3690373061361316 -1.608592994680611 101 85 60
0.028042891271152504 0.3737984320539656 -1.6111747029177734 101 85 59
0.02898726060889087 0.3774673153082466 -1.6144151630951817 107 92 62
0.029869124521891735 0.380874823378902 -1.6178093205331217 180 164 127
0.030993933081627456 0.3853001328349728 -1.6205684746203894 135 115 79
0.032410606856232455 0.39094847097386914 -1.6225592446700305 104 83 51
0.03305838043342481 0.3933766908252563 -1.6265370929992677 100 78 46
0.03468336171754591 0.3998989724164783 -1.6279585284881388 85 61 33
0.03486601324359706 0.4003790614207543 -1.633142792222645 75 51 25
0.03521745177096827 0.40156612983993684 -1.6378887269612548 92 68 37
0.03544755485677829 0.40224456888509186 -1.642957805260788 100 77 43
0.03380244763929431 0.39506337617440845 -1.652998871561218 98 75 41
0.03253056634110486 0.38944469608007093 -1.6620861321340776 109 88 54
0.030501203324215256 0.3806489945463426 -1.6732247522366088 89 70 41
0.028066407875950827 0.37015123366821384 -1.6854930907400403 89 74 52
0.02532788374562292 0.35837730681304336 -1.6986290522280536 63 50 32
0.02340999107752477 0.3500417252671625 -1.709612893222926 60 44 26
0.02283470723171996 0.3473346943384637 -1.7170124911757048 71 54 32
0.022713807525486546 0.3465325120170377 -1.723199911983512 73 56 32
0.02454442199468601 0.3539159137934688 -1.7240911589559753 60 43 21
0.02503800770505228 0.3556913525388164 -1.728607460616475 58 41 23
0.024741018247626576 0.35414976520046254 -1.7352886606373654 63 48 29
0.024823654826771235 0.3542003954743131 -1.7409418970629948 67 51 29
0.02475704193139104 0.35362428776957205 -1.747014362174831 95 75 45
0.02470817979396875 0.35312214394306435 -1.753048409621742 119 94 57
0.024062213304525182 0.3501131398651019 -1.76074897388693 124 99 58
0.022965625049627847 0.3452113855136203 -1.7697246363644086 91 69 33
0.02128904239371765 0.33787310501224405 -1.7803488411637656 72 52 23
0.023810687172046638 0.34816055704915616 -1.779254734896897 76 55 28
0.024681842905454637 0.3515189116285407 -1.7827621134731724 80 59 32
0.025374527497942848 0.35412804189644764 -1.7867663703747694 78 57 30
0.026376733007216102 0.35803738042389077 -1.7898923111651794 76 55 27
0.02439933918239201 0.34943079418097095 -1.8014631407221637 90 69 37
0.0249465301183336 0.35142805130569055 -1.8058940838680386 97 77 42
0.0250918078918249 0.3517366434825764 -1.8114723414692362 83 62 32
0.026139808544933918 0.3558381825113734 -1.8144717408283617 66 45 17
0.025339863595445752 0.35217415505292093 -1.8227721573190594 80 59 30
0.025008320976571505 0.35047758780260657 -1.8297466450503055 80 59 29
0.025879140354677907 0.35383429543388734 -1.8332596250203097 78 57 26
0.025974555398017032 0.35393158061610486 -1.8390160729483422 77 56 25
0.027146305314544733 0.35855378549847905 -1.8416478156288818 76 55 24
0.027224903263319278 0.35858004642080377 -1.8474595402552065 75 54 23
0.02788027452258754 0.36103139913847 -1.8515902317300028 74 55 23
0.0294796146517584 0.3674529961733858 -1.8529448998474374 77 58 26
0.030152519985554557 0.3699787746996887 -1.8570105412455444 76 56 25
0.03142161274353593 0.375012680260378 -1.8593106275513418 76 55 24
0.03155444966332055 0.37526683511147063 -1.864967415071953 75 54 23
0.03197279445912561 0.376721936451888 -1.86978205516295 78 57 26
0.03220606460272936 0.3773981137728079 -1.875151237543896 85 64 33
0.03229884739321172 0.3774827550806704 -1.8809466592679782 86 65 34
0.032144359484846965 0.37652620129497394 -1.887493039293739 85 64 33
0.03165209868481829 0.37414712678809176 -1.8950700673963585 86 65 34
0.03219462735289849 0.3761235690987966 -1.8995386643433625 86 65 34
0.0315505785076024 0.37310393828149063 -1.9076047651086403 84 63 32
0.032134648569072596 0.37525476489691595 -1.9119578471530743 82 61 30
0.031819359711583006 0.37361803408233357 -1.9190538263320978 83 62 31
0.03198272806930583 0.3739965627639976 -1.924701021222587 87 66 35
0.03208724249486415 0.3741268202813272 -1.9305359297340343 93 72 41
0.03348336868406396 0.3796980777367462 -1.9324016484950548 87 66 35
0.03480603645948996 0.38496065445282046 -1.9344778646196872 84 61 30
0.03433008620403406 0.3826448912932011 -1.9421119572579983 81 58 27
0.034840545310194884 0.3844852075134896 -1.9466995773217228 79 56 25
0.03561543428902472 0.38744002203872147 -1.9504632723349653 77 53 23
0.03640583420424377 0.3904604520511513 -1.95417384778605 77 53 23
0.03737007699001968 0.39421401242898396 -1.9573341944741034 80 57 26
0.03735735929039588 0.39384887102682437 -1.9635601589010572 90 70 37
0.03884151080379848 0.399795114722243 -1.96507249205435 87 67 34
0.039649237719752234 0.4028896435716731 -1.968707824792872 87 67 34
0.03949440598574579 0.40192463922186045 -1.9753943056721122 93 73 40
0.0399424112801508 0.4035018543750741 -1.9801740531949314 91 70 39
0.039588820399788144 0.40169729716440467 -1.9875163440720685 87 67 35
0.039116390009495794 0.3993904660618409 -1.9952566907921723 84 63 30
0.039143255370505795 0.3991895129976076 -2.001411807827569 85 62 30
0.039833450806466386 0.4017874226966371 -2.0054383058194585 85 62 30
0.04057149424295181 0.4045874344204992 -2.009307058181513 83 60 28
0.041689666692475494 0.4089922268107346 -2.011938907087385 83 60 28
0.0403506828848616 0.40302436016308746 -2.0225531412447357 82 59 27
0.037492407312836915 0.39063998424433033 -2.038161743854725 80 57 25
0.03779783639458195 0.3916114057510536 -2.0434825344663974 81 57 29
0.03819110192503235 0.39295353988871223 -2.0485195827371836 84 61 26
0.03785814766183067 0.3909085299257343 -2.062299453368047 131 106 58
0.04430477811990545 0.41718714234470883 -2.059928184090308 93 72 35
0.04432751077480833 0.41696456084838074 -2.0661797817346597 81 61 28
0.04466909337689358 0.41808912187858027 -2.07137278206211 77 56 26
0.04610586858804627 0.4238430023977981 -2.0728874817554304 79 58 28
0.047890619196044704 0.4310688994513702 -2.0732107688652746 82 61 30
0.04943208499407928 0.43726741515779255 -2.0743318820655703 81 60 29
0.04883099599653534 0.434406858639285 -2.0827007781564864 81 60 31
0.049350420197314365 0.43628396447497547 -2.0872802374429624 78 58 28
0.048926991363848774 0.4341731146258248 -2.0950773307176065 95 74 38
0.049523507030613645 0.436375818106135 -2.099403109534902 111 85 43
0.05052387121596731 0.44028713158349936 -2.102341464608015 143 112 59
0.051582466884009914 0.44444530565844814 -2.105069960918695 186 153 94
0.05263711296400053 0.4485872998469948 -2.10780149959228 175 144 95
0.05251166399301839 0.4477354281488687 -2.114609050323344 114 90 49
0.0530608543163862 0.44973843298750554 -2.1190869642865366 91 71 33
0.05343373801080856 0.45099510634055073 -2.124178722999801 91 72 39
0.054867938555333035 0.45674494968001683 -2.1255661309625187 87 67 34
0.054964753792859714 0.45683289092611407 -2.131620947769225 85 64 30
0.05443226348500982 0.4542554172159194 -2.1398960696036293 83 60 26
0.055445135264553275 0.458221888783114 -2.142746960089665 82 59 25
0.056884741961374496 0.46399641825365784 -2.144079780430157 83 60 26
0.05605738201632453 0.4601682874541827 -2.1534298240058485 83 62 27
0.057194083097605014 0.4646601535322324 -2.1558256087354386 83 63 28
0.05832979573808936 0.4691484558307633 -2.1582125147784668 84 64 29
0.05926045210725048 0.4727683792900412 -2.1613202326020287 85 65 30
0.059343157534782975 0.4727947580146797 -2.1674605867555954 84 66 29
0.05936504556726885 0.4725628635693112 -2.1738290571275454 85 65 31
0.06163521320561363 0.48186189841507576 -2.172098940013588 80 57 25
0.06071970476792937 0.47765557024451816 -2.181856209012408 81 58 26
0.062023472769142135 0.4828585584199483 -2.183592803100534 83 60 28
0.062246230026422184 0.48347776122736213 -2.1892462471186445 83 60 28
0.06355106644360747 0.48868633101775993 -2.1909580953116246 87 64 32
0.06631299388845198 0.5000768125314969 -2.1873220918223657 83 60 26
0.06683099513762855 0.5019495469549298 -2.1918736981979228 89 66 32
0.06750290794722745 0.5044753344182742 -2.195859187400456 85 62 28
0.06842283473960481 0.508053759825277 -2.1989263859416655 85 62 28
0.06729574350468989 0.502944636750596 -2.209561988025447 87 64 31
0.06922701558216753 0.5108156910872095 -2.2088804741605186 84 61 29
0.06830616286478809 0.5065801978527777 -2.218786255778785 81 58 26
0.0692909191198056 0.5104339941985219 -2.221609103500887 80 57 24
0.06979555229160878 0.5122495079412837 -2.2262197966876425 83 60 27
0.07041655910811596 0.5145592156691563 -2.2303941868193684 84 61 28
0.07071354541896825 0.5154927684814847 -2.2357866531318624 83 62 29
0.071501716113459 0.5185125951951972 -2.239329584301558 82 63 30
0.0728691470430721 0.5239936795615525 -2.240673715482615 85 69 34
0.07334526747351364 0.5256884582213218 -2.2453844063553006 88 74 37
0.07415386439924264 0.5287960595075059 -2.2488302587562323 83 69 32
0.07467905788584704 0.5306994628178474 -2.2533523937484623 82 70 35
0.07611721402176021 0.5364835518919525 -2.254378504233964 88 74 43
0.07729935279635325 0.5411802450936771 -2.256368214660715 102 93 70
0.08000327294714626 0.5523478798220552 -2.2524832850952463 149 146 135
-0.05813430453408988 0.03978339345470433 -0.9018139203602218 178 178 180
-0.05765790522372276 0.04149199955590249 -0.9062497894601115 143 140 137
-0.04875721089471741 0.07817189295195126 -0.8996031987350586 118 107 93
-0.046692502016199816 0.08647755626213088 -0.9018818520715788 112 97 74
-0.043101393429770006 0.10112192992802838 -0.9021100251552473 115 93 67
-0.04106642601352544 0.10930692750944626 -0.9043751491072646 147 120 89
-0.03932212899367586 0.11628597415626524 -0.9070096347185298 125 98 67
-0.039003485910188124 0.1173450788866261 -0.9115517473985209 149 125 88
-0.0392089938039221 0.11622701309033448 -0.9168077293286401 102 80 50
-0.039786125505010025 0.11356476671457683 -0.9225804490140118 97 77 46
-0.04241500941311567 0.10237837038700343 -0.9311808424929634 112 92 59
-0.041047894882618216 0.10779123251480804 -0.9343192161397348 87 67 33
-0.03858013219032526 0.11777783256868374 -0.9359215644266355 96 75 43
-0.039221470518260006 0.11484666542469651 -0.9418236010618091 96 75 45
-0.03927023074755946 0.11437719876017927 -0.9469128607258605 88 68 40
-0.03795888539730505 0.119559959849309 -0.950098062570281 87 67 38
-0.039604015549410995 0.11245500978968581 -0.9574485815497599 82 62 35
-0.03947217362652754 0.11273493059826245 -0.9623065707848414 74 54 29
-0.04090464693075534 0.10651147630595459 -0.9694016864720518 80 60 33
-0.04596699464959682 0.08519528419025368 -0.9817283576703744 86 66 39
-0.04134990494581488 0.10358003761939483 -0.9903675216280675 108 95 84
-0.04420264638304744 0.09144435083283936 -0.9996388178616751 87 77 65
-0.046124194750656045 0.0831793336290837 -1.0075898483041412 39 28 16
-0.04865932222185897 0.07236012849690215 -1.0164811490225554 99 92 84
-0.05272622118915575 0.05516621729430865 -1.0276877173307988 178 176 175
-0.05606408166056276 0.04100202636866229 -1.0378730182097597 180 183 185
-0.05801381081834192 0.03261080016929979 -1.0460346845711093 180 184 186
-0.059738951119444814 0.025152276107680227 -1.053893756297653 181 184 185
-0.05718764118369796 0.03238460812292926 -1.1137396025485198 96 95 97
-0.05585081254795371 0.03766949978705031 -1.1169600887049933 38 35 34
-0.05550653344290911 0.03881940833919095 -1.121762351646686 27 23 20
-0.05489021532588094 0.04110276715232852 -1.1261286376458033 27 23 20
-0.054408604135926616 0.0428248100608285 -1.1307119306562505 32 28 25
-0.054708117591225625 0.04129123355650638 -1.1365671034234446 42 39 36
-0.054277111860009344 0.04280195971422052 -1.1412403262813067 53 49 46
-0.05561850189038406 0.03692421679886476 -1.1488252408246442 74 68 64
-0.0566733403048863 0.0322396394967876 -1.1559650592084858 84 78 72
-0.053208811776833995 0.04639673076442541 -1.1556412793489934 66 58 48
-0.0521967770237015 0.05032980107551427 -1.1593553423865366 83 72 57
-0.05340780028237596 0.044992756116340626 -1.166777901050623 96 84 68
-0.05152248834232248 0.052567745646400266 -1.1690282470909463 70 60 40
-0.04916495521997133 0.06211340088791373 -1.1704624001810982 102 86 54
-0.047402273727791974 0.06917916823180392 -1.1728769597424251 108 94 55
-0.044908621605803514 0.079295312693977 -1.1740299362736066 108 100 65
-0.0436525199158206 0.08424979793929505 -1.177267980725516 103 97 72
-0.041953536486922696 0.09105278699677599 -1.179735330831016 69 60 34
-0.04035455447964559 0.09743940454731043 -1.1823575959497923 82 66 28
-0.03878688917471493 0.10369617608288739 -1.1850181013573022 137 117 69
-0.03811673243591025 0.10620783909493775 -1.1892231062334593 157 135 84
-0.03879948056108637 0.10307245581636987 -1.1957876738058466 150 127 76
-0.03772331703684652 0.10727868243023103 -1.1992867404349645 161 136 82
-0.03575091332141593 0.11522705596320404 -1.2011996268527918 153 127 65
-0.03418526630069804 0.12147825353198927 -1.2038100164959382 137 112 57
-0.03252731513473177 0.12811571587296344 -1.206240871073427 130 109 58
-0.03222071059138594 0.12911073213126284 -1.2110643967404755 149 128 74
-0.0321538650508916 0.129104220763975 -1.2163205637884131 156 137 81
-0.03028716940188353 0.1366151317282599 -1.2183469745033422 148 128 77
-0.029149207508286284 0.14108298182726886 -1.221669086747849 136 115 69
-0.028275380114802018 0.14444785067678573 -1.2254608944003038 140 120 66
-0.026291011193210825 0.15245296200770425 -1.2272250538592775 101 84 27
-0.024095650986784914 0.16134088242268046 -1.2285811844136536 91 74 28
-0.01821716612557249 0.18562161866230864 -1.223148720518223 92 73 31
-0.01626532007079612 0.19349601703681185 -1.2248748018291984 125 103 59
-0.016552522164427347 0.19144624479529726 -1.241388748619973 118 96 56
-0.01991074069707216 0.1768359296772034 -1.258405318864619 72 50 20
-0.02145027014793728 0.17011176827180174 -1.2667005037140195 73 53 21
-0.021299571868704556 0.17045474306090352 -1.2718201446159343 80 61 28
-0.02235648258700318 0.16574648958763716 -1.2792463286226172 110 92 59
-0.022171916335507302 0.16623002780297685 -1.2843219931115126 66 47 18
-0.022409715514564346 0.16494636193232887 -1.290214154528469 79 59 28
-0.022547299933717097 0.16408134859704887 -1.2959248627916937 82 61 32
-0.02227019502539891 0.16495094355464518 -1.3008429168787878 77 56 27
-0.023808636044783976 0.15822292623878037 -1.3092942485612484 93 73 45
-0.023275001304426945 0.16016495114955598 -1.313733464708759 76 57 31
-0.02269801183885338 0.16228844141591403 -1.3180876200755713 70 49 21
-0.0225983562073295 0.16241390942887302 -1.323380093326712 67 47 13
-0.022832776413659384 0.16114048110014012 -1.3293391147408788 121 97 49
-0.023823782682254324 0.15669880872824593 -1.336810397795244 162 131 70
-0.023038577342545233 0.15969310236557482 -1.3407692887231897 157 124 66
-0.022056735103957337 0.16351103654520754 -1.3443311315165776 179 146 88
-0.020606078920847704 0.16929272681235136 -1.346945129061224 174 141 85
-0.020239906213633516 0.1705329541874454 -1.3517292560285974 161 132 82
-0.01926045097078552 0.17434196696625875 -1.355275655357582 132 106 66
-0.01797275887146288 0.17944263244353703 -1.35818911811415 126 103 67
-0.016364567236319363 0.18588671660613199 -1.3604373176550941 118 95 63
-0.015679412847212082 0.1884641241390269 -1.3645570030457237 129 106 72
-0.014595283806066228 0.19271356438989862 -1.3678546570346524 122 101 60
-0.013834664646468126 0.19560767517039024 -1.3718105097642774 115 92 54
-0.012467578216848532 0.20104389151118518 -1.3745072680016 126 103 63
-0.01147370157419339 0.20491641621785955 -1.3779661034323998 157 132 91
-0.01052377933380351 0.20860507420990365 -1.381509131784101 124 103 70
-0.009575000449074708 0.21228930023493658 -1.3850477485761774 126 108 78
-0.008330791006907479 0.21721263767018228 -1.3879585951029392 150 128 96
-0.007288836593242101 0.2212884412328202 -1.3912846273044708 146 120 86
-0.006064544072029929 0.2261293928807041 -1.39421613981256 137 114 81
-0.004944153316466596 0.23053514785455248 -1.3973572605016533 176 151 112
-0.003941166591988093 0.2344489355312166 -1.4007392900397537 189 162 119
-0.0032122579177567973 0.23721333183550497 -1.404700665911934 171 144 100
-0.0021432355834862665 0.24140488715467534 -1.4079273697457697 161 133 86
-0.0010357132045644979 0.24575846106309523 -1.4110621109407675 172 142 93
-2.030651370042713e-05 0.24972598059402307 -1.4143869014386765 160 128 83
0.001268040171684165 0.25483942707362256 -1.4171101347633 148 120 78
0.001605707105160517 0.2559632261434838 -1.4218958956727588 144 116 78
0.0007995847585667987 0.2522855179093388 -1.4291904523542016 137 109 70
0.0012859644774095708 0.2540328306598662 -1.433664457812973 109 82 42
0.0013901968375114315 0.25417562018496936 -1.4389824776113183 110 87 46
0.001841638663012915 0.25577600089701347 -1.443538129537529 114 90 49
0.005459004652988139 0.2706716050064553 -1.4410554190006062 114 88 49
0.006103113293681961 0.2730824327649471 -1.4451573886363864 103 79 42
0.0068345767723440864 0.2758602926317111 -1.4490616253763466 109 85 48
0.007040633779160935 0.2764312081728113 -1.4541435661146638 105 81 44
0.007262418965884629 0.2770679279094252 -1.4591951681000879 109 85 47
0.007492352917476283 0.2777386256165562 -1.4642332185899385 104 82 47
0.007953288267711703 0.279379765509689 -1.4687509923120856 71 50 23
0.007192627212716254 0.27588701864756165 -1.4760564848097095 72 49 23
0.007815923532580288 0.27820992116357207 -1.4802145911733642 105 81 45
0.0078056949847277735 0.27786992770703917 -1.4858267257984539 170 141 93
0.009543830788009564 0.2848793922741426 -1.4874156633406421 178 149 96
0.010913834602497313 0.29034218706301673 -1.4898363447004146 197 174 122
0.012432685938136415 0.29643160668771645 -1.4918970753759713 196 172 119
0.014266978660408658 0.3038484149148385 -1.493205722987502 118 95 51
0.01593849533954507 0.31058181337586976 -1.494873155272807 89 67 36
0.017549497372566128 0.31706170974943226 -1.496663309345851 86 63 32
0.015437427895099928 0.30788127634086415 -1.5072080186839378 86 63 32
0.016017192574706185 0.31002304706863143 -1.5114313222529785 80 57 25
0.01380805442065483 0.30043070309308373 -1.5222722355351432 82 58 26
0.012790167589907198 0.29584857875424975 -1.5303220208170838 80 58 20
0.01327762317036632 0.2976000783104076 -1.5347998676019277 82 60 20
0.013437284750433695 0.2979719292591739 -1.5400645132208581 144 120 67
0.016193942599074987 0.3086748771259344 -1.550374048443023 132 105 54
0.01980538374143502 0.32358053271894166 -1.5472471788143443 76 53 21
0.02106715898272854 0.32829498535346846 -1.5554376486284185 80 55 22
0.021528209032115206 0.32993701601909153 -1.559947469375098 126 101 67
0.019136987159026356 0.31956402021733593 -1.571494173634189 87 64 29
0.020714435250771226 0.325907896527587 -1.5732669285834489 93 70 33
0.02085677593906056 0.3262061498602708 -1.5785862441048981 94 73 37
0.020623882699533594 0.3249229000847112 -1.5848473450132905 93 75 44
0.021447159333402827 0.3280899269592465 -1.5884797278506957 86 69 39
0.022201423790948208 0.3309663661387901 -1.5922800758385067 100 80 41
0.022835825612875976 0.33333777967139044 -1.5963782349163957 158 135 86
0.023419742759160533 0.33549647437619684 -1.6006019827591162 165 141 92
0.02460929644238502 0.34020864886328844 -1.6032888077323142 124 101 64
0.026469027310626433 0.34774728205629485 -1.6042586827439935 152 129 97
0.02824205742142233 0.35492153789393216 -1.6054265684967888 111 90 62
0.030003279397286656 0.36204715702509593 -1.606602805443686 107 90 64
0.031672416516123264 0.3687855228931526 -1.6079940189585706 105 89 65
0.03387334728714064 0.37776828577642124 -1.6079933058470663 113 96 72
0.03536607126212035 0.3837647821768684 -1.6097960330113072 99 82 53
0.03531967931090206 0.383268133822984 -1.6155786521619384 165 148 112
0.03845314909340153 0.3961893771812394 -1.6130850389948328 112 93 60
0.039953974532618466 0.4022228593079457 -1.6148139849639933 103 84 54
0.03837060520154392 0.39523966270942457 -1.6246166065887533 104 82 52
0.03985723565777305 0.4012136348991078 -1.6263751992994873 82 59 31
0.039795532389840155 0.4006519434834207 -1.6322058494146197 75 51 25
0.03984662598993734 0.4005659587240788 -1.637747744344813 92 68 38
0.03976776296479999 0.39993078084194594 -1.6436433477604915 104 81 48
0.03992302435506656 0.40028377603386317 -1.6489248747122969 101 78 45
0.03804197506617395 0.39203592137718163 -1.6596632283070822 115 94 60
0.03632903088482388 0.38449588172641463 -1.6699928272657634 106 87 55
0.033731993061898585 0.37321885191527215 -1.6827444091877812 87 72 46
0.031109691426486716 0.36183212144633337 -1.6956200086089355 69 56 34
0.029142432384666184 0.35321026553347684 -1.7067751747777464 62 46 24
0.028350042737561157 0.3495509781594381 -1.7147777570567722 68 51 29
0.02747394993882614 0.34553666775431974 -1.7230325411849816 76 58 34
0.030377784407541283 0.3574984275657439 -1.7209579089397822 63 45 22
0.03062911104313129 0.35824928519762433 -1.7261305141085066 58 41 19
0.029369170139566428 0.35261043996861485 -1.73547525686833 65 49 28
0.029111627425632558 0.35120836940588845 -1.7420791694604472 63 45 24
0.028873351087293303 0.3498870189016194 -1.7486437992112154 91 69 41
0.02896933442423126 0.3499786201529607 -1.7542915178799683 122 97 61
0.02849429005661265 0.34765447369762814 -1.7615423576629918 125 100 60
0.026834871860544243 0.3403191225415644 -1.772131043255332 95 71 36
0.025515315289373508 0.3344195257351554 -1.7818039620587462 71 50 21
0.02698905772589852 0.34033728499488386 -1.7836305344967265 75 54 28
0.02956034739280712 0.35090049410274454 -1.7823335279148325 79 58 31
0.03129650033523486 0.35793120500738024 -1.7833703912537966 78 57 29
0.030977936412189336 0.3562660665558473 -1.7902381224412478 78 56 30
0.03078747099322411 0.35514236782356534 -1.796755340235461 87 66 35
0.029602850862638294 0.3498090205620653 -1.8061360418021288 95 74 41
0.030333817337732077 0.35258493568770227 -1.8100387036589718 89 68 37
0.031219716782086834 0.35601713851753997 -1.8134906010221452 65 44 16
0.031626911207656136 0.35742229648873874 -1.8183216309341368 78 57 28
