ply
format ascii 1.0
element vertex 870
property float x
property float y
property float z
property float nx
property float ny
property float nz
property uchar diffuse_red
property uchar diffuse_green
property uchar diffuse_blue
property uchar class
property uchar detection
end_header
-0.0103 0.1341 -1.2219 -0.256 0.962 0.092 131 112 60 0 0
-0.0190 0.1597 -1.2813 -0.032 0.846 0.532 104 87 59 0 0
-0.0210 0.1655 -1.2939 -0.242 0.932 0.271 55 36 19 0 0
-0.0246 0.1754 -1.2994 -0.071 0.886 0.458 54 37 17 0 0
-0.0250 0.1768 -1.3038 -0.158 0.979 0.128 84 67 42 0 0
-0.0511 0.2514 -1.4258 -0.487 0.651 0.582 120 92 46 0 0
-0.0566 0.2675 -1.4588 -0.228 0.914 0.336 85 59 29 0 0
-0.0565 0.2675 -1.4640 -0.389 0.820 0.419 80 56 22 0 0
-0.0693 0.3053 -1.5531 -0.142 0.953 0.267 74 46 20 0 0
-0.0768 0.3268 -1.5881 -0.525 0.662 0.535 106 87 61 0 0
-0.0776 0.3291 -1.5921 -0.614 0.626 0.482 108 92 64 0 0
-0.0781 0.3307 -1.5964 -0.430 0.845 0.317 127 108 75 0 0
-0.0786 0.3363 -1.7126 -0.247 0.967 0.061 92 71 38 0 0
-0.0790 0.3382 -1.7336 -0.321 0.935 0.148 94 75 44 0 0
-0.0788 0.3385 -1.7557 -0.468 0.883 0.029 113 90 51 0 0
-0.0785 0.3378 -1.7617 -0.269 0.963 0.022 116 92 54 0 0
-0.0804 0.3446 -1.8078 -0.529 0.750 0.397 78 60 33 0 0
-0.0823 0.3508 -1.8374 -0.275 0.896 0.348 91 67 33 0 0
-0.0832 0.3537 -1.8468 -0.271 0.829 0.488 88 65 31 0 0
-0.0849 0.3592 -1.8715 -0.043 0.976 0.212 93 70 38 0 0
-0.0842 0.3576 -1.8784 -0.156 0.885 0.438 96 73 41 0 0
-0.0916 0.3853 -2.0875 -0.812 0.574 -0.103 78 54 24 0 0
-0.1033 0.4173 -2.1032 -0.382 0.882 0.277 81 64 31 0 0
-0.1187 0.4618 -2.1866 0.030 0.876 0.481 85 62 28 0 0
-0.1292 0.4909 -2.2096 -0.388 0.794 0.467 80 59 20 0 0
-0.1299 0.4930 -2.2138 -0.388 0.794 0.467 82 62 25 0 0
-0.0015 0.1129 -0.9391 -0.266 0.885 0.383 70 49 27 0 0
-0.0021 0.1147 -0.9479 -0.392 0.818 0.421 72 52 27 0 0
-0.0041 0.1302 -1.2091 -0.080 0.683 0.726 124 103 56 0 0
-0.0066 0.1372 -1.2161 -0.221 0.532 0.817 145 124 67 0 0
-0.0137 0.1588 -1.2824 0.068 0.988 0.138 99 82 54 0 0
-0.0196 0.1755 -1.3000 0.020 0.892 0.451 68 49 28 0 0
-0.0204 0.1776 -1.3041 0.020 0.892 0.451 84 64 39 0 0
-0.0263 0.1959 -1.3672 -0.348 0.869 0.351 76 53 21 0 0
-0.0284 0.2017 -1.3695 -0.143 0.751 0.645 93 74 44 0 0
-0.0741 0.3334 -1.6011 -0.235 0.320 0.918 143 117 77 0 0
-0.0755 0.3444 -1.7920 -0.116 0.923 0.367 89 64 32 0 0
-0.0787 0.3553 -1.8468 -0.367 0.853 0.372 84 61 27 0 0
-0.0784 0.3550 -1.8585 -0.292 0.875 0.386 93 70 38 0 0
-0.0820 0.3646 -1.8629 -0.191 0.858 0.477 91 68 36 0 0
-0.0942 0.4041 -2.0313 -0.335 0.928 0.166 100 78 45 0 0
-0.0988 0.4192 -2.1030 -0.382 0.882 0.277 76 57 27 0 0
-0.1036 0.4330 -2.1276 -0.378 0.851 0.365 79 56 24 0 0
-0.1135 0.4619 -2.1880 -0.122 0.854 0.506 84 61 27 0 0
-0.1241 0.4911 -2.2108 -0.290 0.850 0.440 83 62 22 0 0
-0.1249 0.4934 -2.2149 -0.197 0.816 0.544 84 65 27 0 0
-0.1327 0.5156 -2.2500 -0.233 0.911 0.341 93 75 36 0 0
0.0101 0.1048 -1.1904 -0.139 0.833 0.535 47 36 17 0 0
0.0064 0.1151 -1.1961 -0.107 0.661 0.742 92 74 33 0 0
0.0060 0.1163 -1.2007 -0.270 0.569 0.777 94 77 34 0 0
0.0005 0.1312 -1.2093 -0.179 0.647 0.741 117 96 47 0 0
-0.0008 0.1351 -1.2127 -0.258 0.569 0.781 142 119 68 0 0
-0.0033 0.1421 -1.2247 -0.275 0.958 0.078 122 99 57 0 0
-0.0065 0.1506 -1.2260 0.059 0.904 0.423 144 124 69 0 0
-0.0143 0.1721 -1.2365 -0.259 0.732 0.630 170 142 109 0 0
-0.0113 0.1654 -1.2698 -0.047 0.881 -0.470 62 42 17 0 0
-0.0089 0.1593 -1.2828 -0.049 0.887 0.458 80 63 34 0 0
-0.0096 0.1614 -1.2870 -0.049 0.887 0.458 59 41 18 0 0
-0.0148 0.1761 -1.3056 0.220 0.936 0.275 68 48 24 0 0
-0.0081 0.1594 -1.3342 -0.542 0.826 0.153 70 48 20 0 0
-0.0477 0.2703 -1.4589 -0.397 0.865 0.307 87 61 31 0 0
-0.0678 0.3296 -1.5990 -0.153 0.588 0.794 122 100 59 0 0
-0.0693 0.3338 -1.6018 -0.147 0.507 0.849 139 114 76 0 0
-0.0826 0.3717 -1.6639 -0.207 0.810 -0.549 85 62 30 0 0
-0.0743 0.3571 -1.8466 -0.367 0.853 0.372 82 59 25 0 0
-0.0773 0.3658 -1.8632 -0.191 0.858 0.477 91 68 36 0 0
-0.0792 0.3727 -1.9100 -0.286 0.875 0.390 86 61 30 0 0
-0.0857 0.3937 -1.9993 -0.404 0.897 0.178 81 57 28 0 0
-0.0897 0.4057 -2.0313 -0.485 0.862 0.145 96 74 41 0 0
-0.0970 0.4272 -2.0794 -0.600 0.781 0.173 80 59 30 0 0
-0.1064 0.4547 -2.1406 0.005 0.775 0.632 81 60 26 0 0
-0.1078 0.4604 -2.1846 -0.095 0.962 0.254 84 61 27 0 0
-0.1088 0.4631 -2.1883 -0.337 0.663 0.669 82 59 25 0 0
-0.1097 0.4657 -2.1922 -0.262 0.902 0.343 79 56 22 0 0
-0.1265 0.5126 -2.2418 -0.227 0.765 0.603 92 75 32 0 0
-0.1282 0.5174 -2.2497 -0.184 0.909 0.374 94 76 37 0 0
0.0102 0.1056 -0.9005 -0.028 0.692 0.721 173 146 109 0 0
0.0106 0.1172 -1.1959 -0.044 0.798 0.601 89 71 29 0 0
0.0099 0.1191 -1.2001 -0.330 0.705 0.628 97 79 34 0 0
0.0090 0.1219 -1.2039 -0.221 0.677 0.702 83 65 22 0 0
0.0057 0.1307 -1.2102 -0.191 0.552 0.812 120 96 49 0 0
-0.0045 0.1610 -1.2828 -0.342 0.921 0.185 70 51 27 0 0
-0.0050 0.1624 -1.2872 -0.338 0.880 0.335 58 39 21 0 0
-0.0035 0.1604 -1.3345 -0.155 0.923 0.353 92 71 32 0 0
-0.0184 0.2017 -1.3710 -0.259 0.871 0.418 106 85 52 0 0
-0.0190 0.2036 -1.3752 -0.259 0.871 0.418 115 94 56 0 0
-0.0285 0.2296 -1.3930 -0.194 0.824 0.532 209 183 144 0 0
-0.0478 0.2853 -1.4985 -0.071 0.673 0.737 203 174 118 0 0
-0.0632 0.3307 -1.5993 -0.453 0.648 0.612 129 105 74 0 0
-0.0778 0.3721 -1.6646 -0.150 0.828 -0.540 87 63 31 0 0
-0.0653 0.3450 -1.8107 -0.339 0.941 0.025 64 43 21 0 0
-0.0661 0.3474 -1.8148 -0.297 0.649 0.700 50 30 9 0 0
-0.0748 0.3747 -1.9097 -0.504 0.802 0.320 87 62 31 0 0
-0.0992 0.4488 -2.1289 -0.077 0.986 -0.148 79 56 25 0 0
-0.1219 0.5141 -2.2420 -0.227 0.765 0.603 97 80 37 0 0
-0.1228 0.5165 -2.2459 -0.279 0.793 0.542 95 78 34 0 0
0.0112 0.1190 -0.9714 -0.034 0.924 -0.382 79 58 32 0 0
0.0164 0.1150 -1.1924 -0.432 0.738 0.518 68 54 26 0 0
-0.0068 0.1779 -1.2252 -0.029 0.483 0.875 103 84 40 0 0
-0.0097 0.1856 -1.2267 0.113 0.794 0.597 121 100 66 0 0
-0.0001 0.1625 -1.2827 -0.466 0.859 0.210 66 47 26 0 0
-0.0004 0.1635 -1.2874 -0.466 0.859 0.210 56 40 22 0 0
-0.0045 0.1750 -1.3024 -0.323 0.537 0.779 53 35 17 0 0
-0.0145 0.2049 -1.3753 -0.259 0.871 0.418 112 89 57 0 0
-0.0162 0.2095 -1.3782 -0.134 0.681 0.720 153 131 98 0 0
-0.0562 0.3245 -1.5825 -0.079 0.699 0.710 82 66 41 0 0
-0.0573 0.3274 -1.5861 0.047 0.930 0.364 68 52 29 0 0
-0.0578 0.3295 -1.6009 -0.442 0.599 0.668 124 101 73 0 0
-0.0791 0.3870 -1.6235 -0.219 0.753 0.621 155 127 89 0 0
-0.0797 0.3887 -1.6278 -0.404 0.737 0.542 83 56 22 0 0
-0.0803 0.3904 -1.6320 -0.353 0.809 0.471 80 54 25 0 0
-0.0608 0.3461 -1.7997 -0.116 0.993 -0.000 99 77 41 0 0
-0.0607 0.3466 -1.8108 -0.288 0.737 0.611 53 33 10 0 0
-0.0625 0.3521 -1.8296 -0.273 0.936 0.223 88 65 31 0 0
-0.0655 0.3613 -1.8573 -0.670 0.693 0.267 93 70 36 0 0
-0.0661 0.3630 -1.8618 -0.247 0.909 0.335 96 73 41 0 0
-0.1082 0.4896 -2.2042 -0.596 0.735 0.323 82 62 27 0 0
-0.1096 0.4937 -2.2128 -0.244 0.786 0.569 83 63 26 0 0
-0.1100 0.4949 -2.2179 -0.442 0.676 0.590 84 64 27 0 0
-0.1112 0.4985 -2.2270 -0.257 0.658 0.708 85 66 26 0 0
-0.0047 0.1854 -1.2274 0.113 0.794 0.597 137 114 83 0 0
-0.0058 0.1883 -1.2311 0.113 0.794 0.597 123 98 69 0 0
-0.0051 0.1927 -1.3615 -0.333 0.710 0.621 118 98 66 0 0
-0.0337 0.2735 -1.4806 -0.216 0.950 0.227 67 40 13 0 0
-0.0339 0.2742 -1.4855 -0.228 0.898 0.376 66 43 12 0 0
-0.0450 0.3051 -1.5205 -0.270 0.887 0.376 64 40 15 0 0
-0.0454 0.3065 -1.5250 -0.099 0.918 0.385 71 47 19 0 0
-0.0460 0.3082 -1.5293 -0.099 0.918 0.385 71 45 18 0 0
-0.0445 0.3047 -1.5367 0.177 0.820 0.544 110 80 36 0 0
-0.0461 0.3101 -1.5654 -0.343 0.922 0.183 73 47 19 0 0
-0.0541 0.3329 -1.5998 -0.016 0.717 0.697 123 101 72 0 0
-0.0677 0.3695 -1.6143 -0.201 0.774 0.601 143 119 80 0 0
-0.0548 0.3428 -1.7749 -0.679 0.665 0.313 53 32 17 0 0
-0.0556 0.3460 -1.8009 -0.223 0.941 0.254 103 80 44 0 0
-0.0563 0.3482 -1.8107 -0.288 0.737 0.611 58 39 15 0 0
-0.0609 0.3626 -1.8575 -0.558 0.805 0.199 94 71 37 0 0
-0.0917 0.4573 -2.1547 -0.221 0.658 0.720 80 58 24 0 0
-0.1039 0.4918 -2.2037 -0.559 0.749 0.356 81 61 26 0 0
-0.1053 0.4963 -2.2181 -0.147 0.830 0.538 88 68 31 0 0
0.0195 0.1201 -0.9204 -0.458 0.751 0.476 60 40 21 0 0
0.0410 0.0682 -1.0142 -0.439 0.441 -0.783 181 182 185 0 0
0.0454 0.0568 -1.0231 -0.439 0.441 -0.783 179 181 187 0 0
0.0199 0.1324 -1.2013 -0.452 0.550 0.702 102 82 37 0 0
0.0187 0.1359 -1.2048 -0.452 0.550 0.702 132 107 60 0 0
-0.0012 0.1896 -1.2362 0.095 0.832 0.546 97 74 45 0 0
0.0104 0.1617 -1.2897 -0.315 0.739 0.595 33 25 6 0 0
0.0096 0.1640 -1.2937 -0.198 0.840 0.505 47 33 13 0 0
-0.0394 0.3035 -1.5223 0.091 0.988 0.125 64 41 15 0 0
-0.0388 0.3024 -1.5283 0.137 0.990 0.030 69 45 18 0 0
-0.0380 0.3005 -1.5347 0.225 0.863 0.452 68 42 14 0 0
-0.0417 0.3110 -1.5498 0.340 0.835 0.431 119 87 45 0 0
-0.0475 0.3282 -1.5929 -0.126 0.953 0.276 103 88 67 0 0
-0.0485 0.3310 -1.5965 0.096 0.847 0.524 91 72 54 0 0
-0.0646 0.3742 -1.6123 -0.346 0.460 0.818 142 117 83 0 0
-0.0517 0.3459 -1.7346 -0.238 0.956 0.170 59 39 12 0 0
-0.0510 0.3472 -1.8012 -0.223 0.941 0.254 109 85 51 0 0
-0.0514 0.3484 -1.8060 -0.223 0.941 0.254 90 69 36 0 0
-0.0517 0.3496 -1.8108 -0.223 0.941 0.254 63 43 17 0 0
-0.0525 0.3519 -1.8149 -0.249 0.835 0.491 74 53 28 0 0
-0.0533 0.3541 -1.8190 -0.249 0.835 0.491 72 50 20 0 0
-0.0542 0.3569 -1.8284 -0.155 0.896 0.417 83 59 25 0 0
-0.0709 0.4127 -2.0788 -0.464 0.870 0.170 83 60 28 0 0
-0.0936 0.4758 -2.1520 -0.135 0.795 0.592 82 60 25 0 0
-0.0949 0.4796 -2.1548 0.017 0.604 0.797 81 58 24 0 0
-0.1015 0.4998 -2.2164 -0.358 0.814 0.458 91 71 33 0 0
-0.1022 0.5021 -2.2266 -0.243 0.784 0.570 89 70 29 0 0
0.0251 0.1197 -0.9491 -0.553 0.773 0.310 79 59 36 0 0
0.0583 0.0370 -1.0406 -0.667 0.303 -0.681 179 182 187 0 0
0.0371 0.0986 -1.1610 -0.194 0.726 0.660 100 91 75 0 0
0.0361 0.1015 -1.1648 -0.367 0.636 0.679 86 72 44 0 0
0.0347 0.1051 -1.1683 -0.427 0.681 0.594 90 78 49 0 0
0.0339 0.1075 -1.1723 -0.492 0.679 0.544 80 70 44 0 0
0.0327 0.1108 -1.1760 -0.517 0.485 0.706 78 65 42 0 0
0.0321 0.1127 -1.1802 -0.274 0.804 0.528 85 71 48 0 0
0.0242 0.1342 -1.2012 -0.354 0.836 0.420 119 96 48 0 0
0.0045 0.1873 -1.2329 0.090 0.696 0.713 117 94 64 0 0
0.0156 0.1609 -1.2856 -0.162 0.971 0.174 34 27 11 0 0
0.0150 0.1627 -1.2899 -0.140 0.866 0.480 31 24 7 0 0
-0.0421 0.3270 -1.5892 -0.239 0.814 0.529 80 66 39 0 0
-0.0429 0.3293 -1.5931 -0.239 0.814 0.529 103 89 67 0 0
-0.0433 0.3304 -1.5978 -0.373 0.691 0.619 87 69 50 0 0
-0.0564 0.3652 -1.6082 -0.325 0.531 0.782 137 116 84 0 0
-0.0664 0.3921 -1.6231 -0.114 0.863 0.492 148 123 82 0 0
-0.0473 0.3506 -1.7942 -0.504 0.772 0.386 88 64 33 0 0
-0.0475 0.3514 -1.7993 -0.484 0.834 0.264 106 82 48 0 0
-0.0483 0.3547 -1.8254 0.006 0.906 0.423 88 64 30 0 0
-0.0524 0.3669 -1.8566 -0.139 0.966 0.216 95 72 40 0 0
-0.0548 0.3744 -1.8799 -0.323 0.886 0.333 92 69 37 0 0
-0.0628 0.4056 -2.0860 0.104 0.825 0.556 82 59 28 0 0
-0.0764 0.4423 -2.1097 -0.322 0.754 0.573 70 51 27 0 0
-0.0773 0.4448 -2.1135 -0.322 0.754 0.573 68 45 18 0 0
-0.0757 0.4413 -2.1288 -0.089 0.888 0.451 78 55 25 0 0
-0.0890 0.4806 -2.2168 -0.374 0.873 0.314 82 62 27 0 0
-0.0970 0.5017 -2.2222 -0.479 0.855 0.198 83 63 27 0 0
-0.0981 0.5048 -2.2256 -0.485 0.808 0.336 91 72 30 0 0
-0.0987 0.5066 -2.2301 -0.275 0.777 0.566 97 78 35 0 0
0.0296 0.1205 -0.9493 -0.499 0.744 0.445 74 55 32 0 0
0.0337 0.1118 -0.9902 -0.309 0.592 -0.745 111 100 84 0 0
0.0597 0.0465 -1.0377 -0.647 0.300 -0.701 179 182 187 0 0
0.0398 0.1048 -1.1640 -0.285 0.787 0.548 81 66 38 0 0
0.0379 0.1101 -1.1719 -0.184 0.721 0.668 87 73 46 0 0
0.0096 0.1870 -1.2338 0.109 0.760 0.641 107 82 54 0 0
0.0203 0.1619 -1.2910 -0.275 0.941 0.195 33 26 9 0 0
0.0080 0.1979 -1.3664 0.035 0.791 0.611 103 83 52 0 0
0.0050 0.2060 -1.3726 -0.183 0.714 0.676 107 84 50 0 0
0.0017 0.2152 -1.3836 -0.104 0.913 0.394 144 118 84 0 0
-0.0023 0.2262 -1.3935 -0.288 0.741 0.607 120 97 67 0 0
-0.0033 0.2289 -1.3973 -0.108 0.805 0.583 149 124 87 0 0
-0.0138 0.2574 -1.4186 0.047 0.870 0.490 119 91 51 0 0
-0.0173 0.2678 -1.4443 -0.409 0.901 0.146 99 76 35 0 0
-0.0242 0.2900 -1.5267 -0.198 0.667 0.718 59 38 8 0 0
-0.0417 0.3397 -1.6037 0.269 0.561 0.783 143 118 82 0 0
-0.0448 0.3478 -1.6041 0.053 0.840 0.539 119 97 61 0 0
-0.0518 0.3661 -1.6086 -0.665 0.455 0.592 127 110 77 0 0
-0.0459 0.3637 -1.8601 -0.236 0.808 0.540 93 70 38 0 0
-0.0478 0.3687 -1.8622 -0.291 0.888 0.355 97 74 42 0 0
-0.0517 0.3812 -1.9108 -0.145 0.961 0.235 84 61 29 0 0
-0.0720 0.4444 -2.1092 -0.294 0.747 0.596 71 52 27 0 0
-0.0925 0.5033 -2.2161 -0.527 0.785 0.327 89 69 30 0 0
-0.0926 0.5037 -2.2219 -0.541 0.804 0.247 81 61 25 0 0
-0.0938 0.5071 -2.2249 -0.485 0.808 0.336 89 70 28 0 0
-0.1019 0.5299 -2.2593 -0.040 0.510 0.859 90 78 54 0 0
0.0353 0.1162 -0.9091 -0.196 0.952 0.237 73 55 33 0 0
0.0331 0.1235 -0.9394 -0.294 0.926 0.239 76 56 34 0 0
0.0328 0.1246 -0.9437 -0.294 0.926 0.239 73 54 30 0 0
0.0356 0.1194 -0.9880 -0.416 0.553 -0.722 106 92 76 0 0
0.0600 0.0584 -1.0339 -0.684 0.293 -0.668 179 182 187 0 0
0.0648 0.0464 -1.0432 -0.731 0.244 -0.637 179 182 187 0 0
0.0443 0.1060 -1.1642 -0.559 0.737 0.379 69 53 26 0 0
0.0430 0.1097 -1.1676 -0.359 0.593 0.720 68 52 26 0 0
0.0432 0.1097 -1.1777 -0.455 0.788 0.414 70 51 25 0 0
0.0328 0.1456 -1.3461 -0.053 0.626 0.778 129 102 60 0 0
0.0035 0.2241 -1.3902 -0.106 0.786 0.609 116 94 61 0 0
0.0025 0.2268 -1.3939 -0.106 0.786 0.609 138 115 82 0 0
-0.0001 0.2338 -1.4007 0.004 0.725 0.689 157 128 85 0 0
-0.0069 0.2521 -1.4119 -0.018 0.798 0.602 132 104 60 0 0
-0.0086 0.2569 -1.4197 0.147 0.861 0.487 121 94 52 0 0
-0.0401 0.3484 -1.6046 0.074 0.540 0.838 123 98 59 0 0
-0.0368 0.3495 -1.7915 -0.099 0.994 0.040 90 67 34 0 0
-0.0414 0.3652 -1.8602 -0.150 0.665 0.732 93 70 38 0 0
-0.0426 0.3685 -1.8635 -0.270 0.764 0.586 95 72 40 0 0
-0.0876 0.5036 -2.2111 -0.431 0.884 0.182 92 73 34 0 0
-0.0876 0.5040 -2.2169 -0.048 0.959 0.279 87 68 29 0 0
-0.0983 0.5338 -2.2572 -0.030 0.990 0.135 92 80 57 0 0
0.0407 0.1146 -0.9101 -0.215 0.836 0.505 68 49 28 0 0
0.0397 0.1178 -0.9184 -0.112 0.871 0.478 79 58 28 0 0
0.0690 0.0489 -1.0478 -0.787 0.200 -0.583 180 182 186 0 0
0.0584 0.0827 -1.1643 -0.419 0.510 0.751 83 75 57 0 0
0.0504 0.1032 -1.1609 -0.337 0.654 0.678 80 63 34 0 0
0.0482 0.1091 -1.1635 -0.581 0.612 0.536 78 58 26 0 0
0.0452 0.1178 -1.1800 -0.235 0.550 0.801 81 61 27 0 0
0.0394 0.1334 -1.1934 -0.126 0.646 0.753 119 97 52 0 0
0.0238 0.1749 -1.2154 -0.098 0.669 0.737 143 114 70 0 0
0.0301 0.1631 -1.2970 0.093 0.957 0.274 36 25 9 0 0
0.0380 0.1454 -1.3470 -0.517 0.619 0.591 134 106 62 0 0
0.0363 0.1501 -1.3551 -0.624 0.304 0.720 119 92 46 0 0
0.0060 0.2308 -1.3979 -0.005 0.711 0.703 142 115 74 0 0
0.0048 0.2341 -1.4013 -0.005 0.711 0.703 176 149 103 0 0
-0.0021 0.2526 -1.4124 -0.018 0.798 0.602 129 99 57 0 0
-0.0046 0.2598 -1.4242 -0.320 0.881 0.348 124 97 58 0 0
-0.0160 0.2947 -1.5257 -0.349 0.701 0.622 69 46 15 0 0
-0.0253 0.3227 -1.6000 -0.106 0.625 0.773 151 129 99 0 0
-0.0361 0.3513 -1.6091 0.158 0.383 0.910 157 128 82 0 0
-0.0536 0.3980 -1.6383 -0.365 0.817 0.446 84 58 31 0 0
-0.0359 0.3574 -1.7365 -0.264 0.733 0.627 80 57 31 0 0
-0.0351 0.3606 -1.8302 -0.369 0.709 0.601 87 64 33 0 0
-0.0364 0.3650 -1.8500 -0.324 0.879 0.349 87 64 33 0 0
-0.0385 0.3709 -1.8572 -0.022 0.953 0.302 93 70 39 0 0
-0.0418 0.3801 -1.8734 -0.396 0.835 0.381 96 73 41 0 0
-0.0832 0.5056 -2.2106 -0.431 0.884 0.182 87 67 30 0 0
-0.0835 0.5066 -2.2159 -0.431 0.884 0.182 82 62 25 0 0
0.0438 0.1196 -0.9182 -0.346 0.797 0.495 90 69 40 0 0
0.0530 0.1096 -1.1639 -0.405 0.607 0.684 89 66 29 0 0
0.0518 0.1130 -1.1675 -0.440 0.641 0.629 88 67 32 0 0
0.0504 0.1167 -1.1710 -0.467 0.710 0.527 90 70 33 0 0
0.0499 0.1184 -1.1803 -0.494 0.552 0.673 107 87 52 0 0
0.0408 0.1505 -1.3348 -0.195 0.876 0.442 109 88 41 0 0
0.0305 0.1783 -1.3577 -0.544 0.735 0.405 129 104 64 0 0
0.0302 0.1794 -1.3623 -0.234 0.962 0.140 124 99 68 0 0
-0.0000 0.2610 -1.4295 -0.522 0.769 0.369 102 77 37 0 0
0.0001 0.2610 -1.4348 -0.413 0.842 0.348 94 69 29 0 0
-0.0007 0.2633 -1.4387 -0.262 0.925 0.276 96 71 31 0 0
-0.0031 0.2702 -1.4507 -0.280 0.668 0.689 90 65 26 0 0
-0.0077 0.2842 -1.4902 0.164 0.762 0.626 152 119 74 0 0
-0.0186 0.3175 -1.5826 -0.272 0.823 0.498 65 45 23 0 0
-0.0221 0.3275 -1.6034 -0.106 0.625 0.773 101 78 43 0 0
-0.0310 0.3509 -1.6103 0.199 0.413 0.889 155 128 84 0 0
-0.0489 0.3987 -1.6388 -0.212 0.846 0.489 74 50 21 0 0
-0.0221 0.3377 -1.7849 -0.045 0.883 0.467 58 38 19 0 0
-0.0324 0.3669 -1.8326 -0.224 0.893 0.389 88 65 34 0 0
-0.0360 0.3811 -1.9202 -0.220 0.822 0.525 76 53 22 0 0
-0.0378 0.3859 -1.9224 -0.461 0.795 0.395 75 51 23 0 0
-0.0679 0.4775 -2.1761 -0.032 0.975 0.220 79 56 23 0 0
-0.0755 0.4986 -2.2062 -0.523 0.777 0.351 83 63 28 0 0
-0.0789 0.5079 -2.2101 -0.531 0.655 0.538 84 64 27 0 0
-0.0844 0.5238 -2.2448 -0.537 0.689 0.487 85 67 27 0 0
0.0489 0.1188 -0.9143 -0.207 0.763 0.613 96 75 44 0 0
0.0481 0.1210 -0.9182 -0.119 0.894 0.432 86 65 36 0 0
0.0465 0.1262 -0.9352 -0.343 0.809 0.478 77 55 31 0 0
0.0458 0.1282 -0.9392 -0.343 0.809 0.478 75 55 28 0 0
0.0497 0.1216 -0.9983 -0.452 0.536 -0.713 98 82 60 0 0
0.0575 0.1110 -1.1639 -0.201 0.628 0.752 101 80 40 0 0
0.0561 0.1148 -1.1674 -0.281 0.672 0.685 92 72 37 0 0
0.0340 0.1743 -1.2170 0.225 0.781 0.582 143 121 83 0 0
0.0334 0.1761 -1.2212 0.157 0.912 0.380 111 89 57 0 0
0.0336 0.1763 -1.2312 -0.215 0.917 0.336 84 66 38 0 0
0.0040 0.2635 -1.4290 -0.522 0.769 0.369 93 68 28 0 0
-0.0010 0.2784 -1.4627 0.139 0.673 0.726 97 74 34 0 0
-0.0025 0.2822 -1.4659 -0.238 0.964 0.121 85 61 32 0 0
-0.0022 0.2830 -1.4918 0.007 0.823 0.569 178 143 96 0 0
-0.0032 0.2856 -1.4955 0.007 0.823 0.569 183 149 97 0 0
-0.0039 0.2900 -1.5409 0.018 0.996 0.093 74 50 16 0 0
-0.0149 0.3211 -1.5867 -0.323 0.938 0.122 46 28 10 0 0
-0.0140 0.3191 -1.5933 0.194 0.938 0.289 72 55 37 0 0
-0.0146 0.3208 -1.5977 -0.084 0.902 0.422 100 79 55 0 0
-0.0451 0.4012 -1.6328 -0.076 0.839 0.538 71 49 24 0 0
-0.0193 0.3434 -1.7821 -0.322 0.621 0.715 61 41 22 0 0
-0.0209 0.3481 -1.7901 -0.186 0.872 0.452 81 59 29 0 0
-0.0200 0.3461 -1.7972 -0.071 0.789 0.611 84 61 29 0 0
-0.0278 0.3681 -1.8328 -0.224 0.893 0.389 83 60 29 0 0
-0.0713 0.5011 -2.2054 -0.523 0.777 0.351 80 60 25 0 0
0.0486 0.1480 -1.1891 -0.473 0.803 0.363 125 98 49 0 0
0.0447 0.1586 -1.1995 -0.238 0.830 0.505 158 126 79 0 0
0.0439 0.1608 -1.2035 -0.238 0.830 0.505 160 131 84 0 0
0.0376 0.1786 -1.2308 -0.099 0.776 0.623 83 66 36 0 0
0.0364 0.1822 -1.2393 -0.101 0.856 0.507 86 67 38 0 0
0.0459 0.1603 -1.2799 -0.294 0.821 0.489 52 50 29 0 0
0.0451 0.1627 -1.2839 -0.445 0.810 0.382 40 37 15 0 0
0.0445 0.1644 -1.2882 -0.445 0.810 0.382 33 27 6 0 0
0.0439 0.1661 -1.2925 -0.445 0.810 0.382 44 38 15 0 0
0.0081 0.2657 -1.4286 -0.517 0.725 0.454 95 69 29 0 0
0.0053 0.2742 -1.4502 -0.107 0.805 0.584 96 69 32 0 0
0.0015 0.2845 -1.4601 -0.356 0.927 0.118 100 76 36 0 0
0.0016 0.2845 -1.4654 -0.460 0.880 -0.116 89 66 38 0 0
0.0066 0.2730 -1.4877 0.079 0.742 0.666 132 102 64 0 0
0.0054 0.2763 -1.4911 0.079 0.742 0.666 134 103 64 0 0
-0.0383 0.3960 -1.6264 -0.295 0.778 0.555 71 49 18 0 0
-0.0392 0.3986 -1.6301 -0.203 0.800 0.565 60 41 16 0 0
-0.0402 0.4014 -1.6337 -0.269 0.867 0.418 65 44 21 0 0
-0.0351 0.3899 -1.6628 -0.132 0.855 -0.501 94 73 44 0 0
-0.0225 0.3714 -1.8950 -0.367 0.836 0.408 85 63 34 0 0
-0.0232 0.3736 -1.8992 -0.246 0.880 0.406 82 59 31 0 0
-0.0292 0.3912 -1.9383 -0.293 0.918 0.266 73 49 23 0 0
-0.0667 0.5026 -2.2055 -0.529 0.750 0.398 78 58 23 0 0
0.0605 0.1134 -0.9076 -0.233 0.788 0.570 146 119 83 0 0
0.0590 0.1177 -0.9156 -0.132 0.912 0.389 87 64 33 0 0
0.0569 0.1272 -0.9830 -0.391 0.917 0.075 85 64 35 0 0
0.0749 0.0901 -1.1286 -0.304 0.910 0.281 184 188 189 0 0
0.0749 0.0903 -1.1335 -0.512 0.798 0.317 185 189 190 0 0
0.0743 0.0922 -1.1378 -0.199 0.952 0.234 186 188 190 0 0
0.0737 0.0946 -1.1518 -0.134 0.991 0.022 155 154 147 0 0
0.0605 0.1299 -1.1774 -0.480 0.652 0.587 109 86 44 0 0
0.0451 0.1714 -1.2146 0.065 0.742 0.667 97 77 44 0 0
0.0429 0.1777 -1.2269 -0.025 0.907 0.421 92 73 45 0 0
0.0491 0.1649 -1.2784 0.247 0.916 0.316 46 45 23 0 0
0.0493 0.1651 -1.2886 -0.167 0.845 0.509 38 29 6 0 0
0.0485 0.1674 -1.2926 -0.104 0.862 0.496 47 36 12 0 0
0.0580 0.1450 -1.3240 0.345 0.892 -0.293 73 56 30 0 0
0.0457 0.1776 -1.3446 -0.547 0.809 0.217 95 71 33 0 0
0.0124 0.2679 -1.4335 -0.400 0.779 0.484 94 68 32 0 0
0.0057 0.2866 -1.4599 -0.537 0.843 0.018 93 67 32 0 0
0.0102 0.2756 -1.4712 -0.034 0.818 0.574 69 47 22 0 0
0.0091 0.2788 -1.4747 0.058 0.639 0.767 57 37 15 0 0
0.0138 0.2714 -1.5537 0.067 0.996 0.052 88 60 27 0 0
-0.0148 0.3477 -1.6098 -0.429 0.245 0.870 160 136 103 0 0
-0.0339 0.3974 -1.6265 -0.203 0.800 0.565 70 50 23 0 0
-0.0348 0.3998 -1.6303 -0.203 0.800 0.565 62 44 21 0 0
-0.0327 0.3962 -1.6596 0.083 0.912 -0.401 92 72 42 0 0
-0.0109 0.3438 -1.7109 -0.181 0.818 0.546 92 75 48 0 0
-0.0123 0.3477 -1.7139 0.040 0.895 0.444 62 44 23 0 0
-0.0199 0.3762 -1.8637 -0.338 0.599 0.726 90 69 38 0 0
-0.0166 0.3696 -1.8975 -0.743 0.624 0.242 84 63 34 0 0
-0.0234 0.3892 -1.9352 -0.258 0.781 0.569 73 49 23 0 0
-0.0264 0.4031 -2.0370 -0.179 0.554 0.813 80 57 26 0 0
-0.0309 0.4148 -2.0395 -0.273 0.960 -0.058 98 74 37 0 0
-0.0363 0.4323 -2.1034 -0.072 0.960 0.271 101 78 37 0 0
-0.0747 0.5396 -2.2593 0.178 0.869 0.462 129 119 105 0 0
0.0594 0.1290 -0.9123 -0.419 0.876 0.238 86 63 32 0 0
0.0794 0.0911 -1.1238 0.051 0.961 0.271 163 164 165 0 0
0.0793 0.0919 -1.1285 -0.084 0.946 0.314 150 152 151 0 0
0.0789 0.0932 -1.1330 -0.049 0.964 0.261 138 140 139 0 0
0.0790 0.0931 -1.1380 -0.071 0.992 0.102 130 131 130 0 0
0.0782 0.0953 -1.1421 -0.345 0.923 0.170 126 124 123 0 0
0.0780 0.0961 -1.1468 -0.345 0.923 0.170 112 111 103 0 0
0.0677 0.1239 -1.1705 -0.412 0.755 0.511 112 92 50 0 0
0.0548 0.1581 -1.1960 -0.055 0.880 0.472 159 130 86 0 0
0.0469 0.1800 -1.2265 -0.337 0.837 0.432 84 68 42 0 0
0.0488 0.1760 -1.2384 0.078 0.725 0.684 88 71 42 0 0
0.0619 0.1490 -1.3385 -0.159 0.623 0.765 159 127 75 0 0
0.0508 0.1776 -1.3454 -0.508 0.694 0.510 120 92 52 0 0
0.0098 0.2887 -1.4595 -0.729 0.679 0.089 96 70 41 0 0
-0.0111 0.3510 -1.6087 -0.439 0.228 0.869 146 124 92 0 0
-0.0173 0.3671 -1.6147 -0.188 0.385 0.904 131 109 75 0 0
-0.0274 0.3955 -1.6611 0.211 0.917 -0.337 90 71 41 0 0
-0.0089 0.3632 -1.8976 -0.480 0.876 -0.044 86 65 36 0 0
-0.0198 0.3994 -2.0353 -0.195 0.766 0.613 79 55 27 0 0
-0.0219 0.4048 -2.0369 -0.278 0.602 0.749 80 57 26 0 0
-0.0259 0.4156 -2.0461 -0.003 0.966 0.257 134 107 68 0 0
-0.0351 0.4413 -2.0850 -0.245 0.969 0.003 83 61 27 0 0
-0.0337 0.4383 -2.0936 -0.519 0.826 0.219 98 78 39 0 0
-0.0546 0.4969 -2.1828 0.005 0.851 0.525 82 59 27 0 0
0.0636 0.1306 -0.9123 -0.390 0.876 0.284 84 61 30 0 0
0.0813 0.0950 -1.0586 -0.736 0.663 0.138 77 73 62 0 0
0.0818 0.0944 -1.0686 -0.881 0.471 0.049 75 70 66 0 0
0.0817 0.0949 -1.0733 -0.856 0.517 -0.004 76 72 69 0 0
0.0565 0.1676 -1.2126 -0.172 0.812 0.558 78 63 36 0 0
0.0556 0.1701 -1.2165 -0.172 0.812 0.558 72 58 31 0 0
0.0638 0.1537 -1.2851 0.076 0.995 -0.066 42 37 17 0 0
0.0632 0.1556 -1.2893 0.276 0.905 0.323 44 37 15 0 0
0.0624 0.1577 -1.2935 0.201 0.898 0.392 52 41 19 0 0
0.0699 0.1409 -1.3274 0.239 0.892 -0.385 63 43 17 0 0
0.0701 0.1411 -1.3378 -0.344 0.725 0.597 181 153 93 0 0
0.0537 0.1846 -1.3687 -0.182 0.707 0.683 67 49 26 0 0
0.0499 0.1947 -1.3793 -0.270 0.887 0.375 81 63 33 0 0
-0.0099 0.3652 -1.6822 -0.130 0.754 -0.644 88 70 40 0 0
-0.0055 0.3550 -1.6945 -0.034 0.776 -0.629 97 82 53 0 0
-0.0052 0.3630 -1.8353 -0.147 0.748 0.648 72 52 24 0 0
-0.0056 0.3646 -1.8456 -0.497 0.851 0.171 73 52 24 0 0
-0.0064 0.3670 -1.8496 -0.512 0.673 0.533 77 56 28 0 0
-0.0071 0.3757 -1.9598 -0.160 0.935 0.318 70 46 20 0 0
-0.0199 0.4132 -2.0374 0.336 0.849 0.408 106 83 46 0 0
-0.0602 0.5275 -2.2364 -0.348 0.883 0.316 87 67 30 0 0
-0.0611 0.5300 -2.2402 -0.003 0.835 0.550 88 68 31 0 0
0.0832 0.1036 -1.0706 -0.893 0.450 0.007 54 45 37 0 0
0.0754 0.1293 -1.1644 -0.533 0.709 0.462 109 90 48 0 0
0.0722 0.1381 -1.1758 -0.439 0.704 0.557 138 110 67 0 0
0.0602 0.1712 -1.2167 -0.172 0.812 0.558 70 54 27 0 0
0.0696 0.1521 -1.2865 0.115 0.943 0.311 40 34 13 0 0
0.0679 0.1568 -1.2946 0.200 0.912 0.358 57 43 20 0 0
0.0683 0.1562 -1.3001 0.258 0.963 -0.082 66 53 27 0 0
0.0457 0.2192 -1.3937 -0.042 0.648 0.760 135 107 66 0 0
0.0040 0.3445 -1.7080 -0.344 0.937 -0.066 91 74 44 0 0
0.0035 0.3461 -1.7125 -0.161 0.975 0.154 83 66 38 0 0
0.0024 0.3498 -1.7267 0.116 0.900 0.421 64 47 23 0 0
-0.0007 0.3647 -1.8352 -0.176 0.867 0.466 74 54 25 0 0
-0.0036 0.3735 -1.8576 -0.301 0.888 0.348 84 63 36 0 0
-0.0089 0.3967 -2.0101 0.255 0.865 0.432 77 54 23 0 0
-0.0122 0.4071 -2.0437 -0.056 0.624 0.779 104 80 42 0 0
-0.0136 0.4110 -2.0465 -0.061 0.603 0.795 117 90 50 0 0
-0.0149 0.4148 -2.0554 -0.014 0.976 0.219 98 72 37 0 0
-0.0358 0.4755 -2.1803 0.190 0.934 0.302 82 59 27 0 0
-0.0499 0.5125 -2.2022 -0.130 0.940 0.316 81 61 26 0 0
0.0727 0.1345 -0.9494 -0.134 0.927 0.350 44 32 16 0 0
0.0725 0.1363 -0.9676 -0.413 0.898 0.152 79 59 30 0 0
0.0860 0.1081 -1.0547 -0.151 0.989 0.012 53 41 22 0 0
0.0861 0.1081 -1.0596 -0.151 0.989 0.012 54 44 26 0 0
0.0863 0.1081 -1.0645 -0.302 0.950 0.077 59 50 35 0 0
0.0855 0.1103 -1.0686 -0.234 0.966 -0.107 60 52 40 0 0
0.0858 0.1107 -1.0881 -0.244 0.967 0.079 52 48 37 0 0
0.0858 0.1113 -1.0928 -0.229 0.941 0.248 48 44 35 0 0
0.0854 0.1124 -1.0973 -0.267 0.920 0.287 43 38 32 0 0
0.0838 0.1166 -1.1006 -0.654 0.736 0.174 49 44 38 0 0
0.0850 0.1140 -1.1065 -0.387 0.913 0.130 45 40 34 0 0
0.0768 0.1392 -1.1759 -0.233 0.938 0.256 111 85 47 0 0
0.0676 0.1630 -1.1858 -0.383 0.852 0.357 106 84 40 0 0
0.0763 0.1470 -1.2741 0.569 0.803 0.176 85 79 57 0 0
0.0761 0.1479 -1.2788 0.453 0.841 0.296 48 45 23 0 0
0.0733 0.1560 -1.2957 0.074 0.827 0.558 60 46 20 0 0
0.0850 0.1297 -1.3395 0.165 0.981 0.105 167 136 75 0 0
0.0271 0.2836 -1.4702 -0.391 0.917 -0.078 73 49 24 0 0
0.0277 0.2827 -1.4812 -0.602 0.778 0.181 139 112 69 0 0
0.0088 0.3379 -1.5982 0.254 0.777 0.576 147 125 83 0 0
0.0015 0.3570 -1.6078 -0.069 0.278 0.958 115 98 74 0 0
-0.0008 0.3627 -1.6096 -0.069 0.278 0.958 96 78 52 0 0
0.0087 0.3460 -1.7136 -0.233 0.972 -0.027 85 68 43 0 0
0.0079 0.3485 -1.7231 -0.367 0.873 0.322 78 60 37 0 0
0.0075 0.3500 -1.7277 -0.367 0.873 0.322 68 50 31 0 0
0.0011 0.3746 -1.8579 0.010 0.905 0.424 82 61 34 0 0
-0.0012 0.3879 -1.9706 -0.197 0.837 0.511 82 61 30 0 0
-0.0507 0.5298 -2.2372 -0.080 0.900 0.429 86 66 29 0 0
0.0838 0.1159 -0.9044 0.149 0.454 0.879 168 146 113 0 0
0.0782 0.1323 -0.9412 -0.203 0.956 0.211 81 61 37 0 0
0.0774 0.1360 -0.9635 -0.302 0.938 0.167 52 37 16 0 0
0.0773 0.1407 -1.0286 -0.787 0.477 -0.391 78 59 32 0 0
0.0793 0.1361 -1.0351 -0.623 0.649 -0.437 74 54 29 0 0
0.0807 0.1328 -1.0411 -0.469 0.781 -0.411 66 47 24 0 0
0.0818 0.1304 -1.0469 -0.282 0.907 -0.311 63 48 26 0 0
0.0840 0.1255 -1.0536 -0.153 0.954 -0.257 58 46 29 0 0
0.0903 0.1118 -1.0833 -0.124 0.991 0.048 52 46 36 0 0
0.0903 0.1120 -1.0881 -0.124 0.991 0.048 54 50 39 0 0
0.0909 0.1116 -1.1031 0.022 0.932 0.362 33 28 22 0 0
0.0903 0.1135 -1.1073 0.139 0.907 0.398 30 25 19 0 0
0.0892 0.1167 -1.1159 -0.169 0.934 0.316 29 24 18 0 0
0.0888 0.1180 -1.1204 -0.508 0.686 0.521 30 25 21 0 0
0.0879 0.1206 -1.1243 -0.629 0.574 0.524 31 26 21 0 0
0.0812 0.1408 -1.1759 -0.500 0.764 0.408 90 67 33 0 0
0.0836 0.1405 -1.2572 0.459 0.888 -0.002 85 70 44 0 0
0.0550 0.2215 -1.3994 -0.412 0.821 0.396 149 121 81 0 0
0.0188 0.3243 -1.5805 0.000 0.935 0.354 81 59 29 0 0
0.0179 0.3269 -1.5843 0.023 0.797 0.604 80 56 32 0 0
0.0120 0.3424 -1.5963 0.037 0.729 0.683 148 125 84 0 0
0.0105 0.3464 -1.5992 -0.242 0.761 0.602 130 109 75 0 0
0.0105 0.3569 -1.7520 -0.337 0.941 0.014 118 93 54 0 0
0.0100 0.3636 -1.8326 -0.271 0.911 0.310 66 46 22 0 0
0.0077 0.3742 -1.9058 -0.447 0.885 0.131 69 48 22 0 0
0.0005 0.3951 -1.9485 -0.276 0.747 0.604 72 48 23 0 0
-0.0087 0.4231 -2.0212 0.041 0.954 0.298 78 54 24 0 0
-0.0047 0.4171 -2.0804 -0.622 0.780 0.064 78 55 24 0 0
-0.0107 0.4326 -2.0857 -0.350 0.751 0.560 77 54 23 0 0
-0.0116 0.4350 -2.0897 -0.010 0.636 0.772 70 47 16 0 0
-0.0407 0.5179 -2.2375 -0.292 0.902 0.319 87 67 30 0 0
-0.0456 0.5305 -2.2443 -0.333 0.822 0.462 88 70 33 0 0
0.0865 0.1214 -0.9078 0.183 0.483 0.856 187 164 131 0 0
0.0819 0.1366 -0.9591 -0.302 0.938 0.167 27 15 5 0 0
0.0819 0.1369 -0.9637 -0.444 0.877 0.182 46 31 13 0 0
0.0917 0.1216 -1.0948 -0.655 0.742 -0.141 30 25 19 0 0
0.0898 0.1381 -1.2642 0.714 0.647 0.267 81 73 53 0 0
0.0398 0.2777 -1.4804 -0.258 0.870 0.420 97 74 37 0 0
0.0399 0.2781 -1.4909 0.144 0.919 0.367 144 115 72 0 0
0.0352 0.2904 -1.4998 -0.377 0.715 0.589 89 67 38 0 0
0.0156 0.3462 -1.6003 0.309 0.737 0.602 126 103 70 0 0
0.0142 0.3602 -1.7508 -0.141 0.847 0.513 119 93 55 0 0
0.0060 0.3940 -1.9447 -0.276 0.747 0.604 71 46 22 0 0
0.0051 0.3967 -1.9485 -0.276 0.747 0.604 71 47 22 0 0
-0.0254 0.4890 -2.1848 -0.208 0.953 0.219 82 61 29 0 0
-0.0266 0.4926 -2.1939 -0.432 0.892 0.137 83 61 29 0 0
-0.0361 0.5194 -2.2376 -0.292 0.902 0.319 88 68 32 0 0
-0.0409 0.5314 -2.2387 -0.080 0.900 0.429 87 68 29 0 0
-0.0410 0.5320 -2.2444 -0.293 0.883 0.367 94 75 39 0 0
0.0857 0.1399 -0.9678 -0.207 0.965 0.162 55 38 18 0 0
0.0783 0.1614 -1.0124 -0.561 0.798 0.222 64 44 21 0 0
0.0786 0.1609 -1.0173 -0.585 0.800 0.131 82 62 37 0 0
0.0909 0.1398 -1.1476 -0.679 0.686 0.262 100 79 46 0 0
0.1015 0.1263 -1.3276 0.435 0.835 0.337 89 68 35 0 0
0.0860 0.1670 -1.3604 0.064 0.790 0.609 98 77 48 0 0
0.0851 0.1695 -1.3644 0.050 0.491 0.870 98 76 52 0 0
0.0453 0.2766 -1.4819 -0.143 0.964 0.224 109 86 47 0 0
0.0449 0.2778 -1.4865 -0.115 0.950 0.290 137 111 69 0 0
0.0456 0.2766 -1.4925 -0.456 0.586 0.670 138 109 69 0 0
0.0312 0.3183 -1.5752 0.233 0.909 0.344 72 50 22 0 0
0.0216 0.3437 -1.5974 -0.242 0.782 0.575 143 120 83 0 0
0.0203 0.3471 -1.6006 -0.296 0.904 0.309 121 99 72 0 0
0.0128 0.3667 -1.6153 0.040 0.314 0.949 92 75 51 0 0
0.0204 0.3573 -1.7483 -0.204 0.790 0.578 113 91 52 0 0
0.0191 0.3669 -1.8381 -0.080 0.843 0.533 67 47 23 0 0
0.0008 0.4302 -2.0904 0.157 0.988 -0.000 74 53 24 0 0
0.0022 0.4274 -2.0988 0.182 0.904 0.387 80 59 28 0 0
-0.0165 0.4797 -2.1823 -0.527 0.556 0.643 85 62 30 0 0
0.1329 0.0308 -0.9045 0.128 0.117 0.985 176 177 181 0 0
0.0905 0.1393 -0.9591 -0.263 0.960 0.101 40 30 15 0 0
0.0901 0.1413 -0.9726 -0.257 0.941 0.221 69 51 31 0 0
0.0899 0.1423 -0.9770 -0.257 0.941 0.221 72 54 32 0 0
0.0811 0.1664 -1.0111 -0.620 0.674 0.401 63 42 21 0 0
0.0824 0.1636 -1.0169 -0.585 0.800 0.131 72 51 31 0 0
0.1068 0.1264 -1.3336 0.339 0.706 0.621 124 100 64 0 0
0.1056 0.1296 -1.3373 0.315 0.555 0.770 102 79 44 0 0
0.0938 0.1604 -1.3591 0.147 0.666 0.731 108 88 55 0 0
0.0755 0.2084 -1.3980 -0.480 0.788 0.386 141 113 76 0 0
0.0745 0.2111 -1.4019 -0.482 0.673 0.561 148 117 76 0 0
0.0734 0.2142 -1.4056 -0.332 0.651 0.682 144 117 78 0 0
0.0515 0.2738 -1.4843 -0.712 0.586 0.387 125 103 64 0 0
0.0507 0.2762 -1.4883 -0.498 0.567 0.656 138 111 70 0 0
0.0269 0.3431 -1.5987 -0.656 0.675 0.336 127 108 72 0 0
0.0260 0.3457 -1.6025 -0.357 0.636 0.685 134 116 90 0 0
0.0202 0.3605 -1.6094 -0.472 0.171 0.865 96 80 57 0 0
0.0181 0.3656 -1.6115 -0.472 0.171 0.865 91 75 52 0 0
0.0177 0.3671 -1.6160 -0.356 0.383 0.852 99 83 59 0 0
0.0155 0.3726 -1.6179 -0.242 0.554 0.796 101 83 52 0 0
0.0252 0.3584 -1.7542 -0.031 0.962 -0.271 120 93 55 0 0
0.0138 0.4007 -1.9479 0.089 0.894 0.438 71 51 25 0 0
0.0114 0.4146 -2.0561 -0.190 0.912 -0.365 103 78 44 0 0
0.1305 0.0489 -0.9041 0.062 0.270 0.961 176 177 180 0 0
0.1272 0.0573 -0.9062 0.062 0.270 0.961 175 174 172 0 0
0.0958 0.1379 -0.9506 -0.141 0.880 0.454 78 59 35 0 0
0.0954 0.1391 -0.9549 -0.218 0.946 0.240 73 59 40 0 0
0.0949 0.1406 -0.9591 -0.243 0.962 0.128 40 26 13 0 0
0.0942 0.1432 -0.9724 -0.193 0.956 0.220 69 52 33 0 0
0.0985 0.1463 -1.1561 -0.436 0.801 0.411 78 53 27 0 0
0.0981 0.1477 -1.1605 -0.432 0.768 0.472 67 44 17 0 0
0.0974 0.1498 -1.1646 -0.432 0.768 0.472 63 43 18 0 0
0.1178 0.1081 -1.2799 -0.520 0.838 0.163 70 58 37 0 0
0.1175 0.1092 -1.2847 -0.470 0.871 0.141 53 41 23 0 0
0.1120 0.1263 -1.3343 -0.187 0.715 0.673 116 94 62 0 0
0.0851 0.1963 -1.3840 -0.109 0.502 0.858 128 103 72 0 0
0.0811 0.2064 -1.3893 -0.325 0.662 0.676 113 91 60 0 0
0.0808 0.2075 -1.3940 -0.382 0.695 0.609 134 110 74 0 0
0.0797 0.2105 -1.3977 -0.470 0.790 0.393 145 117 76 0 0
0.0787 0.2136 -1.4067 -0.728 0.498 0.472 137 111 77 0 0
0.0761 0.2202 -1.4085 -0.505 0.521 0.689 142 116 79 0 0
0.0426 0.3158 -1.5840 0.438 0.776 0.453 84 60 26 0 0
0.0309 0.3456 -1.5981 -0.254 0.855 0.452 128 106 68 0 0
0.0244 0.3624 -1.6091 -0.292 0.233 0.928 95 80 57 0 0
0.0216 0.3696 -1.6154 -0.612 0.175 0.771 110 94 70 0 0
0.0188 0.3766 -1.6163 -0.625 0.499 0.600 99 80 50 0 0
0.0306 0.3592 -1.7717 0.002 0.884 0.468 77 56 29 0 0
0.0301 0.3606 -1.7764 0.298 0.739 0.604 79 58 30 0 0
0.0288 0.3653 -1.7958 -0.288 0.906 0.311 93 74 45 0 0
0.0353 0.3537 -1.8558 -0.127 0.823 0.554 73 53 26 0 0
0.0185 0.4041 -1.9760 -0.356 0.865 0.355 88 67 36 0 0
0.0178 0.4067 -1.9859 -0.084 0.793 0.603 83 62 31 0 0
0.1356 0.0486 -0.9046 0.123 0.307 0.944 176 177 180 0 0
0.1291 0.0649 -0.9090 0.110 0.231 0.967 153 147 138 0 0
0.1008 0.1373 -0.9466 -0.262 0.852 0.453 68 50 24 0 0
0.1002 0.1391 -0.9507 -0.218 0.946 0.240 63 46 24 0 0
0.0999 0.1402 -0.9551 -0.218 0.946 0.240 59 42 25 0 0
0.1010 0.1539 -1.1735 -0.051 0.928 0.368 64 43 18 0 0
0.0977 0.1642 -1.2042 -0.130 0.896 0.424 81 62 34 0 0
0.1149 0.1330 -1.3477 0.199 0.697 0.689 88 68 40 0 0
0.1026 0.1643 -1.3640 -0.066 0.890 0.450 112 90 57 0 0
0.1012 0.1680 -1.3674 -0.171 0.747 0.642 119 96 67 0 0
0.1004 0.1704 -1.3715 -0.322 0.730 0.603 118 98 69 0 0
0.0373 0.3552 -1.7699 0.406 0.769 0.494 73 48 17 0 0
0.0395 0.3563 -1.8551 -0.415 0.768 0.487 73 53 26 0 0
0.0250 0.4007 -1.9740 -0.215 0.972 0.093 89 68 37 0 0
0.0241 0.4042 -1.9891 -0.037 0.911 0.412 81 60 29 0 0
0.0169 0.4268 -2.0548 0.199 0.527 0.826 83 61 29 0 0
0.0157 0.4304 -2.0639 0.013 0.905 0.426 81 59 28 0 0
-0.0114 0.5066 -2.1932 -0.247 0.761 0.600 81 57 25 0 0
-0.0143 0.5145 -2.2045 0.269 0.818 0.509 81 61 27 0 0
-0.0085 0.5032 -2.2400 -0.360 0.783 0.508 85 65 30 0 0
-0.0206 0.5360 -2.2843 -0.048 0.744 0.666 199 199 201 0 0
0.1408 0.0483 -0.9052 0.123 0.307 0.944 176 177 180 0 0
0.1397 0.0513 -0.9090 0.213 0.161 0.964 176 178 181 0 0
0.1053 0.1382 -0.9468 -0.372 0.832 0.411 64 47 21 0 0
0.1043 0.1412 -0.9552 -0.218 0.946 0.240 55 38 20 0 0
0.1030 0.1461 -0.9772 -0.193 0.956 0.220 72 54 30 0 0
0.1039 0.1450 -0.9918 -0.276 0.961 0.002 65 47 24 0 0
0.1029 0.1496 -1.0189 -0.377 0.870 0.317 64 46 26 0 0
0.1068 0.1510 -1.1603 -0.314 0.884 0.346 49 28 6 0 0
0.1053 0.1549 -1.1637 -0.532 0.766 0.360 51 33 9 0 0
0.1325 0.1007 -1.3216 0.469 0.871 0.145 80 71 54 0 0
0.1224 0.1285 -1.3613 -0.506 0.734 0.453 103 82 51 0 0
0.1220 0.1298 -1.3660 -0.513 0.451 0.730 88 69 39 0 0
0.1066 0.1675 -1.3684 -0.254 0.796 0.550 109 87 52 0 0
0.1057 0.1700 -1.3725 -0.254 0.796 0.550 97 74 42 0 0
0.0862 0.2198 -1.3998 -0.237 0.802 0.549 162 134 96 0 0
0.0858 0.2215 -1.4094 -0.107 0.947 0.302 166 138 96 0 0
0.0848 0.2243 -1.4132 -0.087 0.817 0.570 150 121 79 0 0
0.0837 0.2272 -1.4170 -0.042 0.804 0.593 163 134 94 0 0
0.0812 0.2348 -1.4341 -0.593 0.759 0.268 106 83 44 0 0
0.0289 0.3759 -1.6079 -0.151 0.288 0.946 126 109 88 0 0
0.0466 0.3420 -1.7292 -0.229 0.640 0.733 77 61 38 0 0
0.0437 0.3586 -1.8545 -0.349 0.800 0.488 72 52 25 0 0
0.0451 0.3558 -1.8624 -0.093 0.850 0.519 73 53 26 0 0
0.0407 0.3678 -1.8769 -0.200 0.804 0.560 78 57 28 0 0
0.0391 0.3717 -1.8798 -0.214 0.962 0.170 81 60 31 0 0
0.0313 0.3975 -1.9659 -0.305 0.805 0.510 86 65 34 0 0
0.0304 0.4000 -1.9699 -0.338 0.857 0.389 85 64 33 0 0
0.0298 0.4018 -1.9744 -0.338 0.857 0.389 88 67 36 0 0
0.0219 0.4295 -2.0842 -0.214 0.647 0.732 82 59 27 0 0
0.0255 0.4226 -2.1084 -0.084 0.829 0.553 98 75 39 0 0
0.0182 0.4403 -2.1056 -0.516 0.748 0.417 157 127 78 0 0
0.0175 0.4423 -2.1100 -0.516 0.748 0.417 163 131 84 0 0
-0.0175 0.5380 -2.2400 -0.638 0.691 0.340 86 67 31 0 0
-0.0186 0.5414 -2.2493 -0.600 0.732 0.324 74 60 39 0 0
0.1459 0.0482 -0.9057 0.108 0.314 0.943 175 178 181 0 0
0.1108 0.1350 -0.9249 0.139 0.871 0.471 77 55 28 0 0
0.1109 0.1352 -0.9295 -0.179 0.956 0.233 86 65 37 0 0
0.1096 0.1401 -0.9514 -0.194 0.918 0.346 54 37 15 0 0
0.1093 0.1415 -0.9603 -0.046 0.782 0.622 65 48 29 0 0
0.1080 0.1456 -0.9731 -0.045 0.983 0.178 75 57 35 0 0
0.1412 0.0926 -1.3261 -0.299 0.908 -0.292 138 134 125 0 0
0.1272 0.1287 -1.3513 -0.056 0.995 0.079 100 84 60 0 0
0.1285 0.1259 -1.3580 -0.205 0.979 0.012 109 93 67 0 0
0.1264 0.1313 -1.3607 -0.552 0.630 0.546 105 85 56 0 0
0.1256 0.1336 -1.3648 -0.645 0.394 0.655 102 83 53 0 0
0.1123 0.1668 -1.3749 -0.142 0.949 0.280 134 110 77 0 0
0.0907 0.2212 -1.3998 -0.255 0.805 0.535 151 119 85 0 0
0.0899 0.2234 -1.4039 -0.306 0.833 0.461 166 137 97 0 0
0.0901 0.2234 -1.4092 -0.464 0.765 0.446 176 149 99 0 0
0.0896 0.2251 -1.4136 -0.387 0.764 0.517 164 136 90 0 0
0.0888 0.2274 -1.4177 -0.387 0.764 0.517 165 136 95 0 0
0.0856 0.2364 -1.4340 -0.538 0.704 0.464 116 92 57 0 0
0.0851 0.2380 -1.4385 -0.229 0.960 0.159 114 89 58 0 0
0.0728 0.2703 -1.4685 -0.150 0.893 0.425 76 53 24 0 0
0.0337 0.3763 -1.6086 -0.316 0.286 0.905 114 98 75 0 0
0.0322 0.3804 -1.6114 -0.438 0.168 0.883 91 73 49 0 0
0.0207 0.4102 -1.6353 -0.227 0.959 0.169 95 74 42 0 0
0.0493 0.3582 -1.8618 -0.281 0.855 0.436 73 53 26 0 0
0.0349 0.4018 -1.9698 -0.232 0.944 0.235 86 65 34 0 0
0.0380 0.3999 -2.0432 -0.022 0.789 0.615 78 57 26 0 0
0.0262 0.4329 -2.0949 -0.054 0.700 0.712 89 64 32 0 0
0.0224 0.4428 -2.1048 -0.288 0.937 0.199 151 121 72 0 0
0.0222 0.4438 -2.1100 -0.288 0.937 0.199 164 132 87 0 0
-0.0153 0.5486 -2.2816 -0.305 0.808 0.504 203 203 205 0 0
-0.0163 0.5512 -2.2854 -0.681 0.479 0.553 205 205 207 0 0
0.1511 0.0480 -0.9110 0.283 0.206 0.937 176 178 181 0 0
0.1156 0.1352 -0.9253 0.118 0.854 0.506 97 76 46 0 0
0.1154 0.1362 -0.9296 -0.180 0.950 0.256 84 63 33 0 0
0.1143 0.1397 -0.9425 -0.236 0.916 0.325 72 53 26 0 0
0.1142 0.1405 -0.9470 -0.210 0.946 0.245 68 50 24 0 0
0.1131 0.1441 -0.9599 -0.183 0.857 0.482 69 50 32 0 0
0.1125 0.1460 -0.9640 -0.203 0.967 0.152 68 49 26 0 0
0.1148 0.1494 -1.0782 -0.302 0.948 -0.103 62 44 20 0 0
0.1149 0.1557 -1.1596 -0.130 0.883 0.451 52 34 13 0 0
0.1467 0.0923 -1.3323 0.473 0.776 0.418 121 117 112 0 0
0.1336 0.1258 -1.3534 0.302 0.930 0.210 101 85 60 0 0
0.1307 0.1334 -1.3604 -0.453 0.663 0.596 100 82 54 0 0
0.1294 0.1368 -1.3640 -0.591 0.478 0.650 111 91 64 0 0
0.1196 0.1609 -1.3680 -0.022 0.999 -0.040 103 82 50 0 0
0.0378 0.3787 -1.6081 -0.085 0.376 0.923 92 77 49 0 0
0.0360 0.3832 -1.6106 -0.227 0.538 0.812 114 96 65 0 0
0.0345 0.3870 -1.6136 -0.192 0.555 0.809 154 129 93 0 0
0.0401 0.3787 -1.6789 -0.174 0.714 -0.679 72 53 27 0 0
0.0540 0.3493 -1.7320 0.133 0.911 0.390 63 47 24 0 0
0.0522 0.3646 -1.8699 0.088 0.974 0.211 74 52 27 0 0
0.0412 0.4004 -1.9840 -0.523 0.534 0.665 85 64 35 0 0
0.0268 0.4450 -2.1043 -0.400 0.851 0.342 160 132 83 0 0
0.0262 0.4466 -2.1090 -0.400 0.851 0.342 156 125 83 0 0
0.1207 0.1349 -0.9258 0.118 0.854 0.506 123 100 67 0 0
0.1185 0.1415 -0.9424 -0.160 0.951 0.266 70 50 22 0 0
0.1186 0.1421 -0.9517 -0.194 0.918 0.346 60 41 22 0 0
0.1175 0.1450 -0.9554 -0.069 0.977 0.204 50 31 16 0 0
0.1118 0.1595 -0.9645 -0.583 0.809 0.067 64 44 22 0 0
0.1181 0.1493 -1.0254 0.148 0.978 0.146 62 42 23 0 0
0.1544 0.0872 -1.3408 -0.419 0.663 -0.620 150 146 140 0 0
0.1242 0.1623 -1.3681 -0.245 0.957 0.158 112 90 59 0 0
0.0553 0.3478 -1.6014 -0.078 0.344 0.936 107 87 54 0 0
0.0449 0.3734 -1.6070 -0.192 0.222 0.956 107 91 64 0 0
0.0421 0.3803 -1.6080 0.029 0.501 0.865 85 67 41 0 0
0.0402 0.3851 -1.6103 -0.092 0.661 0.745 112 94 62 0 0
0.0389 0.3885 -1.6136 -0.192 0.555 0.809 139 117 81 0 0
0.0370 0.3937 -1.6210 -0.062 0.827 0.558 93 72 44 0 0
0.0596 0.3482 -1.7338 -0.005 0.855 0.518 66 49 26 0 0
0.0596 0.3593 -1.8691 -0.101 0.730 0.676 77 56 29 0 0
0.0573 0.3649 -1.8709 -0.135 0.989 0.067 77 56 29 0 0
0.0569 0.3672 -1.8867 -0.086 0.926 0.368 87 66 35 0 0
0.0564 0.3689 -1.8913 -0.147 0.869 0.472 82 61 30 0 0
0.0398 0.4196 -2.0238 0.040 0.959 0.279 75 53 25 0 0
0.0074 0.5147 -2.2290 -0.533 0.760 0.370 85 65 30 0 0
0.0045 0.5217 -2.2287 -0.151 0.821 0.551 83 65 30 0 0
0.0027 0.5295 -2.2715 -0.281 0.939 0.201 109 103 91 0 0
0.1241 0.1391 -0.9343 0.243 0.863 0.443 84 64 29 0 0
0.1231 0.1427 -0.9472 -0.092 0.958 0.270 64 46 23 0 0
0.1209 0.1500 -0.9731 -0.334 0.901 0.275 70 51 27 0 0
0.1252 0.1469 -1.0607 -0.119 0.962 0.246 70 52 32 0 0
0.1243 0.1495 -1.0646 -0.191 0.967 0.166 56 37 17 0 0
0.1243 0.1573 -1.1602 0.047 0.982 0.180 58 40 17 0 0
0.1619 0.0783 -1.2978 -0.295 0.954 -0.043 198 198 200 0 0
0.1620 0.0786 -1.3030 -0.369 0.929 0.023 198 198 200 0 0
0.1621 0.0787 -1.3082 -0.369 0.929 0.023 200 199 203 0 0
0.1591 0.0889 -1.3461 -0.573 0.662 -0.483 158 156 150 0 0
0.0474 0.3797 -1.6093 0.243 0.567 0.787 95 74 48 0 0
0.0454 0.3847 -1.6116 0.275 0.835 0.476 111 90 58 0 0
0.0371 0.4066 -1.6352 -0.421 0.771 0.478 90 69 37 0 0
0.0451 0.4197 -2.0250 0.040 0.959 0.279 75 54 23 0 0
0.0364 0.4449 -2.0766 -0.424 0.625 0.656 78 56 24 0 0
0.0354 0.4477 -2.0803 -0.286 0.895 0.343 76 56 23 0 0
0.0093 0.5229 -2.2291 -0.151 0.821 0.551 82 63 31 0 0
0.0101 0.5223 -2.2484 -0.598 0.563 0.570 90 71 37 0 0
0.0004 0.5489 -2.2859 -0.219 0.967 0.130 205 205 207 0 0
0.1252 0.1519 -0.9776 -0.138 0.955 0.262 52 34 12 0 0
0.1297 0.1482 -1.0608 -0.185 0.945 0.270 73 55 35 0 0
0.1302 0.1483 -1.0754 -0.546 0.835 0.060 65 42 24 0 0
0.1316 0.1495 -1.1292 -0.691 0.671 0.268 61 43 22 0 0
0.1666 0.0798 -1.2979 -0.295 0.954 -0.043 199 200 204 0 0
0.1668 0.0796 -1.3032 -0.295 0.954 -0.043 199 200 204 0 0
0.1671 0.0794 -1.3086 -0.295 0.954 -0.043 198 201 203 0 0
0.1667 0.0807 -1.3133 -0.369 0.929 0.023 198 201 203 0 0
0.1668 0.0839 -1.3546 0.571 0.544 0.614 122 117 109 0 0
0.1362 0.1592 -1.3765 0.147 0.935 0.321 113 94 61 0 0
0.1353 0.1617 -1.3805 -0.356 0.528 0.771 123 104 70 0 0
0.1211 0.1969 -1.3944 -0.013 0.798 0.603 149 127 92 0 0
0.0994 0.2535 -1.4493 -0.404 0.837 0.369 91 67 38 0 0
0.0487 0.3935 -1.6666 -0.253 0.697 -0.671 93 79 56 0 0
0.0530 0.3842 -1.6783 -0.388 0.621 -0.680 83 71 49 0 0
0.0622 0.3645 -1.7081 -0.297 0.734 0.611 77 61 39 0 0
0.0580 0.3891 -1.8785 -0.069 0.767 0.638 82 61 30 0 0
0.0658 0.3736 -1.9195 -0.153 0.776 0.613 77 56 27 0 0
0.0574 0.3987 -1.9772 -0.462 0.863 0.203 85 64 35 0 0
0.0573 0.3994 -1.9826 -0.269 0.935 0.230 83 62 33 0 0
0.0283 0.4849 -2.1720 -0.437 0.793 0.425 80 57 25 0 0
0.0253 0.4931 -2.1832 -0.274 0.947 0.169 81 58 26 0 0
0.0251 0.4940 -2.1886 -0.228 0.959 0.169 79 56 24 0 0
0.1315 0.1505 -0.9977 -0.065 0.944 0.322 63 45 21 0 0
0.1351 0.1542 -1.1428 -0.384 0.777 0.498 58 41 20 0 0
0.1347 0.1563 -1.1569 -0.467 0.864 0.187 58 39 17 0 0
0.1351 0.1572 -1.1765 -0.624 0.620 0.475 60 38 21 0 0
0.1704 0.0840 -1.3072 -0.713 0.681 0.169 198 200 201 0 0
0.1414 0.1589 -1.3721 -0.145 0.269 0.952 108 90 63 0 0
0.1419 0.1582 -1.3778 0.010 0.911 0.413 105 85 55 0 0
0.1425 0.1571 -1.3836 0.134 0.426 0.895 116 98 67 0 0
0.1372 0.1707 -1.3927 -0.058 0.853 0.519 121 98 65 0 0
0.1267 0.1960 -1.3957 -0.211 0.899 0.384 149 123 83 0 0
0.1249 0.2010 -1.4038 0.031 0.669 0.742 91 71 42 0 0
0.0538 0.3934 -1.6677 -0.118 0.756 -0.644 87 72 50 0 0
0.0575 0.3856 -1.6784 -0.225 0.747 -0.625 69 56 36 0 0
0.0676 0.3639 -1.7095 -0.484 0.867 0.122 73 59 37 0 0
0.0453 0.4531 -2.1274 -0.355 0.876 0.328 79 56 25 0 0
0.0424 0.4606 -2.1332 -0.289 0.894 0.343 78 55 24 0 0
0.0275 0.5030 -2.2130 -0.197 0.806 0.558 70 47 15 0 0
0.0095 0.5493 -2.2509 -0.000 0.939 0.345 95 87 69 0 0
0.1390 0.1424 -0.9773 -0.087 0.995 0.048 69 48 25 0 0
0.1370 0.1478 -0.9849 -0.027 0.710 0.703 63 45 23 0 0
0.1380 0.1522 -1.0604 -0.648 0.750 0.135 66 45 26 0 0
0.1387 0.1564 -1.1276 -0.635 0.695 0.337 60 42 22 0 0
0.1378 0.1621 -1.1701 -0.591 0.756 0.281 55 38 18 0 0
0.1774 0.0845 -1.3612 0.010 0.992 -0.129 159 159 155 0 0
0.1469 0.1587 -1.3783 0.047 0.935 0.352 107 87 61 0 0
0.1432 0.1690 -1.3944 0.058 0.858 0.510 125 104 69 0 0
0.1313 0.1973 -1.3958 -0.314 0.907 0.280 141 113 76 0 0
0.0714 0.3580 -1.6043 -0.463 0.873 -0.155 102 86 60 0 0
0.0666 0.4029 -1.9884 0.304 0.834 0.460 82 61 32 0 0
0.0611 0.4224 -2.0630 -0.379 0.781 0.496 78 57 29 0 0
0.0470 0.4623 -2.1331 -0.377 0.840 0.390 77 54 22 0 0
0.0153 0.5475 -2.2479 -0.495 0.704 0.509 76 62 37 0 0
0.1428 0.1457 -0.9814 0.183 0.979 0.093 66 44 22 0 0
0.1399 0.1552 -1.0115 -0.052 0.771 0.635 64 46 23 0 0
0.1383 0.1600 -1.0241 -0.292 0.888 0.356 58 37 18 0 0
0.1419 0.1593 -1.1121 -0.502 0.800 0.329 59 41 21 0 0
0.1423 0.1601 -1.1316 -0.676 0.704 0.219 60 42 22 0 0
0.1461 0.1522 -1.1448 -0.151 0.989 0.008 57 39 19 0 0
0.1819 0.0866 -1.3610 -0.195 0.887 -0.418 196 198 199 0 0
0.1848 0.0808 -1.3745 0.663 0.670 0.336 103 97 85 0 0
0.1536 0.1552 -1.3808 0.234 0.874 0.426 100 83 59 0 0
0.1100 0.2700 -1.5068 -0.088 0.424 0.901 88 66 35 0 0
0.0734 0.3659 -1.6112 0.173 0.943 0.283 92 73 48 0 0
0.0771 0.3850 -1.9263 -0.260 0.960 0.104 78 57 28 0 0
0.0725 0.4041 -2.0187 -0.490 0.847 0.207 73 52 25 0 0
0.0621 0.4337 -2.0732 -0.361 0.837 0.412 76 55 24 0 0
0.0507 0.4658 -2.1315 -0.159 0.824 0.543 77 54 23 0 0
0.0316 0.5194 -2.2259 -0.472 0.725 0.502 86 65 34 0 0
0.0197 0.5496 -2.2474 -0.243 0.681 0.691 80 68 45 0 0
0.1464 0.1516 -1.0133 0.103 0.856 0.507 67 49 26 0 0
0.1433 0.1600 -1.0246 -0.452 0.887 0.099 59 39 20 0 0
0.1425 0.1623 -1.0286 -0.401 0.734 0.548 64 43 24 0 0
0.1901 0.0809 -1.3753 0.546 0.815 -0.193 176 177 173 0 0
0.1320 0.2242 -1.4419 -0.107 0.954 0.280 109 86 61 0 0
0.1302 0.2287 -1.4448 0.018 0.718 0.696 108 88 61 0 0
0.0788 0.3644 -1.6022 0.245 0.752 0.611 103 87 61 0 0
0.0803 0.3619 -1.6146 -0.087 0.840 0.535 98 81 54 0 0
0.0781 0.4001 -1.9812 0.057 0.963 0.265 80 59 30 0 0
0.0781 0.4011 -1.9923 -0.076 0.767 0.637 76 55 27 0 0
0.0594 0.4595 -2.1508 -0.245 0.910 0.334 79 56 24 0 0
0.0351 0.5240 -2.2293 -0.532 0.789 0.307 79 59 27 0 0
0.0344 0.5260 -2.2337 -0.295 0.911 0.288 85 66 33 0 0
0.1553 0.1549 -1.1500 -0.204 0.978 0.039 65 47 23 0 0
0.1554 0.1551 -1.1549 -0.204 0.978 0.039 59 43 20 0 0
0.1555 0.1553 -1.1598 -0.204 0.978 0.039 66 50 30 0 0
0.1328 0.2368 -1.4680 -0.670 0.732 0.127 104 87 60 0 0
0.1273 0.2511 -1.4815 -0.633 0.752 0.186 71 52 27 0 0
0.1136 0.2911 -1.5666 -0.079 0.403 0.912 76 53 20 0 0
0.0852 0.3998 -2.0248 0.151 0.965 0.214 73 52 25 0 0
0.1610 0.1521 -1.1367 0.413 0.906 -0.087 83 67 44 0 0
0.1600 0.1558 -1.1502 -0.204 0.978 0.039 90 74 51 0 0
0.1627 0.1502 -1.1575 -0.089 0.974 0.206 83 70 51 0 0
0.1476 0.2097 -1.4192 0.295 0.655 0.696 120 98 67 0 0
0.1465 0.2126 -1.4230 0.129 0.733 0.668 129 106 76 0 0
0.1455 0.2154 -1.4268 0.137 0.766 0.628 129 106 77 0 0
0.1384 0.2346 -1.4539 -0.314 0.918 0.241 74 53 35 0 0
0.1373 0.2389 -1.4731 0.286 0.740 0.609 98 81 53 0 0
0.1227 0.2814 -1.5625 0.050 0.746 0.664 97 73 33 0 0
0.1210 0.2867 -1.5757 0.139 0.829 0.542 100 76 39 0 0
0.0897 0.3627 -1.6052 0.359 0.712 0.604 96 79 53 0 0
0.0898 0.4014 -2.0248 0.010 0.960 0.281 72 51 24 0 0
0.0874 0.4087 -2.0432 -0.100 0.936 0.338 101 79 45 0 0
0.0869 0.4103 -2.0479 -0.100 0.936 0.338 124 97 62 0 0
0.0871 0.4110 -2.0596 0.001 0.990 0.139 78 58 25 0 0
0.1645 0.1491 -1.0644 0.018 0.978 0.206 62 44 26 0 0
0.1659 0.1464 -1.0703 -0.299 0.902 0.312 63 44 27 0 0
0.1655 0.1478 -1.0747 -0.299 0.902 0.312 71 52 35 0 0
0.1673 0.1495 -1.1384 0.324 0.941 -0.094 90 78 62 0 0
0.1679 0.1489 -1.1487 0.138 0.989 0.059 110 103 93 0 0
0.1510 0.2147 -1.4280 0.234 0.746 0.624 95 76 54 0 0
0.1419 0.2384 -1.4527 -0.604 0.739 0.297 120 97 70 0 0
0.1422 0.2395 -1.4735 -0.343 0.693 0.633 96 79 51 0 0
0.1422 0.2400 -1.4787 -0.068 0.646 0.760 81 63 36 0 0
0.1266 0.2844 -1.5616 -0.147 0.708 0.691 99 76 36 0 0
0.1245 0.2899 -1.5692 -0.373 0.602 0.706 91 65 31 0 0
0.1247 0.2901 -1.5746 -0.504 0.512 0.696 103 78 39 0 0
0.0950 0.3625 -1.6063 0.245 0.752 0.611 97 80 55 0 0
0.0461 0.5380 -2.2583 0.087 0.793 0.603 82 71 46 0 0
0.1721 0.1370 -1.0015 0.104 0.972 0.212 113 106 96 0 0
0.1673 0.1519 -1.0395 0.591 0.786 0.181 83 65 42 0 0
0.1681 0.1504 -1.0449 0.498 0.859 0.117 80 62 40 0 0
0.1696 0.1498 -1.0745 -0.449 0.879 0.160 71 53 34 0 0
0.1755 0.1417 -1.1322 -0.722 0.487 0.491 111 102 90 0 0
0.1742 0.1449 -1.1359 -0.859 0.238 0.454 124 118 110 0 0
0.1730 0.1481 -1.1396 -0.889 0.187 0.419 150 146 141 0 0
0.1684 0.1857 -1.4227 0.201 0.977 0.065 108 90 68 0 0
