ply
format ascii 1.0
element vertex 691
property float x
property float y
property float z
property uchar diffuse_red
property uchar diffuse_green
property uchar diffuse_blue
end_header
-0.10158929812616041 0.5456301409840965 -2.258253308801394 181 180 180
-0.10203251052450102 0.5475277153865474 -2.281587865671719 206 206 208
0.17401097945363284 0.08760951830206914 -0.9381182565942268 169 167 166
0.1686036359947191 0.09544067375313642 -0.9400654556747072 139 130 122
0.1612809909657662 0.10595099777058814 -0.9409856181503099 117 102 89
0.15587893986645254 0.11377194081081393 -0.9428847034627558 117 100 83
0.14858524539013707 0.12423838751680011 -0.9437590775021398 108 89 66
0.14267389606896852 0.1327690508309909 -0.9453361313493764 86 66 38
0.13715959552017204 0.14074286369852684 -0.9470998072599205 93 71 42
0.13347792976700107 0.1461519705605971 -0.9498249055656303 98 78 52
0.13351776820621186 0.1463553950557564 -0.9545463843392668 67 49 26
0.13453629036266151 0.1451904942472247 -0.9598049988056757 74 54 31
0.1331833784296745 0.14734220493032346 -0.9637809971881619 66 45 24
0.13390070027344544 0.14659930459349968 -0.9688903319093001 65 46 24
0.13428112379399268 0.14632791705906 -0.9738235750516615 71 53 32
0.13406230092069157 0.14689462194512048 -0.9784328121633388 58 41 22
0.130647023278074 0.15192932422881333 -0.9812685686134871 60 42 23
0.1301642637017476 0.15286492443198668 -0.9857307348639034 65 48 27
0.12995662536188707 0.15341623453214814 -0.9903505108332677 67 50 28
0.12943099302590302 0.15441212260427672 -0.994795426890533 63 46 26
0.13105662444107402 0.15240258121802008 -1.0004629822887374 61 44 25
0.13072198281103367 0.15313229727424238 -1.0050282723607646 58 41 23
0.1299459308021011 0.15447880482615328 -1.0093448298764391 62 45 25
0.12880692067993355 0.15633233411144737 -1.013454198903252 69 53 30
0.13234922366692328 0.15164824281740796 -1.0202680488680687 69 52 32
0.13133666370005861 0.1533258534391817 -1.0244626851765304 57 40 22
0.1324202542415219 0.15207676813534415 -1.0298801487018752 59 42 23
0.1325237461855329 0.1521966245870644 -1.0347350028596145 62 45 25
0.1316995551732923 0.15361181425045867 -1.0390501251877087 67 50 30
0.1313309674901786 0.15439115417506832 -1.0436360126786732 59 42 22
0.1322387565881822 0.15338935290524158 -1.0489840332886493 64 47 26
0.13275602906604303 0.15293310492888557 -1.0541097627302856 66 50 27
0.13324955660708135 0.15251046720384798 -1.0592299284985245 67 51 28
0.1330632924463111 0.15303673258263906 -1.063949200387391 61 43 21
0.13179546868975886 0.15507207124195127 -1.0680189109083669 63 45 23
0.12918034131604939 0.15898667295921604 -1.071268645736572 64 46 24
0.13076399029077201 0.1570446676418628 -1.0770734730530778 63 45 22
0.13197194027108022 0.15562740721913104 -1.0826624828878357 68 50 26
0.13009190581481442 0.15851679189253443 -1.0863616764533968 69 51 27
0.12869812199738562 0.1607279667876153 -1.09035732115959 67 49 25
0.12733499877177043 0.16289629956218193 -1.0943702526387016 65 46 22
0.13422936280988879 0.153553894339942 -1.1035370435244065 65 45 22
0.1352295292167148 0.15242932706097256 -1.1090516441649825 66 48 25
0.13828015499974955 0.14844775171868446 -1.1158692924324858 55 38 17
0.13916817760830466 0.14748104192002182 -1.1213416795623279 56 39 19
0.13446179174223907 0.15430992517926506 -1.123270165855224 54 37 17
0.135097313883813 0.15369534876744007 -1.1285877463078764 59 42 22
0.13537337491802912 0.1535820453195234 -1.1336844690483734 57 41 20
0.1363121607634016 0.15254605424644924 -1.1392154081997736 54 39 18
0.13597247162657694 0.15329126752719052 -1.1439310035716164 55 40 19
0.1361989096199474 0.15324832969864804 -1.1490183785837123 50 35 14
0.13273077018106635 0.15835024014711319 -1.1517036184901979 55 37 17
0.13336269450244806 0.15774299184845925 -1.1570609003294257 57 41 20
0.13171560437540206 0.1603089398542784 -1.1609287376575443 59 44 23
0.13130071293009496 0.16115953362162283 -1.1656073762208796 46 34 14
0.12987293605807268 0.16342008090404198 -1.1696178397192014 52 38 17
0.13004321645154623 0.16345657432229888 -1.1746910015490317 62 45 21
0.13186981742111836 0.16118868525653662 -1.1808793503291481 71 55 30
0.13465942088491348 0.15758183278248072 -1.1877311197285958 83 66 39
0.13756457175322007 0.15381543969354883 -1.194682750441214 108 95 72
0.13955243796848044 0.15132626680525307 -1.2010355207808456 133 125 114
0.14473635681629518 0.14439273704041805 -1.2095801117977523 187 183 182
0.19013515266656103 0.08877271160962813 -1.3769286263799936 170 170 166
0.1793317320984131 0.10404689091694425 -1.3740755183075692 105 99 90
0.1726184007065197 0.11364734328902304 -1.374278661135655 98 86 72
0.16744641050173317 0.12110928534218057 -1.3756266772132102 98 86 69
0.16132020339721218 0.12989255921071657 -1.3762190964452061 96 82 63
0.15716468911297887 0.1359429518843776 -1.378299359694864 99 84 61
0.15150498184337444 0.1440768354594109 -1.3791992506621649 102 85 60
0.14984027225210855 0.1466737207960614 -1.3831717336788303 99 82 56
0.14594004622101484 0.1523676273313092 -1.3854000802497584 109 92 65
0.13681131923848222 0.16530360432468466 -1.3835247562136388 100 80 54
0.13436602883788432 0.16897957645562683 -1.3868463798768544 106 88 61
0.130686653303318 0.17436427306303343 -1.3891880906352785 95 77 49
0.12524000446507785 0.18219544422844786 -1.3901173266141038 111 90 63
0.12320284359124359 0.18530430581628105 -1.393726548309242 111 90 64
0.11637369647150705 0.19504721766639327 -1.3935130855048226 118 101 72
0.111376817410028 0.20225183306634253 -1.3947305229341482 74 58 32
0.10808205847665622 0.20709919612813932 -1.397290756502532 89 69 44
0.10434148098627097 0.21256283890318095 -1.3994787769468608 123 99 64
0.1024931732665828 0.21540706993744557 -1.40318095390836 125 101 69
0.10016343036121692 0.21891718935417548 -1.4064879614474912 115 91 60
0.09096675767188889 0.23192715577404754 -1.404194344730415 147 118 82
0.08656578759961428 0.23830048014223432 -1.405772682950852 152 122 81
0.0892567174727272 0.23486356391931323 -1.4131502664364786 150 121 81
0.08659566955999762 0.2388295906456645 -1.4161430532540544 134 105 64
0.08429659307600179 0.2422945571267593 -1.4194255883429423 146 121 79
0.08044014430166829 0.24791242124209667 -1.4214088836704115 140 116 76
0.07911390850267638 0.2500313903741765 -1.4254821367779091 142 114 80
0.07640774357414373 0.25405777810733343 -1.428400860003483 141 111 81
0.0716443530858778 0.2609270162376875 -1.4295844789400973 110 84 51
0.0753587693809614 0.25607886089539206 -1.4378815512258023 107 81 47
0.07258036985137284 0.260204172478134 -1.440723098089878 105 79 44
0.07248031993392554 0.26062838905080044 -1.4458250280304499 108 83 48
0.06951486765469517 0.2650114265118986 -1.4484950339651446 101 76 46
0.06976965053410145 0.2649456935009283 -1.4539032874587017 91 66 35
0.06975147594920339 0.26525740606816484 -1.4590858499217334 100 76 43
0.06333126358857583 0.27441051506275077 -1.4587692850043337 96 73 39
0.06603692283662968 0.2709607925805066 -1.4662961872529272 91 68 36
0.06872597210259401 0.2675352852193799 -1.4738319691296988 80 58 28
0.06762313229001624 0.26934562669996637 -1.4780950905683705 77 56 28
0.06784593671139921 0.26932618438030126 -1.4835144617696174 98 77 51
0.06728900556845846 0.270383321605444 -1.488259397709712 123 100 65
0.06504565119556574 0.27376783038368424 -1.4915262477905553 135 111 69
0.061553766659395326 0.2788746516986964 -1.4936854116657379 131 113 80
0.05904612883573085 0.2826227741129553 -1.4967004164701092 54 38 19
0.058628151649133015 0.2834878427428572 -1.5015616398451743 61 46 24
0.05864719956221645 0.2837503640841173 -1.506816331363245 93 75 46
0.05894128390227846 0.2836339618254473 -1.5123237654407244 70 52 27
0.05397918810885524 0.29076594547003015 -1.513125010412875 81 62 33
0.05141636119297868 0.2945885866410049 -1.5160617965816978 93 72 42
0.0550160821271409 0.28991510722354674 -1.5245555831625048 93 73 41
0.056742216365285314 0.2878258223791459 -1.53138049997847 95 74 41
0.05654864944616825 0.2883833245723404 -1.5364771145149727 81 57 20
0.05614739634193677 0.28922734373386905 -1.5413898282127172 124 98 56
0.05743301978344653 0.2877472568494487 -1.5478515964787927 193 165 115
0.05423967822421877 0.2924387802250993 -1.550212759860651 156 124 75
0.05333818324052281 0.29397243762280983 -1.5546738372346167 156 127 85
0.04196934069720443 0.30992367569404666 -1.5494523839970542 94 68 29
0.0382908875505302 0.3152800959381796 -1.5513051541606375 101 77 37
0.037762368508843264 0.3162980544883906 -1.556075569620224 98 75 38
0.03720862426884092 0.3173509389681792 -1.560825935522792 90 68 32
0.037079838727779035 0.31781897540060466 -1.5659781798904788 90 68 29
0.036488525986445086 0.31892401976145024 -1.570701294349238 87 65 28
0.03433499940258364 0.3221793680499173 -1.573952702508678 81 58 24
0.03301838719247041 0.32428261547421844 -1.577990127287652 86 63 31
0.033527245349255774 0.3238739622587865 -1.5837610800775992 97 74 42
0.03397405349608787 0.3235512380431546 -1.5894830173751067 119 96 61
0.03357479491894669 0.32439293174540057 -1.5944052256024424 101 80 43
0.036086360868234635 0.32123114916173084 -1.6021261724098814 116 92 51
0.03550605672274837 0.32232283032382786 -1.6068921138822547 141 115 71
0.03228683698523538 0.3270434822497897 -1.6091111670245268 131 107 67
0.026030082236106367 0.33593978199251484 -1.6083715100716407 120 100 66
0.01957699210654243 0.3451041691041994 -1.607407757486984 121 103 72
0.014283795094154922 0.3526722960765255 -1.6075416103920872 110 93 65
0.010149315413775784 0.35864639166935447 -1.6087830308518707 117 96 68
0.004661758375723135 0.36647883270563436 -1.6086755270300106 105 83 53
1.0436893073256792e-05 0.37316068329217206 -1.6093638480350974 100 78 48
-0.004967668189776786 0.3802902193996455 -1.609705965243134 118 94 66
-0.007794102799314362 0.38446264079688114 -1.6121575218419002 125 100 70
-0.01334447242532244 0.39237578812008816 -1.6118865250634573 147 120 82
-0.01569367914647954 0.39589107854630523 -1.614783085869831 137 110 68
-0.018050300193325236 0.39941609186499144 -1.617663910450722 133 104 68
-0.018528990110166343 0.4003622940201939 -1.6224237885763282 114 89 57
-0.02058988242243906 0.40348074510853615 -1.6255921424271291 69 48 21
-0.02142194563254421 0.40491213057077335 -1.6299970631332394 71 50 26
-0.021207566637651887 0.40490742652773243 -1.6354654662866128 80 56 33
-0.020833208195532388 0.40468365102573395 -1.6411051056795356 95 74 45
-0.01851067890863825 0.4017873595376103 -1.6487439505159949 89 68 40
-0.011756057776777323 0.39281193137997666 -1.6609462538502429 88 67 40
-0.0039599989515582135 0.38241077755129815 -1.6742703567105512 94 75 49
0.0013751359427094378 0.37538807154988213 -1.6851150115370046 59 45 22
0.01149133671609498 0.36181117054337575 -1.7009477469270577 58 45 23
0.02215022398701999 0.3474942193113964 -1.7174173918800895 74 57 35
0.021952732090666283 0.34806550488842314 -1.722662308871456 77 61 38
0.021933994928890227 0.34839208117249254 -1.728099873912879 58 45 25
0.021523582015632536 0.3492558922154663 -1.733134249616053 57 42 22
0.021810323917494434 0.34916454580066314 -1.7389058968301843 66 48 27
0.022868026012167253 0.3480172919791744 -1.745499565408664 74 54 29
0.02271643081105973 0.34852765806939673 -1.7508286155184916 105 83 52
0.023027614318522766 0.34840441624363383 -1.7566549756699261 118 94 56
0.012677402957021022 0.3628847076914778 -1.7511443421067063 117 92 52
0.017648787640808405 0.3566816164804786 -1.7674306519953713 101 80 46
0.020697349282667782 0.3528113950525817 -1.7762144037537455 89 68 42
0.02042414944962684 0.35349010868982295 -1.7814464010422553 79 61 37
0.035180487628966084 0.33359686711947656 -1.802930175462071 74 56 32
0.028703263980187216 0.34276982810525986 -1.801496718725909 72 54 30
0.02045951122268483 0.3543581571189106 -1.7981059008358191 84 64 39
0.02055211733460191 0.35453775846405144 -1.8037623128358362 90 71 41
0.019503718392699043 0.35627875616706395 -1.808178125762166 84 63 34
0.02260229957110907 0.3523472811137618 -1.8171467571493762 84 63 36
0.0236982256718285 0.3511563563687552 -1.8239386192394624 84 63 34
0.02307287924005802 0.35232007772079915 -1.8288442533095326 83 62 33
0.018238422816468036 0.359239110389732 -1.8290899345810838 80 59 30
0.01862068398575606 0.35902489557279493 -1.8351077005842062 77 57 28
0.017625321867132476 0.3606943537889494 -1.839600009021189 73 54 24
0.014332352992414532 0.3655040913007169 -1.8415242178237077 76 57 27
0.014790428367989605 0.36518700768835827 -1.8476403459512065 77 58 28
0.015251113543766681 0.3648669487840914 -1.8537701221893217 77 58 28
0.009624263007948386 0.37286413881173813 -1.8530420510293 86 67 37
0.014514905804853984 0.3664928447714077 -1.8641860343223138 87 68 38
0.014510481399060027 0.3668095022886279 -1.8698144943539508 86 66 35
0.012729452768953486 0.36955273185311355 -1.8734277889352822 86 65 34
0.009834492085693536 0.3738166984929415 -1.8757644199891104 94 73 42
0.010391760224744029 0.373366894104773 -1.8820431445736956 94 73 42
0.009649413951205 0.37469175475676664 -1.8868402850346473 88 67 36
0.009518441927570898 0.3751823214244482 -1.8923445072525746 78 57 30
0.009321730214061297 0.3757629758655979 -1.8977795547139291 83 62 33
0.008912235925686907 0.37663431732389274 -1.9029743042343654 80 59 29
0.008306380754812881 0.37777382094903433 -1.9079456540412303 79 58 29
0.005966215520578966 0.38127927780288146 -1.910898097081113 78 57 28
0.0030757976496361694 0.3855347573426537 -1.9131984877465693 80 59 30
0.002414739264273602 0.3867493618108797 -1.9181018101112441 82 61 32
0.0026676796466024166 0.3867178887063204 -1.924083688689307 83 62 33
0.004138187735481413 0.38502700189549055 -1.93151190634986 83 62 33
0.003629476464756698 0.3860350489121663 -1.9366157022574775 78 57 29
-0.003471705842563344 0.39602847306335476 -1.933898307611134 74 53 26
-0.005332481706812275 0.3988782426214894 -1.9373779336714285 73 52 25
0.0026374258419050167 0.38833288832034174 -1.9525904736485615 74 53 26
0.0011987102907395908 0.3906089850964524 -1.9565995732767016 82 61 33
-0.00014972503870258613 0.3927619826946257 -1.9607148831028618 92 71 42
-0.001497732756718051 0.3949143102120391 -1.964829117700788 91 70 39
-6.2503184953266455e-06 0.39319979208374006 -1.97237210755037 85 64 32
-6.611347166302073e-05 0.39359857833695683 -1.9780539002299913 81 60 30
-0.0003453883800832447 0.3942964837901067 -1.983476589738808 81 60 29
-0.002312142679844198 0.3972917071584161 -1.9868487626934273 81 60 29
-0.0025903775735122703 0.3979885275390407 -1.992278715416197 81 60 30
-0.004704028179111086 0.40118332019404446 -1.9954648825972405 78 59 29
-0.0056451134697845795 0.4027823235653017 -2.000085481876201 81 61 31
-0.009981659705845747 0.40900062596186204 -2.0005212230717957 82 62 32
-0.006828707371180187 0.4050303308704247 -2.0101943356439396 85 64 35
-0.007075658475404811 0.40568565162987835 -2.015682068068141 85 64 35
-0.011211317031865564 0.4116292706968374 -2.016340209043314 82 61 32
-0.006558244165573712 0.40562231951738587 -2.0279376151500212 76 56 27
-0.008368561736982805 0.4084041638453899 -2.0314924873128852 77 56 27
-0.012442244901708366 0.41426217382676733 -2.0322035128597253 90 68 37
-0.011400242904217872 0.4131666348770262 -2.0393283835736797 99 76 45
-0.011576597378094133 0.41372749970237915 -2.0449318915981287 107 83 51
-0.012489149415335465 0.4152889662206753 -2.0496108859816604 125 102 67
-0.00636399830445189 0.40729024163635547 -2.063220137642862 89 68 36
-0.009978526940232435 0.41317027215786956 -2.0762254317809523 77 56 28
-0.010527563017011743 0.41423987563926884 -2.081400992939747 78 57 29
-0.020716764712163938 0.42839564935730057 -2.0741758516122886 77 57 30
-0.01668635423914938 0.4232483868211036 -2.085234316305414 77 57 30
-0.01867019038162332 0.4262647546631577 -2.0885474538418793 76 56 30
-0.0194178886004035 0.42760354190100436 -2.093458526809976 74 54 28
-0.02130418746993229 0.430487148969571 -2.0968906481212457 86 66 37
-0.022637430591459562 0.43262026750160115 -2.1010389904894295 98 78 45
-0.02130319825959215 0.4311355879160498 -2.1086767285026804 107 85 49
-0.021940580064349735 0.43232547206030153 -2.113745076427064 126 100 65
-0.02245141725359251 0.4333439833446783 -2.118983583980774 137 110 78
-0.030705544321561862 0.4464895484086971 -2.14356691820597 77 54 22
-0.03249563134535893 0.4492413900986446 -2.14710173971697 78 55 23
-0.03275613235262864 0.450906542912913 -2.1705533300484494 81 58 24
-0.03549069702438573 0.45493668290983824 -2.172804380563565 81 58 26
-0.04572327375863883 0.46911224665100004 -2.1648144852206137 81 58 26
-0.04673841042312271 0.4708131933608809 -2.169365605840059 80 57 25
-0.04746126353915142 0.4721187972539405 -2.1743184860798728 79 56 24
-0.049731942794899675 0.4755180795943318 -2.1771453973364125 79 55 24
-0.051687771960763684 0.47849110216379387 -2.180397951441859 79 56 24
-0.05399057124500062 0.4819329300812435 -2.1831643893703965 81 58 26
-0.05576398105026448 0.4846585722590701 -2.186656083053061 81 61 28
-0.06451875063115292 0.4981310367825046 -2.204198567425772 80 60 25
-0.06612064159368264 0.5006234045895045 -2.2079028457874625 80 60 25
-0.0686768893743625 0.5044043937353226 -2.2102546469467224 82 62 25
-0.06929593878173246 0.5055690722449764 -2.2153407717527 87 67 30
-0.06663639929732224 0.5023077297015757 -2.225089456578476 86 66 29
-0.0687639031070264 0.5055096803014649 -2.2280465621331453 89 69 32
-0.07117370232408093 0.5090921978314735 -2.2305926777998253 91 72 33
-0.07594503010779735 0.5158608361977058 -2.229746138602135 89 70 30
-0.07793915945602947 0.5188809423919074 -2.2328604204372846 87 68 27
-0.08372358158410526 0.5270137215795736 -2.2305094091326088 86 67 27
-0.083746818577497 0.5273739949827532 -2.2364415511232587 85 65 27
-0.07518220913887536 0.5161535165482389 -2.254816051482476 84 65 26
-0.07597913009650714 0.5175597429871566 -2.2596750718056566 82 66 26
-0.07758266323474344 0.5200535282714109 -2.2633625160058455 83 67 32
-0.07863350441359773 0.5218021241434679 -2.267852864830263 86 72 43
-0.08386350177737661 0.5291830189957138 -2.2662282254269375 112 104 86
-0.09106300640712828 0.539216045342747 -2.2616819330396574 160 158 150
-0.0981379006268715 0.5490785772614546 -2.2572716243378954 185 186 186
0.16856477247335858 0.10404345075841293 -0.947448132130426 129 123 115
0.16191186071837574 0.11358971681018526 -0.9486916044602043 107 97 81
0.1545465626564627 0.12412780652972472 -0.9495272447717149 96 81 59
0.1482742184675106 0.13313997000886008 -0.9509128111672561 105 85 58
0.14118521791516514 0.14328923461195303 -0.9518327560400243 133 115 88
0.1381556761811846 0.14777726151524762 -0.954908689123063 86 69 44
0.1421425227499186 0.14248394371704437 -0.961774543267848 74 53 28
0.14079666992228274 0.1446250521026819 -0.9657646204953044 68 47 23
0.14103076079328986 0.14456412628359683 -0.9706173642257458 69 48 26
0.14055919067566175 0.14548695400919526 -0.9750891551681224 70 50 28
0.1401498515094074 0.14632324675445418 -0.9795984671653792 63 44 25
0.13810153736591588 0.14944321772473723 -0.9832016558593089 61 41 22
0.13774083666754033 0.15021189851255473 -0.9877406862809865 66 46 26
0.13869619173097253 0.14914760736639604 -0.9930209220002151 68 49 27
0.1388805952330457 0.14915769516941169 -0.9978779166134422 64 47 27
0.13788316105224485 0.1508140285084188 -1.0020730271850156 60 43 23
0.13682133536258095 0.1525600460265673 -1.0062318933291745 55 38 20
0.1353876027498485 0.15482388239978456 -1.010178371796325 64 47 27
0.1361441542445751 0.15403833355478658 -1.015379643261551 67 51 28
0.13633087328461801 0.15404656055941107 -1.020262235232767 65 48 28
0.1346516654793265 0.15665231017107895 -1.0240708370364726 53 36 18
0.13768178620812463 0.15270377805584923 -1.0306165371929281 59 42 22
0.13858714654353826 0.15171325347048203 -1.0359422501064388 62 45 25
0.13749847132591603 0.15349787394595626 -1.040107497886745 67 50 30
0.13639786966511996 0.15529908118817054 -1.0442655993957537 58 41 22
0.1362997605844699 0.1557056950945283 -1.0490177791637607 64 47 28
0.13550738068930138 0.15707831097410785 -1.0533618080267249 63 46 26
0.1367623468573031 0.15560354221172712 -1.0589321203702955 65 49 27
0.1366429632355249 0.15604073489573828 -1.0636892012047383 58 41 19
0.13572348909455892 0.15759074807598578 -1.0679684773558449 64 46 24
0.13489710509510516 0.1590113800965791 -1.07230503686751 65 47 25
0.13725608723197244 0.1560038054147816 -1.0785833546226162 66 48 25
0.13785062394634276 0.15544994025515885 -1.0838008150828458 66 48 24
0.13527995875534352 0.15929586374510651 -1.0870819301188013 57 39 15
0.1348586050313822 0.16015435631550023 -1.0916818142687348 67 49 25
0.1407172664222053 0.15228647809420276 -1.1001799005038215 62 43 19
0.14109580851535927 0.15203495273977824 -1.1053025569962427 62 44 22
0.14139484911137642 0.15189432794786223 -1.1103835137894895 64 47 26
0.14366411147411895 0.14901726974653817 -1.1167102538823777 55 38 18
0.13858269097534587 0.15635104134220135 -1.1184157293330024 51 34 14
0.13946408423843817 0.1554023990099086 -1.1238793322079341 55 38 18
0.14002596489454075 0.1548980576700032 -1.1291503639266933 59 42 22
0.13954601310159673 0.15584080328252686 -1.133764239193868 59 43 22
0.13962016493741602 0.15601445569444294 -1.1387373668324507 52 37 16
0.1398084729619827 0.15603000054202426 -1.1437905741259176 54 39 18
0.14060235104168067 0.15520539901893482 -1.149243204102416 52 37 16
0.13735183237813905 0.15999446232436138 -1.152074747866947 58 42 22
0.1371467446826929 0.16055667709127797 -1.156884268078046 56 41 20
0.13605583903815557 0.16234828537228685 -1.1611173754949131 57 45 23
0.13632334624348946 0.16225523819169296 -1.1662457230634684 50 38 15
0.13659115538035305 0.16216219787140213 -1.171381851228545 60 47 21
0.13822096395860023 0.16018038405473328 -1.1774308616306766 81 65 39
0.1396149469725737 0.1585264989854397 -1.1833377301963706 94 79 54
0.14224223305767103 0.15516309988452787 -1.1900852508400297 99 88 70
0.14567081472334129 0.15068979717485181 -1.197393084207694 152 148 136
0.18575058212464854 0.10391283322153688 -1.381036819950866 120 115 110
0.17734321245246748 0.11582741701901578 -1.379952168829294 92 84 72
0.17191476534439937 0.12362441913827021 -1.3811042698408578 88 77 62
0.16383428242200745 0.13508318335342923 -1.380194118515777 91 77 59
0.159397999347472 0.14150663057752316 -1.38205295414952 99 83 62
0.1605885099849665 0.1401587209793927 -1.3882473843928402 101 83 59
0.15719515502546205 0.14514086175694912 -1.3908941030471473 103 86 60
0.1515919362516937 0.15317320836279724 -1.3918040061979675 102 82 57
0.13610980757721536 0.17484133724929102 -1.384953836740086 106 88 61
0.1325700016354512 0.18002098809730416 -1.387402977108674 109 90 63
0.13206927566719776 0.18100556694926734 -1.392234856732463 109 89 62
0.1283266454125319 0.18646399458160412 -1.3945036615246307 113 92 65
0.12022029164351886 0.19794250958873444 -1.3932890096721613 120 101 71
0.11547544684408279 0.20478111782476244 -1.3947141366286337 99 83 52
0.11308492551212171 0.20837085549116896 -1.3980025861361085 96 77 46
0.11077018983452389 0.21185563337673752 -1.4013442730311672 137 113 76
0.10729932062799219 0.2169344378937446 -1.4037461787671748 137 115 80
0.10410897294860216 0.2216256253695607 -1.4063610429897797 132 110 78
0.1000285012480499 0.2275433887162615 -1.4082400971326612 144 119 85
0.09726128786874608 0.2316496867014639 -1.4111723741036328 104 83 46
0.09578386315006376 0.2339775325311893 -1.4151504468044458 117 95 56
0.09343655893979974 0.23750417576244037 -1.418411548259898 129 105 68
0.09112517140661142 0.24098090000074796 -1.421694746433137 126 102 67
0.08874167174084835 0.2445565786210916 -1.424910945410203 137 113 79
0.0860210015256071 0.24859636083440118 -1.4278393139504262 151 126 92
0.08480730428472508 0.25055960158330076 -1.4320141483766462 120 93 61
0.08106952055342836 0.255999528113904 -1.4340764295431963 120 96 62
0.08203339999129891 0.2549631912887687 -1.4400706753840415 114 92 56
0.07889944293468393 0.2595706011256057 -1.4426240227045974 109 86 49
0.0752794614491677 0.2648465269372606 -1.4447539238456635 109 85 50
0.07599754501507955 0.2641492086971709 -1.4505506130838262 84 59 30
0.07626044750381528 0.2640790959169272 -1.4559705627502193 96 72 40
0.07518845616747374 0.2658467898590659 -1.4602575779437543 102 77 44
0.07005522190824073 0.27320367625139597 -1.4610604198829833 103 79 45
0.07121171828617903 0.2719041685086776 -1.4672539917217409 98 75 45
0.07577801757525027 0.26591394528955575 -1.4764075425544458 84 61 33
0.07550613543519455 0.2665816030911062 -1.4814004910667131 88 64 31
0.07487369164958538 0.2677455104983892 -1.4860847324450304 119 95 59
0.07242566484906637 0.27140666801455476 -1.4891863621167387 117 97 64
0.07015527714963637 0.2748230706145139 -1.4924353472045264 149 130 97
0.06846179987218545 0.27744580335673297 -1.4961844304445466 138 118 86
0.06557489835246885 0.28170910457560266 -1.498876645759267 81 64 39
0.06511092545398606 0.28264104758773145 -1.5037034573189663 71 56 30
0.06565388828587412 0.28218917509797176 -1.5094289709118953 64 45 19
0.06442719207065725 0.2841699606257126 -1.5135865141396034 79 59 31
0.059632526603220465 0.2910536347410528 -1.5145504515569366 92 71 37
0.05897494276984527 0.29225175814894266 -1.5192063153280113 100 78 43
0.059795271192185834 0.29141967081994724 -1.5251965509559045 97 77 41
0.06096475928973624 0.2901086351867849 -1.5315143745333128 80 59 24
0.05995592340758882 0.29179022008938815 -1.535869945468316 91 66 27
0.06389987935498925 0.28667026663871714 -1.544735039021855 182 154 106
0.061657996185434744 0.2900458823604564 -1.5479807315259502 188 160 110
0.05934876327097474 0.2935135628423152 -1.5511575362622372 156 126 78
0.05773701664417044 0.2960233407593213 -1.5549682803571772 129 102 60
0.05652566025984271 0.2979833707445727 -1.5591453151018781 99 75 36
0.047233284618069 0.31103375822642854 -1.5558382644297717 101 78 40
0.04548701507233771 0.3137263018838929 -1.5594914264345836 82 61 27
0.04444113679195247 0.31545764352930583 -1.5637934577217674 76 56 22
0.043897347889459926 0.3165001989909185 -1.5685654616622722 89 67 31
0.042355492951187124 0.31891198895818884 -1.5724040933859194 80 58 22
0.04069402508337627 0.32148766989960725 -1.5761272232437904 91 69 33
0.04107809103351742 0.3212580279461768 -1.5817796756187923 102 78 40
0.04077317934917396 0.321973609425379 -1.5867882277766043 110 87 47
0.04104986326807272 0.32189211307297844 -1.5923550299517173 126 103 61
0.04245877913204743 0.32025903563045655 -1.599011194993525 115 91 45
0.04235060882538452 0.32070620915478465 -1.6042304311768234 131 106 62
0.041925507039049015 0.32158807296162023 -1.60915142516075 124 96 51
0.037235068021703094 0.32831483330673567 -1.6099648346459814 126 100 60
0.03114715605497631 0.33695496745749476 -1.6094036486001382 130 105 73
0.024046521386682534 0.34698064741292767 -1.6078277871769258 111 88 58
0.01917265815445282 0.35395409120728294 -1.608381444960631 110 92 65
0.014455383623311668 0.36071171559836424 -1.609063782409077 111 93 65
0.009223556186271659 0.36817264369989405 -1.6092185302979938 92 71 43
0.004178641396700544 0.3753761551324316 -1.6095303835889732 102 80 50
0.0011109962301307785 0.37987133352760183 -1.6117671794872448 131 108 75
-0.001961223852018995 0.38437205339156255 -1.6139866121781088 131 107 71
-0.004917106941768362 0.38871282510048866 -1.616308664217255 146 122 81
-0.008102281010731072 0.39336669050725404 -1.6183901506446885 161 137 94
-0.02069119761037158 0.4108867787242683 -1.6110603113695523 153 129 93
-0.012569976557879059 0.40006909340517255 -1.6244196633802026 96 72 41
-0.013608976643600001 0.4017852028735191 -1.6286249147109149 68 47 20
-0.01467121645917785 0.40353310888008315 -1.6328069055192755 69 48 24
-0.015540573604137436 0.40501723939508144 -1.6371841966958676 74 50 27
-0.015475856381381492 0.4052242150825775 -1.642511414920752 88 67 39
-0.008482481252966634 0.3959588177785794 -1.6549052430397277 85 64 36
-0.004544291781777371 0.3908728334175498 -1.664228968945835 84 63 36
0.0033753130549902532 0.38034680032042945 -1.6776679053433539 89 70 44
0.010772050723734689 0.37053864462439556 -1.6906278807057866 68 53 32
0.020236463200052984 0.35790822561748875 -1.7057771172499256 60 47 26
0.027742115965916025 0.347957891555874 -1.7189678890920463 79 63 39
0.026990492786801934 0.34929088156272003 -1.7236400740063613 75 58 35
0.03020141804910234 0.3452115507611038 -1.7324426732524265 57 42 22
0.028941442960131458 0.347239797613009 -1.7366012626648608 68 52 34
0.029612583263267295 0.3466309889389052 -1.74278336206498 67 49 29
0.02968367208656275 0.3468421168886519 -1.7483461352586334 75 56 31
0.03015936685220405 0.3465013303806714 -1.7543435495039326 112 91 59
0.026441494640778357 0.3518852423183527 -1.7559134135725034 120 97 62
0.01926221480249754 0.36199226894597986 -1.7537912979381671 111 86 47
0.029390679630268007 0.34909969632368015 -1.7811158410644832 85 65 38
0.02674009979129241 0.3530262354246362 -1.7838054836052968 80 62 38
0.02779214363105939 0.3519023634805919 -1.7904772375302365 78 60 36
0.029573174299504984 0.3497852094759654 -1.7979519223536753 78 60 36
0.024800445763980383 0.3566050440646001 -1.7983354758787098 94 75 47
0.027019835002457637 0.3538912243849971 -1.8063040319380186 91 72 41
0.02936078922416757 0.35101295496175045 -1.8144276531379948 80 59 31
0.029032901632179337 0.3517733852833605 -1.819652062906646 70 49 24
0.030367663341055062 0.35026838343534733 -1.8267080035121264 86 65 36
0.03182657928849658 0.3485951449979646 -1.8339172516941318 83 62 33
0.02386722525627949 0.3597538066940825 -1.830735494023647 81 60 31
0.020283171515296433 0.3649500388857088 -1.832357566800503 77 57 28
0.01982625294512591 0.36588628661225786 -1.837439965344725 73 54 24
0.02001136179790708 0.3659484879539922 -1.8432428526117 75 56 26
0.020330770411664284 0.3658283239545482 -1.8492047916431837 75 56 26
0.020899740432326064 0.3653689561247326 -1.8554565006005175 75 56 26
0.021405796727777177 0.3649958702569865 -1.861648864507789 79 60 30
0.02067888664259565 0.3663014852890745 -1.866460417650559 81 62 32
0.018717005500226258 0.3692878219361234 -1.8698762952943773 84 64 34
0.017589368258492277 0.3711387402130007 -1.874233864141571 87 66 37
0.01601168933484648 0.37360190706543694 -1.8780787113825075 88 67 38
0.01592449762713921 0.37403747286363315 -1.883623363247636 91 70 41
0.015494953889890917 0.37493905133815325 -1.888782753093426 89 68 37
0.015442754054321828 0.37532776161588305 -1.8943805963661662 79 58 30
0.015628216165800846 0.37539374337723486 -1.9002597630470999 82 61 32
0.014543449340522041 0.3771870686212834 -1.9046791548710582 80 59 29
0.01409343211719094 0.3781176070840809 -1.9098349381118391 78 57 28
0.012369648942322231 0.38077955911184624 -1.9135137080094446 81 60 31
0.00902536700327411 0.3856433545784004 -1.915297743229176 84 63 34
0.008844566448083013 0.38620808073034646 -1.9207680229026016 83 62 33
0.00895739344850871 0.386374279171567 -1.926589403262531 84 63 34
0.009680737081043223 0.38571169047243103 -1.9331379524997823 85 64 35
0.010367874140924882 0.3850989941198902 -1.9396565773761574 81 60 31
0.00499592067242649 0.3927147286040903 -1.9390137405877224 77 56 27
0.00227118884016686 0.39673461831582246 -1.9414848552196406 75 54 25
0.008709357122365147 0.3883150388703663 -1.9548577073070366 75 54 25
0.007474301728649602 0.39031349118208 -1.959117819414495 88 67 36
0.0060959836809597046 0.39250632571187466 -1.9632055259322854 97 76 45
0.00472046969073181 0.39469525511110093 -1.9672948169650537 95 75 43
0.001815107961349871 0.398959683611027 -1.9695388665790612 89 68 36
0.0012029311507356644 0.4001126163828506 -1.9745417470768123 84 63 32
0.0010584314929403815 0.40063142144149416 -1.9801150609500326 82 61 30
0.0009122366455319164 0.40115291260064073 -1.9856932088823571 81 60 29
-2.2237903429644934e-05 0.40274365427451575 -1.9903172673029417 82 61 30
-0.0008400913376976349 0.404176362577889 -1.9950852489254423 83 62 31
-0.002796483377447978 0.4071525350166218 -1.9984593594252025 86 65 34
-0.005004351599030399 0.4104692139068203 -2.001518328283506 87 66 35
-0.001796007584142223 0.40644568861054964 -2.0112492002459006 88 67 36
-0.006261169225853513 0.4128211005613655 -2.0115201581180595 87 66 35
-0.006942520179660294 0.41406906369603513 -2.0164606847356423 82 61 30
-0.007793284168725434 0.41554668209770196 -2.0211936244276703 78 58 27
-0.008139299708062542 0.4163408046510886 -2.02655819020725 79 59 27
-0.008190589253106062 0.41673613693203143 -2.0322970428352027 98 76 44
-0.006095618889908838 0.41422597868933536 -2.0407363998539116 100 77 45
-0.006587469589753481 0.415219014360309 -2.0459439920290365 108 83 52
-0.006681957922238579 0.415674458776284 -2.0516575510318438 104 82 50
-0.0036808414332774597 0.4119409073369813 -2.061295790462868 82 61 29
0.0020900708600552487 0.4047917779876409 -2.080367117277901 78 57 28
-0.007238791605202632 0.4177423944669496 -2.074357933134129 78 57 28
-0.012383149447653508 0.4250300086613394 -2.0736450765864194 79 58 29
-0.015654384781844277 0.42978291390044643 -2.075307268489735 77 57 30
-0.022613350226060036 0.43952122136161564 -2.072207489601789 77 57 30
-0.024769279849880366 0.4427638232061483 -2.0752647582358925 77 57 31
-0.02447230974986553 0.4426903754974682 -2.0814894399860506 76 56 29
-0.02382211538043555 0.44214012058335056 -2.088182934500807 100 79 47
-0.022533387474453992 0.4407277356243967 -2.0957204938831766 98 75 41
-0.015681038800433145 0.4317993105435987 -2.1105377805929932 116 92 55
-0.016612406219199127 0.43338917132594346 -2.1152249644488537 130 105 69
-0.01639892113917496 0.4334327701729768 -2.1214163488003797 124 100 69
-0.015150806255215588 0.432079668400663 -2.1289794406465283 84 66 36
-0.02680447038869055 0.44980949317640756 -2.1491069360765396 79 56 24
-0.02883009984560586 0.45287573435625567 -2.152328734662974 79 56 24
-0.05048785827007862 0.4824220186992723 -2.129123649604559 81 59 25
-0.0520206357276532 0.484818751899162 -2.1329244093967312 81 59 22
-0.03488759006394765 0.4623798533482991 -2.167924430042561 82 59 27
-0.0409294868170344 0.4708585621602506 -2.1656558607943155 81 58 26
-0.04194468105458593 0.47256029480133505 -2.170208930196403 80 57 25
-0.04296014560823874 0.47426243827099185 -2.174762458833367 79 56 24
-0.044843221584865645 0.47713361795166015 -2.1781265787960424 82 57 26
-0.047405875858637536 0.4809199763179876 -2.1805501949457793 82 59 27
-0.04941894367871885 0.4839654666320979 -2.1837210999914745 82 59 27
-0.050698571914446156 0.48602283453411044 -2.1878997586190922 80 60 27
-0.0522558192094047 0.48845395676426395 -2.1916922217482067 81 61 28
-0.05898673751420569 0.4988520398894975 -2.2061256382185954 80 60 26
-0.061669080580706526 0.5027959057709717 -2.2083181560593044 80 60 25
-0.062133938856084425 0.5037560414430746 -2.213624545448857 82 62 25
-0.06381892800542666 0.5063575742392752 -2.2172114145032076 84 64 27
-0.06463653475466141 0.5077923930598389 -2.222023235861441 83 63 26
-0.066120687518329 0.5101235833292743 -2.2258902084944334 88 68 31
-0.06766861049005668 0.5125403500647607 -2.2296635485793725 85 66 27
-0.06729834553238856 0.5123785503591967 -2.2361740289962118 84 64 26
-0.06734191139713164 0.5127735645349776 -2.2421031266393987 85 65 27
-0.08073470633795521 0.5311070173215575 -2.2288669029138135 85 65 28
-0.06603933133266571 0.5116978669027151 -2.255987536497292 84 64 27
-0.06602961419312758 0.5120230014765692 -2.2620237796719147 82 63 25
-0.0662133462485916 0.5126084481650898 -2.267788679298495 82 65 28
-0.07070642919035836 0.5189812509124907 -2.2673049560882403 86 70 37
-0.07418751271736429 0.5239938173658999 -2.268268256354981 90 76 49
-0.08064463850072595 0.5330005402655317 -2.2648699924177285 131 123 110
-0.08036497649808694 0.5329626240186751 -2.271288377236562 171 169 165
-0.09745080263565448 0.557235757047323 -2.2701488395493423 205 205 207
0.17699495843475047 0.10058257045584151 -0.9545279599332697 161 156 149
0.16884274335612906 0.11218830641523825 -0.9549835467891661 126 116 105
0.16076417652687067 0.12368953353121459 -0.9554409471805421 105 92 75
0.1540985886369481 0.13322482619268827 -0.9566173990196908 109 94 72
0.14730277753233093 0.14293939279601903 -0.9576941587455223 106 89 64
0.1413131475732509 0.1515320027543921 -0.9591762022894254 95 76 47
0.14813862312988732 0.14231800101465636 -0.9675918225573504 81 60 33
0.14788724899906275 0.1429377887050025 -0.9721871793517479 77 56 28
0.14810543837247014 0.14290556159040912 -0.9770443671043293 79 57 34
0.1460596848658828 0.14601817949637452 -0.9806607801074946 67 45 29
0.14588720591814422 0.14652893922385496 -0.9853092656148643 61 40 21
0.1435026126585634 0.1501117641644411 -0.9887316563485478 68 48 25
0.1439636424794319 0.14974312210665652 -0.9937379381291613 71 51 29
0.14353546970603223 0.15060944184936043 -0.9982528561442641 64 47 28
0.14310693654563975 0.15147645669594978 -1.0027709784676577 60 43 24
0.14153872560656594 0.15392555125119217 -1.006646164871994 57 40 22
0.14137342862481794 0.1544274473631747 -1.0113180515343292 64 47 27
0.14034557649178836 0.15612659035394827 -1.0155009537372557 68 51 28
0.13979995015216706 0.15715663281156966 -1.0199614327457203 70 52 34
0.14113092779831632 0.15558324486459457 -1.0255092034268427 54 37 21
0.14443671295028473 0.15127106407577806 -1.0322164903995783 61 44 25
0.1421906715195928 0.15466109466581274 -1.0357090107485354 61 44 24
0.1410147972755762 0.15656651290789758 -1.0398222902887633 62 45 25
0.14145465219183606 0.1562312432951528 -1.044886202700071 58 41 21
0.1420981741009514 0.15561403270140306 -1.0500787556847466 63 46 27
0.1411336872954503 0.15722680297918662 -1.0543252130552918 63 46 26
0.14099015664793246 0.15770150632822377 -1.0590622517659956 65 48 28
0.1408885204908549 0.1581184260455013 -1.0638294581461705 60 43 21
0.14038528594922345 0.1590922627282721 -1.068360058603263 65 48 25
0.14064845078331834 0.159004167979576 -1.0733574728068438 64 47 24
0.14408369788629558 0.15452097976034324 -1.0802901278758383 66 49 26
0.14395776962776852 0.15497331653666035 -1.0850732810620554 66 48 24
0.14388336959125564 0.1553545649414535 -1.0898932370643357 48 29 10
0.1429511209398424 0.1569244333789513 -1.0941902495344475 65 48 24
0.14342488796766384 0.1565469320683488 -1.0993580276381585 57 40 16
0.14315545980473002 0.15719917080100326 -1.1040724362804497 59 43 21
0.14934604491346168 0.14890619498692392 -1.1128239799456265 61 44 24
0.1489565839777754 0.1497261568840606 -1.1174898415099375 55 38 20
0.14567790793662028 0.15454625151472678 -1.1203399884542535 51 33 13
0.14397529480826243 0.157183953704076 -1.124174912421879 56 39 19
0.14447468604074049 0.1567736362475451 -1.129405332092116 62 44 24
0.14316267781344497 0.15887071435930267 -1.1334887097238635 61 44 24
0.14389625312817683 0.15813704878756873 -1.1388817094378572 49 33 13
0.14429984424183237 0.15786053817516932 -1.1440724076602622 56 42 21
0.1446576031077126 0.15764790810264934 -1.1492417463417288 49 36 15
0.14284138130133872 0.16044304656936176 -1.153007800802555 57 40 20
0.14170991974636382 0.16229081895935044 -1.1572162220593945 54 40 19
0.14206555039727553 0.16208192702335084 -1.1623980693519431 61 49 28
0.1423950390897524 0.16190964527851404 -1.1675707731765788 55 43 20
0.14418954058765815 0.15971217080301164 -1.1737188139134853 77 62 35
0.14639066725036157 0.1569534510564391 -1.1801526436039402 99 83 59
0.1486628607369619 0.1540975458853059 -1.186652245635902 119 108 94
0.15143903927986394 0.15054611187854738 -1.1935077720025307 168 167 160
0.1943699206398854 0.1007811745138778 -1.38967923250903 154 151 144
0.1847467456375777 0.11433564582127936 -1.3876744125385978 90 84 73
0.17744403137504797 0.1246928779824229 -1.387398117469886 91 81 65
0.1704838776736741 0.1345765240130301 -1.3873491836956553 96 83 62
0.15912505536208832 0.15051204737933316 -1.3838694964120508 100 85 62
0.16667040333221916 0.14042973484297877 -1.394982592908618 101 85 61
0.1623091769130716 0.1467332059967525 -1.396882706934077 108 91 64
0.15725237479615872 0.15399254929943862 -1.3982205261241505 111 92 66
0.14397672144723073 0.17255653480625988 -1.393091943764975 111 92 66
0.13432371284353894 0.18613366645169754 -1.3907422655163229 113 93 67
0.13137992165159668 0.19048088465196206 -1.3936414855678365 109 89 63
0.1285849645718659 0.19462281968953693 -1.396647854898797 114 97 66
0.12308443928029364 0.2024841702144452 -1.3974911591134438 119 103 71
0.119564491350092 0.20762119663041073 -1.3998904029285222 94 75 46
0.11523540425102533 0.21386964350654014 -1.4016265831711943 122 100 67
0.11115152840424494 0.219779968113116 -1.4035408967979066 123 101 67
0.10827749822491489 0.22402663813809748 -1.4064146287456611 118 96 63
0.1049259419914732 0.22892886537132634 -1.4088906618852135 124 101 67
0.10192425336984035 0.23334963492370603 -1.4116379173752147 128 109 74
0.09995131233499277 0.2363565172254546 -1.4152139219296835 125 105 69
0.0980621377897026 0.23924804033648667 -1.4188533424289167 132 109 74
0.09558599051920405 0.24294544120206746 -1.422005137704206 126 102 70
0.09591484815339538 0.24279045127114296 -1.4274646138700617 123 99 67
0.0909649047130498 0.249884052071761 -1.4285583160664808 107 84 50
0.09120423086583176 0.24985205060036053 -1.4339445896346563 113 91 54
0.08671654408609236 0.25630934414248563 -1.4353933261683487 112 89 52
0.08679987796128327 0.2564915529825955 -1.4406507518839755 105 84 50
0.08537061381099129 0.2587500099324422 -1.4446436042011879 112 89 55
0.08564460316487099 0.2586711542769984 -1.4500715522954863 96 74 39
0.08272959355652915 0.2629681494064706 -1.4528073941043638 105 82 47
0.08375202364348366 0.26186294165175716 -1.458878294597005 105 80 43
0.08053143636134355 0.266578509452085 -1.4613433680143584 113 90 54
0.07827002196883906 0.2699778311853114 -1.4646164614212716 106 83 48
0.07661431522788004 0.2725461228648135 -1.4684027070936363 80 59 28
0.07809979137188658 0.270807176991938 -1.4748931911169865 80 59 28
0.07694891366823106 0.2726835142778634 -1.479118850177274 100 76 40
0.07267607265503381 0.27883942910610837 -1.4806339766049361 150 121 81
0.07734054949272659 0.2727444907016431 -1.4899155023265356 126 100 68
0.07702408047385848 0.2734777219754554 -1.4948778295568874 128 103 75
0.07526233247974476 0.27619165992914524 -1.4985769981234422 142 121 92
0.0715708022467468 0.2815493621905799 -1.5005731515580072 90 71 44
0.07103898364708591 0.2825775800246097 -1.50534476666482 68 51 25
0.07148088163262592 0.28227224766106035 -1.5109830707065905 69 50 25
0.06467777284508264 0.2918900262362939 -1.5101856029907739 92 72 40
0.06370391960748786 0.2935232244150424 -1.5145566573236477 102 80 45
0.06484345940629258 0.2922627639877829 -1.520821603214017 101 78 41
0.06557452030651542 0.29156231873032923 -1.5267331888195415 97 75 37
0.06644680471489406 0.2906692041319689 -1.5327834679239856 83 61 22
0.06713365659316348 0.29003058693077466 -1.5386781227519823 128 103 58
0.06972327556564153 0.2867886464409189 -1.546311960059004 181 152 101
0.06777826289991301 0.28975290206688276 -1.5498362568579473 159 131 82
0.06558069590750873 0.29306238945712293 -1.5531243351113357 153 126 80
0.06435396484725148 0.295043404387635 -1.5572963476825719 108 83 39
0.06281880674865506 0.2974462388611801 -1.5611835909578973 101 76 37
0.06465673610749384 0.2952358202448724 -1.5681841825177336 97 73 40
0.05334865647996484 0.3110028224432461 -1.5630175859266071 82 61 32
0.05138469235172777 0.31399032782731456 -1.5664776985682871 87 66 32
0.051004468533235425 0.3148124199416536 -1.571410314075635 95 74 39
0.04983765604780088 0.31670995651226297 -1.5756108730134062 97 75 39
0.04978534078217717 0.3170842600969197 -1.5808580490254078 110 87 50
0.04927125031345403 0.31808997308916986 -1.5856764841794249 93 70 28
0.04757638419957136 0.3207092593810134 -1.5893817689974825 126 103 59
0.0481513586447094 0.32022731985156877 -1.5952372979952059 116 93 47
0.048934960750411344 0.3194609991488389 -1.6013020330054404 118 94 45
0.049720176220058254 0.31869315547169424 -1.607380213400318 126 100 56
0.04539044070261025 0.32491115184557473 -1.6085676745361601 137 111 65
0.04071812820468179 0.3315957462808838 -1.6094051382301122 126 100 59
0.03588039602967022 0.33850488165034637 -1.6100602249663845 138 114 79
0.0286413183033844 0.34869070388518547 -1.6083668385622931 113 92 60
0.023640295286604357 0.35581954599856963 -1.6088078840830617 117 99 73
0.017218178903236486 0.36488635865918695 -1.6078391605344273 90 73 47
0.013011163091586647 0.3709286217074145 -1.6090018194576021 92 74 46
0.007497491011149521 0.37875248678289747 -1.608862836872013 89 72 43
0.003895758617317918 0.3839665045886651 -1.6105768171500712 99 78 43
0.001290731409642254 0.3878200970822032 -1.6132585613675479 151 125 85
-0.002131788281395347 0.39278802868883955 -1.6151207556846632 160 134 95
-0.004912945018814341 0.3968805172885161 -1.6176051248770864 127 103 62
-0.00593091713938787 0.3985683802819629 -1.6218361957660814 125 101 67
-0.007244508791746651 0.40065926691383336 -1.6257719384336304 84 61 32
-0.007904069094249538 0.4018585729257386 -1.6303623370215123 70 48 23
-0.010115844547632757 0.4051735208130717 -1.6333929183514577 72 51 27
-0.011543912685231805 0.4074200878785815 -1.6372075195773568 82 61 35
-0.011070068918838077 0.40707514033498915 -1.6429466016889305 89 70 41
-0.0125645541359585 0.4094122756493803 -1.6466952116295555 90 71 42
0.006075769947929577 0.3846279308207932 -1.6763077629031105 86 69 45
0.015450765034243613 0.3721669024356918 -1.6912719958999394 68 53 30
0.02653146112825952 0.3573873283585892 -1.7080603842143662 68 53 31
0.033110784867947884 0.34874045417026484 -1.7202800309250916 70 55 32
0.03242088365614468 0.34999138317345446 -1.7250195526061312 75 57 34
0.03517296355192412 0.3465578601438436 -1.733338732004459 66 49 28
0.0353657650253732 0.3466085349306911 -1.739015198336558 69 52 31
0.03328935092376564 0.3497472943075623 -1.7423270950116465 77 57 35
0.03235977298686743 0.35132546787523966 -1.7468357257626017 86 65 40
0.034442791688879065 0.34880576937810814 -1.7545159036898201 116 93 63
0.039203981108144964 0.3426447507966032 -1.7650444269394066 114 91 57
0.0345440157992675 0.34929768656436755 -1.7656349128160547 110 86 47
0.02949298859558863 0.3567959037989307 -1.7712943489604633 94 74 40
0.03373760658419728 0.3513414207370651 -1.7813467596452912 85 65 39
0.02992866564139507 0.35683481767655056 -1.782799300857612 82 65 38
0.039206246618333246 0.34454337416980046 -1.7983095061941463 80 63 36
0.03820044649218465 0.3462284400414995 -1.8027940634571524 83 66 39
0.03489476562026256 0.3510380738787619 -1.8047903111524954 96 78 50
0.0373568525897959 0.3480121154273266 -1.8130333797381823 84 64 36
0.04030696522989202 0.34432470030040657 -1.8218318205281274 70 49 21
0.03979907908218325 0.34533475735489905 -1.8268803827358284 80 57 30
0.03444188978811383 0.3529294045445597 -1.8266199373376628 86 65 35
0.03253292486201728 0.35584110794615725 -1.8301206429098658 83 63 34
0.027895580247095708 0.3624560360111569 -1.8306083432818383 80 62 32
0.02723561420321932 0.36367144216039027 -1.8354702685675968 76 58 28
0.02695136298190129 0.36437716975291873 -1.8407519741128124 76 58 29
0.026724043565912264 0.36500597152224706 -1.8461026306502573 77 59 31
0.026622746859099378 0.36546414982090974 -1.8515999238366228 77 60 31
0.02680339461581746 0.3655402794165548 -1.8574196631666455 79 60 30
0.026575216637699017 0.36617138230141716 -1.8627892376756554 80 61 31
0.025693077519765073 0.3676896386910775 -1.8674284660135125 80 61 31
0.02495329548516817 0.36901497057319993 -1.8722300881852234 83 63 34
0.022918858699202793 0.37209557062230963 -1.8755676390123397 88 67 38
0.02139081791126088 0.374489408229362 -1.8794743464024586 87 66 37
0.021100239551437444 0.3752059819375184 -1.884788564692342 88 67 38
0.02143978673526825 0.37506900793134684 -1.890828736871282 96 75 45
0.021296549034537426 0.3755867230800737 -1.8963253725337053 87 66 38
0.021517112710937314 0.3756119831595765 -1.9022470570280379 82 61 32
0.02140562337490448 0.37608753319899035 -1.9077949652201744 78 57 27
0.0187606778350754 0.3799945314404942 -1.9104190655289635 81 60 29
