ply
format ascii 1.0
element vertex 682
property float x
property float y
property float z
property uchar diffuse_red
property uchar diffuse_green
property uchar diffuse_blue
end_header
-0.4066855210159423 0.29694274892083805 -2.200391846366175 101 78 36
-0.4072758795317936 0.2976869199986444 -2.2057723019260416 105 81 40
-0.4096677580176168 0.30087735513367564 -2.2086337622098084 113 88 47
-0.4119024412687102 0.30385440767615757 -2.211707346953871 112 87 46
-0.41750957045902953 0.31141127931172163 -2.210020879320645 122 98 54
-0.41997421229467863 0.3147008858298591 -2.212740984761287 120 96 52
-0.42065201723052553 0.3155639409380455 -2.217983887160731 113 90 46
-0.421139162514479 0.31616801683095747 -2.223502515035007 110 87 45
-0.42093089270278644 0.3158275648301843 -2.2300185047967225 112 89 46
-0.4247733764409244 0.3209886341870151 -2.2307573279747417 118 95 51
-0.42593159906160205 0.3225040982919041 -2.2353225275879636 117 94 50
-0.4267216914643447 0.3235195410853173 -2.2404177338212308 107 86 42
-0.4252384567846168 0.3214471189603744 -2.248793064225561 108 86 40
-0.42675133922069436 0.3234441871681695 -2.252860687455277 113 92 44
-0.4290212251788897 0.3264695566022513 -2.255829380614997 105 86 43
-0.4348393933662957 0.33431497977948943 -2.2536335806825867 105 90 58
-0.43901300904234813 0.33992672425219117 -2.253797660890721 129 121 103
-0.18725275177414422 0.020098868949492255 -1.0660380764844426 182 184 186
-0.18552869202192024 0.01773795875508763 -1.0719678515268818 181 182 184
-0.1839284827112709 0.015543633481807234 -1.0778399683763649 180 181 184
-0.18250914055900008 0.013592653504306135 -1.0836193194160952 180 181 183
-0.18113149050963542 0.011697678983078885 -1.0893881146666828 176 176 177
-0.1008297643072536 -0.09850037833992686 -1.3941295188841922 105 97 85
-0.11283393111418172 -0.08237240195056228 -1.390766695904575 107 96 82
-0.1258928108229106 -0.06482287019708227 -1.386556741121833 89 77 62
-0.13578989968860644 -0.05153280547340616 -1.3846377186221712 79 68 49
-0.1435008623725632 -0.04118785200131414 -1.384306301900773 96 85 64
-0.15117085524729212 -0.030897790725686658 -1.3839677875563792 94 81 56
-0.15389646797711587 -0.027269582473129994 -1.387326255846365 109 92 65
-0.15815493771058364 -0.021575863489941227 -1.3895138213847962 110 91 66
-0.1622495243632594 -0.016102827649841167 -1.3918085142646501 112 94 70
-0.16528886697119216 -0.012051590185912953 -1.3948929922944926 105 88 60
-0.1686072741059061 -0.007624222632645283 -1.3977529142463547 99 82 53
-0.17362910625363082 -0.0009013176299057513 -1.3992886857057054 100 81 51
-0.17593631352702904 0.0021636305750699636 -1.4029010963061321 113 92 62
-0.1793577278897599 0.0067301253374742465 -1.405642515099488 98 77 52
-0.18274373280745082 0.011249006778815851 -1.40839869352375 81 63 44
-0.18548613149871795 0.014900641707385587 -1.411645652203161 77 61 42
-0.1875140452646445 0.01758946209929202 -1.4154448183558375 83 65 43
-0.1931290595244169 0.025112619102472034 -1.4164120742636221 100 82 58
-0.19520886094933426 0.027871531879949618 -1.420150316852817 95 77 52
-0.20017434261720451 0.03451962944870435 -1.4215917678020917 96 79 55
-0.20332163905710737 0.038717424924559374 -1.4244604628861905 90 72 48
-0.20708463127656002 0.043745141357034334 -1.4268250589715887 115 94 68
-0.21192528549125672 0.050225469130785794 -1.4283088311397738 107 86 56
-0.2149160423255455 0.05421261155508034 -1.4312625715828178 106 86 55
-0.21780547813846368 0.05806327301942116 -1.4342878209487229 107 89 54
-0.22164852940754737 0.06319938264972758 -1.4365284194341725 109 90 55
-0.2238337284260789 0.06610098013075566 -1.4401052208653624 110 90 57
-0.22063040176938342 0.06173922431219753 -1.4480870324684145 111 92 57
-0.22638493024441125 0.06945210444672884 -1.4487364744266178 111 91 56
-0.22743766194692278 0.07082724284103886 -1.453235729210217 106 86 51
-0.23669480009328406 0.08326202027225416 -1.4509453747952161 114 91 56
-0.23784122110101857 0.08476364091977001 -1.4553441349361913 106 83 49
-0.23757971514227308 0.08436728110663677 -1.4609175509701646 108 85 52
-0.23890441904058202 0.08610919676349527 -1.4651727404464792 103 81 48
-0.24031801145295298 0.08797094785624143 -1.4693528247823342 109 91 60
-0.2414445215633539 0.08944568009496423 -1.4737739607963567 75 60 38
-0.2411985430954191 0.08907006537819984 -1.4793572698846946 65 49 32
-0.2422250529406983 0.09040993061653951 -1.4838691562848523 96 78 51
-0.24297478787488147 0.09137663209702507 -1.488618377086861 126 107 74
-0.24475217990807416 0.09372883706552732 -1.49249158231246 117 97 66
-0.24837245548287262 0.09856576616809415 -1.4947792388039698 116 94 68
-0.2538533685061176 0.10591149780803283 -1.4954488259940024 124 99 69
-0.2529391757148982 0.10463481414481163 -1.501622745856803 114 91 55
-0.2529123829008113 0.1045545391710242 -1.5070399588893035 120 97 58
-0.2523127933174155 0.10370185771540003 -1.5129641217741139 119 95 58
-0.25309327145337024 0.10470995630893226 -1.5176934103051267 123 99 61
-0.2615425116941785 0.11605874012413586 -1.5156974700069004 129 105 68
-0.25465251257477495 0.10672376773050563 -1.5271624137964017 100 76 43
-0.2550137196216068 0.10716641824545314 -1.5322711207443864 68 47 22
-0.25430051307477053 0.10616017928238591 -1.5383382356168118 100 77 43
-0.2514452131803286 0.10226517711755756 -1.5463241127920722 179 150 101
-0.25809660169820553 0.111190193330157 -1.5458455326378138 166 137 90
-0.26054843392476124 0.11445207439285399 -1.549096755903577 125 104 67
-0.26311362803193006 0.11786689735245354 -1.5522384403170695 111 90 63
-0.2631214602703415 0.11783286269732773 -1.557680105478464 127 102 72
-0.2625633111249437 0.11699070866596195 -1.5691087974113125 128 100 62
-0.27337927165455256 0.1315334355316184 -1.5647174223239544 134 109 70
-0.2736684826380837 0.13178954868859338 -1.580818727332959 144 116 77
-0.28039975910848697 0.14082397639819277 -1.580063700650103 127 102 62
-0.2842035543384534 0.14591000133762067 -1.5819906703419848 149 129 87
-0.28856907534402143 0.15175385121201201 -1.5833780328624807 169 149 105
-0.2915697670579914 0.15575686334271305 -1.5860208766315425 161 139 92
-0.2943876518808848 0.15951337728350784 -1.5888238357040336 152 127 88
-0.29809036743340783 0.16446355892891706 -1.5907839551885337 172 149 107
-0.3013970275230783 0.16887960489305992 -1.5931021485673416 154 130 86
-0.3052048849451965 0.17397187260978914 -1.5949320606167339 170 142 97
-0.30785112692641803 0.1774972336248935 -1.5978497331494657 138 112 70
-0.3131492598850997 0.18460019554478724 -1.598228302060148 163 136 92
-0.31579246641719183 0.1881216821774035 -1.6011219206930467 161 135 86
-0.32020597188794364 0.1940315551175834 -1.6023059275372604 202 179 125
-0.32349187321166706 0.1984203166262531 -1.6045559463528731 208 182 125
-0.3271568530646609 0.2033206234149209 -1.6064259341079314 193 167 112
-0.3304870806742527 0.20776941949573086 -1.6086047919721222 197 170 125
-0.33701485129090064 0.21653247753731347 -1.6076566978781084 133 110 72
-0.33114577672495554 0.20856957070218157 -1.6187841754345336 96 74 38
-0.33253177751972063 0.21039527471069558 -1.6228469880830716 111 88 54
-0.33394189593814066 0.21225352896348854 -1.6268850287754781 110 87 54
-0.33809277552768086 0.2178099439510604 -1.6282173550123202 103 80 49
-0.3379954536220143 0.21763423924817354 -1.6337363881257345 85 63 32
-0.3382174899186263 0.21788939519455552 -1.638946914762994 85 65 34
-0.33586223751771727 0.21466671259541797 -1.646732843369817 92 73 42
-0.3361537764361898 0.21501547820733435 -1.6518957133302516 105 86 52
-0.311079819720516 0.18113470510630908 -1.6825147687705866 122 100 61
-0.307661065354455 0.17647571883921603 -1.6915094790555851 125 101 63
-0.293124220969293 0.15676647765068719 -1.7173942092511094 127 103 65
-0.29487863881169857 0.15908802137320555 -1.7212487672798549 125 101 63
-0.2956564401757036 0.16009156269216218 -1.726096210359117 117 92 55
-0.2978621592659546 0.1630222161743809 -1.729485631817623 115 90 53
-0.29828001391725156 0.16353994398228133 -1.7347043779560951 107 83 46
-0.2996283948827479 0.16531352845759573 -1.738970291819589 103 80 46
-0.2950821397834853 0.15913114299599745 -1.749327469960842 114 91 57
-0.29698857652655236 0.1616577958106249 -1.7530335262972199 128 105 67
-0.2992177191567415 0.16462005697078497 -1.7563995972514566 125 100 59
-0.3044516045768699 0.17163811381980637 -1.756623465886283 137 111 68
-0.3077280630459121 0.1760142400754986 -1.7588698355135408 125 98 59
-0.3057481335458769 0.17329521764636108 -1.766623680095062 95 72 38
-0.30225785476454614 0.16853724936965175 -1.7759911130312742 105 81 47
-0.31222241202375695 0.18194158382275794 -1.7711669264356873 104 80 47
-0.29766286683706217 0.1622408439403945 -1.7922930846304772 110 89 56
-0.2985188219574838 0.16334933219996772 -1.7971253650358974 114 93 62
-0.29747892940555815 0.16189844963919203 -1.8039841456339105 90 70 39
-0.29895833768185714 0.163848501642746 -1.8081610371317303 97 76 43
-0.30101853741924317 0.16658265167889597 -1.8117126193646955 116 96 59
-0.29999853112706293 0.16515838460277993 -1.8185783315789905 102 82 47
-0.30132707190539704 0.16690473246580606 -1.8229207505053555 99 79 47
-0.30262510954472527 0.1686099004238233 -1.8272959025000508 98 78 45
-0.30493721926940337 0.1716842128678404 -1.8305675786140139 92 72 39
-0.3097793362774523 0.17817452950621965 -1.8310706549881435 91 71 38
-0.31136308902387383 0.18026560271905523 -1.835116772041766 93 73 40
-0.3113007061546781 0.18013403350904061 -1.8409688681672685 89 69 36
-0.312272940725451 0.18139938819680312 -1.8456902200766898 87 67 34
-0.31297317672323827 0.182297449840425 -1.8507143310744614 84 63 31
-0.3124507090318719 0.18154444441687867 -1.8570982211476414 90 69 38
-0.31372283146406943 0.1832146483158958 -1.86149849041214 87 66 35
-0.31462064932310524 0.184379401728953 -1.8663164478520051 86 65 34
-0.31322000020609814 0.18244028347047953 -1.873709756381568 86 65 34
-0.31603534792941296 0.18619441494821015 -1.8763880479288169 83 62 31
-0.3157600376119632 0.18577483244894544 -1.8825366377377444 78 57 28
-0.3170304946281328 0.18744269806711067 -1.8869496817963016 78 57 28
-0.317777105549974 0.18840310115426856 -1.8919564920650767 77 56 27
-0.3196851052176167 0.1909319799465362 -1.8956466993803425 78 57 28
-0.317024360095251 0.18729047279513056 -1.90454270941358 80 59 30
-0.31776566921799815 0.1882435578410065 -1.9095748178923082 85 64 33
-0.3177649490684909 0.18819440402940812 -1.9154622255591534 87 67 35
-0.3178874570832419 0.18831161502293187 -1.9212168970984869 87 67 34
-0.3189462782801363 0.18969342620041696 -1.9258987661385265 85 65 32
-0.3222329021694754 0.19408435717519323 -1.9280021330333577 88 68 35
-0.3245134715669545 0.19711647976262725 -1.9312599729636721 90 70 37
-0.32481448650499317 0.1974747254422629 -1.9368174146916268 90 70 37
-0.3273184074304401 0.20080861124231897 -1.939807014725972 87 67 32
-0.33291939938603093 0.20832619990826418 -1.939156792405369 84 64 29
-0.3331722420004542 0.2086194188124742 -1.944765083197595 87 67 32
-0.3337304525131757 0.20932509692378848 -1.9500205306134584 96 76 43
-0.3319547036263996 0.20687773319148695 -1.9580427011558128 97 77 44
-0.3313031842676678 0.205948969908613 -1.9647526521987682 91 71 38
-0.3321120672691502 0.20699306967330405 -1.9697380865371372 89 69 36
-0.3321238164480053 0.20696020432395312 -1.9756787485718819 90 70 37
-0.34106232009091475 0.21898767634808008 -1.970937605634863 89 69 36
-0.3413134039575196 0.21927828294816804 -1.9765768562733546 86 66 33
-0.34089695641523676 0.21866692638248386 -1.9830278770902516 83 63 30
-0.3401193569035662 0.21756750545963782 -1.989927698347014 83 63 30
-0.33187140116554836 0.20637431448637938 -2.005897850099701 82 62 29
-0.33247548083247164 0.20714133580020866 -2.0111750788110836 81 61 28
-0.3296290953402104 0.20324597902726887 -2.0206650585408052 81 62 29
-0.337906428906051 0.2143812975679938 -2.01657959144806 83 62 31
-0.3395199185338315 0.21651231732739473 -2.020618097765794 79 58 25
-0.34377791040120803 0.2222168984384586 -2.0214002653004375 101 79 41
-0.3441469857554648 0.22266641010474875 -2.0269600615116548 112 89 46
-0.3446431322883546 0.2232875866637461 -2.032369321975957 145 116 66
-0.3441118876225651 0.22252029877103746 -2.0390599290808837 179 148 97
-0.34439078924593614 0.22284775726888095 -2.0447551792888676 172 142 97
-0.33691282122034155 0.212592306505215 -2.072331690007647 92 70 34
-0.33968081416732354 0.21628340244717909 -2.074951518072423 92 69 35
-0.34640437965921317 0.22532086980000243 -2.0725615436037654 93 71 34
-0.34870038486206845 0.22837432099383997 -2.0757429614274203 88 66 28
-0.35219863128569445 0.23305283487099487 -2.077388585016672 90 67 31
-0.351362890862542 0.2318733463968537 -2.0845433529215582 92 69 35
-0.34165063691917563 0.21869530269874132 -2.1030644711435724 98 75 41
-0.34610877989021366 0.2246712099578847 -2.1034952897427046 91 69 32
-0.3517490208152521 0.23224523140237907 -2.102381953711426 89 68 24
-0.3568242979181533 0.23905580396973936 -2.1019647261057646 150 124 75
-0.3620388504585143 0.24605488621422528 -2.101338811700961 167 137 88
-0.3665536504616412 0.25210824432726675 -2.1015912221649202 173 144 101
-0.3643976576408505 0.2491436262099715 -2.1104999678425904 107 85 44
-0.3655942388883961 0.25071120880464404 -2.11505937759123 92 72 33
-0.3661281146162061 0.251382839747294 -2.1204868996077746 94 71 32
-0.36819037974917634 0.2541207799181733 -2.1239138688562287 93 70 33
-0.3689050556785831 0.2550368087329861 -2.1291090534621055 87 65 28
-0.3702004160866726 0.2567379133250106 -2.1335419409630774 92 70 33
-0.37019599965855626 0.2566816205928778 -2.1396958546967957 90 68 31
-0.372575303974745 0.25984829411965665 -2.1426942105684543 90 68 31
-0.37580787331605886 0.26416876889902247 -2.1445478678646466 93 71 34
-0.3769914091234427 0.26571872294312304 -2.1491233440726134 96 73 35
-0.38222949684980245 0.27275124347739627 -2.1482687174390422 98 75 35
-0.38403031324467374 0.2751360194958072 -2.1520010058743773 101 78 37
-0.3857357302216739 0.2773918227340819 -2.1558578402554844 102 79 36
-0.3868328490325458 0.27882505296750987 -2.1605332562655044 102 79 36
-0.38808018091614244 0.2804614087037082 -2.1650066016799756 100 77 35
-0.3890470447214659 0.28171846823555186 -2.1698613304439647 102 79 37
-0.39193042583180476 0.2855673898016516 -2.1721069865932767 101 78 36
-0.39197605102745686 0.2855785650028248 -2.1782181172806174 97 74 32
-0.3957082090653854 0.29057553273947945 -2.179286755920875 103 80 38
-0.3961855947313877 0.29117061815124057 -2.1848094382695527 100 77 35
-0.4006954246746987 0.297219610929001 -2.1847807582881864 101 78 36
-0.40187831310954186 0.29876895104543666 -2.1893251586152385 103 80 38
-0.4034974766728827 0.30090838337573256 -2.1932656224164657 104 81 39
-0.40368251689274964 0.3011080198781737 -2.1991968503618753 104 80 38
-0.4053262870889289 0.3032807336575277 -2.2031033390813075 111 86 45
-0.4056151578564604 0.30362072546290403 -2.208900935338278 112 87 46
-0.40760341990470245 0.30625944057676296 -2.212324149224349 110 85 43
-0.40953169033077536 0.3088170480042727 -2.215826118566309 116 92 48
-0.41412208820628293 0.3149759620051802 -2.215570142101219 122 98 54
-0.41936011547441066 0.3220112098413383 -2.2143723974875558 114 91 48
-0.41997377437742356 0.3227906757165801 -2.2196989217585075 112 89 47
-0.42079624861690207 0.32385259946090655 -2.2247338512466484 115 92 50
-0.4220052912215562 0.32543748471481165 -2.2292212985961424 120 97 53
-0.4235054203409266 0.3274161880875117 -2.233293146285018 114 91 47
-0.4248581385516565 0.32919546321693727 -2.2375745308869885 108 87 42
-0.42533700095487975 0.32979241195289644 -2.2431115484859983 110 88 42
-0.42348193035037995 0.327231408382883 -2.2520195546511186 116 94 45
-0.4250661677079071 0.3293238262788534 -2.255980795541236 108 87 45
-0.43079023227692437 0.3370178800545197 -2.253938332509655 98 82 49
-0.4347915000704642 0.3423810473805428 -2.254364423643866 121 111 92
-0.44078842866122614 0.35044486265861047 -2.251859433792811 160 157 153
-0.4346023869849396 0.34202296032538965 -2.267124642866479 183 183 184
-0.18044924111104965 0.019047089305938708 -1.0239226942785091 181 183 185
-0.18018387353947507 0.018656540517303588 -1.0289285384773459 183 183 184
-0.1845046440427843 0.02428023192946971 -1.0507974882398157 171 171 166
-0.18390482719164467 0.023440719497299256 -1.0560312449334288 159 159 154
-0.1826422483743512 0.021711896027853644 -1.0616634312738455 147 147 142
-0.1813478489514391 0.019940281508275537 -1.0673278700810334 135 132 128
-0.18040712128589678 0.018643111554932035 -1.0727967449921803 128 125 120
-0.18410177373027997 0.023565508584314165 -1.075521891670201 129 126 122
-0.1828667449938931 0.021873368368527962 -1.081177464319895 130 127 122
-0.18155976277660416 0.020084584081586115 -1.0868896546090794 126 123 119
-0.18054149338524592 0.018683106522847492 -1.0924417153866626 124 121 116
-0.17317513055570963 0.008727927502457489 -1.1068243194601863 126 123 118
-0.17310687444359646 0.008600900430769831 -1.1118476865278604 119 115 110
-0.17277913842378115 0.008125622455827153 -1.1170374608644575 111 107 102
-0.16536758919645636 -0.001855730337451733 -1.1266027799906135 108 105 99
-0.16171159658611622 -0.006797638419412166 -1.1338903772773605 121 115 110
-0.16051228067644932 -0.008442943346597731 -1.1396770325934256 134 130 125
-0.15768993165675987 -0.012266444786231956 -1.146491273340268 144 142 138
-0.1553846029299572 -0.015396258749554748 -1.1530036461346078 140 138 135
-0.09432140024537367 -0.09876019040872469 -1.3904381899377314 108 99 90
-0.10925005733674414 -0.0787535085221977 -1.3849746144569717 109 99 87
-0.12086729467115054 -0.06319285355809412 -1.3818783571712516 106 94 79
-0.12986025949060875 -0.05115571201997904 -1.3806686119360567 58 46 30
-0.13667623480898927 -0.0420416146640592 -1.3810352388527172 83 72 55
-0.14367733539377953 -0.03267868717752892 -1.3812309246456893 98 87 69
-0.14887962685098438 -0.02573112287604279 -1.3827434594940295 91 79 59
-0.15329452854549047 -0.01984078855348631 -1.3848263743393119 105 89 65
-0.15790165712412374 -0.01369217507048337 -1.3867453403731318 113 93 68
-0.16238509154700953 -0.00770953711401845 -1.3887386009605371 112 94 68
-0.16630503726829654 -0.002483514919005614 -1.3911426124678028 105 88 60
-0.1702307191746622 0.0027503224052228825 -1.3935265624867126 102 85 56
-0.1738216373217466 0.007534678438720244 -1.3961520641365066 114 95 65
-0.17622498441252893 0.010724179847109105 -1.3996800582047304 112 91 60
-0.178643291726303 0.013933821502166766 -1.4031897468564103 102 81 55
-0.182348191569925 0.018871508509019475 -1.4056922623139145 77 60 39
-0.1847172810917061 0.02201517021461813 -1.409222857897195 85 69 49
-0.18818214091958024 0.026630632564729695 -1.4118883465518552 84 66 43
-0.1921178170871939 0.031878562625503704 -1.41417038208019 97 79 55
-0.19610473610051937 0.037195434178816766 -1.4163959513087159 100 83 58
-0.1996189176652991 0.0418774473309641 -1.4189798241884326 99 81 56
-0.20305488081173045 0.04645449315022776 -1.4216123851331213 93 73 49
-0.20711271937171566 0.05186695365064009 -1.4237352499826113 113 93 67
-0.211665680212748 0.05794460783565947 -1.4254443549518425 105 85 58
-0.2138194865142441 0.06079968475770714 -1.4290639138862447 107 85 55
-0.21429758943407362 0.06140383737959687 -1.434031414062309 108 87 53
-0.2166446910328298 0.06451861187701313 -1.4374885201328833 108 87 53
-0.22225102989900208 0.0720116890484766 -1.4382869506623286 114 93 60
-0.22765524778006752 0.07923343335422839 -1.4392240036887483 111 89 55
-0.22846951600293344 0.08028930705393156 -1.4438986161541254 112 91 55
-0.22947479774332416 0.0816017697214767 -1.4484187349904363 114 93 55
-0.2325334285280471 0.08567274058245394 -1.4512444923035597 114 92 54
-0.23269834433090392 0.08585623998591768 -1.456458008807466 114 92 55
-0.23500048049830288 0.0889109788621294 -1.4598999490615276 115 93 58
-0.23304191075862202 0.08624154894046421 -1.4668935977553708 117 95 60
-0.2374020311076884 0.09206121192507799 -1.4686107829446682 117 98 63
-0.23544942362019144 0.08939964964406405 -1.4756194980929622 97 77 49
-0.2409992356109211 0.09681786312410567 -1.4763133580248868 76 59 38
-0.24004777309257105 0.09550129984258715 -1.482490083416332 72 53 27
-0.23991302630434788 0.09528197837187563 -1.4879858007972535 137 113 77
-0.24218728019281163 0.09829938061218102 -1.4914337447798354 141 116 76
-0.24478873933704956 0.10175647503377522 -1.4945950415754845 132 107 75
-0.2482034560186917 0.10630637512813512 -1.497048707739701 123 97 66
-0.24869898051722433 0.10693388829570522 -1.5020080088572554 122 98 60
-0.2487608016825627 0.10697859653348873 -1.5073476289410999 121 97 56
-0.2505745423654877 0.10937736231025974 -1.5111719553284708 121 98 57
-0.25273796456014197 0.1122460390231051 -1.514687752398117 122 98 59
-0.25043080757335345 0.10906875124107823 -1.5275305799252206 104 81 48
-0.25105565528671825 0.10986983295686509 -1.5324066063124433 74 55 29
-0.2525854231864446 0.11188695754613731 -1.5364858890133455 82 60 32
-0.25272822438690595 0.11204019726235659 -1.5417950488088334 174 148 98
-0.2546738722394328 0.11461621149390266 -1.5455046454795873 187 157 101
-0.2575958769260054 0.11850439304041394 -1.5483367474412024 158 133 89
-0.259566326398053 0.12111382288903039 -1.5520122908407117 101 80 50
-0.25951215866136934 0.12100228919421824 -1.5575067012486394 121 98 68
-0.2615408470654965 0.12369000977773786 -1.56112695510722 119 94 58
-0.2602599279273927 0.12192965014894896 -1.5677439699242466 130 102 66
-0.2566748850807073 0.1170723796909417 -1.5764741690155009 122 96 59
-0.2630674519492718 0.1256252568148309 -1.5761224509300718 127 104 63
-0.2628239048330996 0.1252589735079206 -1.5818200525185246 126 102 59
-0.26326304431546166 0.12581021528880088 -1.586899363725551 141 115 75
-0.27445545530257476 0.14081504445334786 -1.5820597430262175 133 108 66
-0.27840854476053195 0.14608968663149435 -1.58386083032932 150 128 96
-0.28518242826900103 0.15515604993657517 -1.5830232042919676 152 133 100
-0.2857931130857189 0.15593820123855828 -1.5878973800970422 160 139 95
-0.29056053511545726 0.16230783246003455 -1.5888860342512452 141 116 73
-0.29496566771078514 0.16819062533958 -1.59019217088682 161 139 95
-0.3004550937933519 0.17553112631282886 -1.5904563038593462 155 129 81
-0.30503629968634166 0.18165092550123663 -1.591551623627411 166 139 91
-0.3100142295622791 0.18830419359100697 -1.59224895431108 153 128 82
-0.30737600157279765 0.18471907809375154 -1.600171741005182 149 121 75
-0.3103486596698003 0.188676741894165 -1.6027605127446125 154 127 77
-0.31581082521651016 0.1959812966071331 -1.602952094042931 183 158 104
-0.319624746191593 0.20107016406222095 -1.604701159906124 184 155 99
-0.32302885743206156 0.20560819782183692 -1.6068288069678576 192 163 110
-0.32620545119984057 0.2098404499077518 -1.609162523003043 209 181 134
-0.33098130420164823 0.2162229317139019 -1.6099299281038661 194 170 127
-0.3190962011395613 0.20020521261122248 -1.6269135246586235 97 75 39
-0.31891430273636684 0.19992191062676196 -1.632537583270429 114 91 59
-0.3297315412679267 0.21442720468440446 -1.6273778906454095 117 94 60
-0.3314256661698534 0.216666439920774 -1.631137335482047 96 73 42
-0.33324527062443576 0.21907441388837112 -1.6347697445129465 101 79 48
-0.3361626833828991 0.2229585283107039 -1.6373101535401833 91 71 40
-0.3368002137146644 0.2237771396874209 -1.642106602991218 89 70 39
-0.33434753034957865 0.2204404780623176 -1.6499902034516585 109 90 56
-0.30966052978496855 0.1872058197801974 -1.6801561831048724 122 100 62
-0.3043579130845244 0.18003599879190424 -1.691024764607549 123 99 61
-0.29176207940988963 0.1629785586057534 -1.7205324455511875 130 106 68
-0.2936840062118684 0.16552305698830794 -1.7242122048119473 121 96 60
-0.2965378060744561 0.16932078102889125 -1.7269360779259482 119 94 58
-0.29808065730015243 0.17135556973175464 -1.7309922316640525 105 81 43
-0.29851350888461814 0.17189757773628556 -1.7361873031210504 104 81 47
-0.29383603884829934 0.16556675708975566 -1.746657224797774 112 89 55
-0.2953102874627 0.1675091465192446 -1.7508033375319898 125 102 64
-0.30444855608416616 0.17959794172908405 -1.76965512350715 102 79 46
-0.29226182457954486 0.16312489943620656 -1.7939324486427695 106 84 52
-0.2963660900737181 0.16860468213159685 -1.7953209007365996 111 90 59
-0.2956319932005634 0.16757640132382418 -1.8018427500686924 87 68 36
-0.29727540504305083 0.16974612640036363 -1.8058382317646413 101 81 47
-0.29961544229154485 0.17285295127348188 -1.809084555068668 109 90 51
-0.2989078264477559 0.17186013225763636 -1.8156004854687218 108 88 51
-0.302286007451034 0.1763635205326698 -1.8177228612967953 99 79 46
-0.3047139656995835 0.17958872773132484 -1.8208590162694271 95 75 42
-0.3033578200432655 0.1777233463686016 -1.8280949742358943 92 72 39
-0.30828060632810345 0.18430485470059282 -1.8285114760870456 91 71 38
-0.30918914421398186 0.18548609345432904 -1.8332880566417935 93 73 40
-0.30863364227713946 0.18469767628808853 -1.8396715599649964 88 68 35
-0.3104338028970952 0.1870784049355304 -1.8434780487392284 87 67 34
-0.31080655464298 0.18753873240713725 -1.8488550433840711 83 62 30
-0.3110247022675286 0.18779100813198107 -1.8544093283879404 83 62 31
-0.30983776593170465 0.18615277085173237 -1.8615302543583876 85 64 33
-0.310841437251911 0.18746180419239306 -1.8662296664120979 85 64 33
-0.30941849103377733 0.18550582742619365 -1.8736408444403805 84 63 32
-0.31017492918905826 0.18648211671832693 -1.878629505488822 81 60 29
-0.3118312691387783 0.18866923616481007 -1.882610593075785 75 54 24
-0.31429223582381094 0.19193905396306393 -1.885682052557211 77 56 27
-0.315444517528937 0.19344797410339198 -1.8902249851003163 81 60 31
-0.31629540082171215 0.19455132096547045 -1.895110663705589 81 60 31
-0.3126938062747842 0.18966320303619538 -1.9050652082485868 81 60 31
-0.312855085255763 0.1898384172068731 -1.9107596484472449 84 63 32
-0.3150796689400073 0.19279014908404263 -1.9140999021398315 87 66 35
-0.3130550020052816 0.19002363596660848 -1.9223131397688442 87 67 34
-0.31452217113287534 0.19195607022527644 -1.9265275790854368 88 68 35
-0.31699012680116956 0.1952353404086707 -1.9295843790022427 93 73 40
-0.32010395813318815 0.19938388564566228 -1.931884210120662 91 71 38
-0.32167766549927773 0.2014597956482762 -1.9359614968953534 89 69 36
-0.3247256146380651 0.20551982009571096 -1.9383175754700286 88 68 33
-0.327497925303631 0.20920896073631895 -1.940983463901282 86 66 31
-0.328040999685848 0.20989785924831234 -1.9462541651118623 87 67 32
-0.32829974719089 0.2102040388567064 -1.9518647515130987 94 74 41
-0.3288078147677681 0.2108457376740986 -1.9571883637824397 97 77 44
-0.3279567817710594 0.20965808632868466 -1.964126728891506 91 71 38
-0.3267864493524532 0.20804054973688618 -1.9714596438679464 90 70 37
-0.3276113147794372 0.2091084689904345 -1.9764335304660943 91 71 38
-0.33791458629540216 0.22293475772293514 -1.9700857207682871 90 70 37
-0.3373722606337003 0.22216253275260162 -1.9766705074937403 87 67 34
-0.33749043891554764 0.22227931824383518 -1.9824745157390729 85 65 32
-0.3366903479171033 0.22115993800027955 -1.989394091035595 85 65 32
-0.3296081355661481 0.2115837635786051 -2.003925825846083 82 62 29
-0.3332923780058584 0.21650071345667093 -2.0054592441146424 81 61 28
-0.32791919516790363 0.20922465246779748 -2.0179943960213973 80 60 28
-0.344218220417739 0.2310389076219101 -2.016096431284819 93 71 33
-0.3435743200438835 0.23012937144608397 -2.0228850688920255 110 88 46
-0.3330071457474 0.21585970008950534 -2.041941967670943 126 100 53
-0.3322357752142101 0.21477808226172618 -2.0489532950908247 179 148 99
-0.3293328957538769 0.21082652313754552 -2.058627688683847 181 149 104
-0.3369736718611587 0.22094111657470838 -2.0734349330589192 86 63 29
-0.33902598983089655 0.2236612179600957 -2.0769462192401824 91 69 32
-0.3436964084712938 0.22990674626015928 -2.0771414055839488 86 64 27
-0.3526007761633463 0.24185376282380316 -2.071942044343944 85 63 26
-0.3489014542276725 0.23682909613627318 -2.0827167124923194 92 70 33
-0.33794028193753356 0.22202518776075758 -2.1027921926154867 96 74 38
-0.3426155111033973 0.22827738554237292 -2.102954317585016 96 74 36
-0.34841138705407954 0.2360389118842382 -2.1016532194888895 96 74 30
-0.3541574588776897 0.24373360693375012 -2.10038246045917 161 133 82
-0.36101122249714473 0.25292030171080926 -2.0976486037935533 175 143 91
-0.36686775771784547 0.2607642703064158 -2.0961636911077295 179 148 101
-0.3619045096280862 0.2540365777016758 -2.108690362858653 112 88 45
-0.36236965561663537 0.25461956721563844 -2.1141966761226594 93 73 35
-0.3640743608015532 0.25687199702294855 -2.1180906752277378 90 70 29
-0.35971983642821126 0.2509634893673521 -2.129916266334722 90 68 29
-0.3679252171185942 0.2619715035761772 -2.125289457868608 85 63 26
-0.36882987535712797 0.26314641479111994 -2.130226072215206 92 70 33
-0.3678276583325645 0.261752848416867 -2.1376844567568716 91 68 33
-0.3688554129457537 0.26309347379521536 -2.14247111229229 89 67 32
-0.3729739377178849 0.26859735132481893 -2.1431534835520063 92 69 34
-0.3749461997368775 0.27121030914167293 -2.146673874543513 94 71 35
-0.37706515188518075 0.27402090380550365 -2.1499930109467233 97 73 36
-0.3796085580737641 0.27740331802552654 -2.152736971433026 101 78 37
-0.3818484637403199 0.28037695274853935 -2.1558791459410296 102 79 37
-0.3856714723604019 0.28548329496230057 -2.156880342588445 101 78 36
-0.3856649147079799 0.2854307241792355 -2.1630380382537986 99 76 34
-0.3861881747852957 0.2860918482565465 -2.1684875418597773 101 78 36
-0.38902942159322923 0.28987576525237446 -2.170792000532898 101 78 36
-0.386878638770579 0.28693427542882327 -2.1798895994520717 98 75 33
-0.39077601739823414 0.29214112511484236 -2.1807454426097026 103 80 38
-0.3925974192077085 0.29455115275343696 -2.1844271108956286 101 78 36
-0.3965045632979325 0.2997713914077275 -2.1852369568298182 101 78 36
-0.39851743480311136 0.30243951452209444 -2.18863811590146 101 78 36
-0.4002837493229333 0.3047754711983208 -2.1923744699849204 103 80 38
-0.39992538107329645 0.3042486308992457 -2.199053098401862 105 82 40
-0.40171633042718186 0.30661777643493493 -2.2027559157037038 109 84 44
-0.4032656234536321 0.308661326181527 -2.206791710112545 117 92 51
-0.40553075016836415 0.3116694740962683 -2.2098243963507893 109 84 43
-0.4077574680936223 0.3146259203667066 -2.2129031930050416 116 92 48
-0.41108904441026506 0.3190712741833858 -2.214420812563079 122 98 54
-0.41366870482606216 0.32250347622567216 -2.216982571826395 115 91 48
-0.4147020313111066 0.3238518987698386 -2.2217207933001606 110 87 45
-0.4178980424463896 0.32811482083420157 -2.223393986934164 108 85 42
-0.4196575227944983 0.3304418890823314 -2.227094826300759 116 93 49
-0.4209302901599736 0.33211304491645083 -2.231485903458695 114 91 47
-0.42244134657861365 0.3341053479229959 -2.2355362318449616 110 89 44
-0.42229611980564125 0.33386540872173154 -2.241959862173198 110 88 43
-0.42039487158085737 0.3312586610289264 -2.250920074994837 112 90 42
-0.4221143565653098 0.3335317814617627 -2.25468446461472 106 86 43
-0.42721821145297084 0.3403665005335106 -2.2535513358308505 91 74 41
-0.4312109367790707 0.3457037867000741 -2.253998694978452 116 105 84
-0.4353428684481048 0.3512288635824788 -2.2542217706049503 156 151 146
-0.4315747171053424 0.34610541482646195 -2.265941094391026 181 181 181
-0.17682043792413474 0.021909137309087362 -1.0238808265744044 149 147 143
-0.17672411046312644 0.02175097826879835 -1.0287893029245916 137 131 125
-0.17751057788732044 0.022773348428417606 -1.0332026860560846 126 118 113
-0.17562865428996013 0.02022719101950951 -1.0391433709265334 117 108 103
-0.1764660744642504 0.021317631155117256 -1.0435393066444711 108 100 90
-0.1764969155098255 0.02132937183889172 -1.0484026109026174 100 92 80
-0.17878598834370504 0.024361180865434706 -1.0519634027001832 90 80 67
-0.17818203358737797 0.023523909265715237 -1.0572030902134386 84 74 61
-0.17698654733387703 0.02189545792384734 -1.062798739560392 85 75 62
-0.18071419985225412 0.026851262109685387 -1.0655138062680833 96 85 73
-0.18023375022704863 0.026179053551695364 -1.0707000837285867 90 80 68
-0.18288547120929433 0.02969593935225817 -1.0740375231803254 96 85 73
-0.1849076969169575 0.03237093790927781 -1.0777422787705526 103 92 80
-0.1837123446737606 0.030742477650191807 -1.0833689749917668 92 83 70
-0.18226992893776017 0.028783487963895987 -1.0891574715932002 91 82 70
-0.19264145744719988 0.04262586007728597 -1.087822833377795 93 84 72
-0.19208514975377233 0.04185209665455131 -1.0930702906875942 98 89 78
-0.19077139931567408 0.0400651503642554 -1.0987892729999988 106 99 89
-0.17652784152627862 0.020983529847068916 -1.1124407668647582 119 112 103
-0.1742116298029065 0.0178553154214367 -1.1188399827957018 118 111 102
-0.17093178218236635 0.013438015070204035 -1.1258542412512806 126 117 109
-0.17158747672099092 0.014284844798008511 -1.130450589718571 122 115 106
-0.1690626688695205 0.010877281508556214 -1.1370331166549503 128 122 114
-0.16619737120195607 0.0070141330757405584 -1.1438497121035973 142 137 130
-0.1643029488732137 0.00444956326059992 -1.1500783639365364 127 123 117
-0.16247113014705758 0.001968632533611625 -1.1562848780680328 142 138 132
-0.16039172979112928 -0.0008435938091708728 -1.1626656099303863 127 123 117
-0.15703179335381245 -0.005368938612104246 -1.1698810552393322 105 100 96
-0.15405430170910886 -0.009382825977860387 -1.1768773752431174 135 131 127
-0.150771692561272 -0.01380503007749223 -1.1840934989466336 123 118 115
-0.14776589171078458 -0.01785707986927393 -1.1911562459520324 142 139 136
-0.1448007824257017 -0.021854837079991363 -1.1982164800410702 145 145 142
-0.14149410364772558 -0.026309692868498713 -1.2055229059973744 153 153 151
-0.1018742021702233 -0.08022420413308234 -1.3819714683602071 109 98 88
-0.11442341646174153 -0.06346260708177554 -1.378243324520915 105 93 80
-0.12714418601830485 -0.046471014853219306 -1.3743229147140492 71 59 44
-0.13171804083938532 -0.040382429677888576 -1.3763672547179444 62 50 35
-0.136940007756927 -0.03342631692625575 -1.377910632951301 90 79 63
-0.14190070445449277 -0.026819744596049577 -1.3796259064194765 86 74 58
-0.14670597792084394 -0.020421060532825497 -1.3814360351151307 95 82 64
-0.15166559588011252 -0.013815673559395392 -1.3831093640486392 98 82 58
-0.1562998846597876 -0.007645588376016255 -1.3850066724388992 109 92 63
-0.1622933694441669 0.0003438396061859472 -1.3858538781160465 108 93 62
-0.1669290990155855 0.006516117084421735 -1.3877064431910764 103 86 58
-0.17077111512257742 0.011626136335146309 -1.3901454791096903 101 84 55
-0.17396877930998078 0.015873776681196716 -1.3930634622135696 117 98 68
-0.17656974773652084 0.019322792647246567 -1.396429415324533 110 92 60
-0.17980698907661924 0.02362353629364733 -1.3992957179574648 108 89 61
-0.1823664618541896 0.027017114720513158 -1.4026761634358262 87 69 47
-0.18525140709633153 0.030846410882012898 -1.4057954366345737 77 60 39
-0.18868744752747518 0.03541346091170894 -1.4084742055316553 89 71 48
-0.19189684766975973 0.03967720470327396 -1.411317881089475 89 71 47
-0.19586013528191631 0.04495019926297461 -1.4135559997621647 90 72 47
-0.20135864428812889 0.052278421196329916 -1.4145638564510796 96 77 52
-0.2048482980796778 0.0569175993221977 -1.417140938736922 93 73 48
-0.20641261703736213 0.05897943219934215 -1.4212387819560435 98 78 53
-0.21246173140404445 0.06704510817412435 -1.4217476466360357 103 84 57
-0.21472885469971048 0.07004790772383246 -1.4252640319284349 103 80 50
-0.2176643743304001 0.07394555619234405 -1.4282356587890757 112 89 56
-0.21955819403783564 0.07644867685171136 -1.4320397681947463 113 90 57
-0.2215393202872759 0.07906870527247811 -1.435769118392032 118 95 63
-0.23003957473114073 0.09041656671085457 -1.4341810742209145 110 87 53
-0.2280486090034977 0.08771886006590368 -1.4411310438007194 118 95 58
-0.23380833685011654 0.09539794487370923 -1.441736889633292 120 98 59
-0.23069022462970584 0.09119105674972089 -1.4496316338359803 115 93 54
-0.23083060470336447 0.09134671574823106 -1.454857711302881 120 98 60
-0.232173937678848 0.09311295742022485 -1.4590918570109037 121 99 62
-0.23419775662545864 0.0957903121298937 -1.4627584018283528 128 106 68
-0.23582122739072472 0.09793165772524015 -1.4667550488770285 139 115 77
-0.2315173722739972 0.09213663961531549 -1.4757249839175812 112 86 51
-0.23928496331765958 0.10250467067726149 -1.4745588370513347 81 62 32
-0.23947086840459827 0.10272118351052395 -1.479763534458211 67 47 21
-0.23967294511651424 0.10295931049780532 -1.4849610759086305 117 91 53
-0.23978595277774536 0.10307813288866963 -1.4902409652951178 166 137 89
-0.24267576480683312 0.10691516648393196 -1.493154148772192 151 125 79
-0.24594406796217194 0.11125908344785157 -1.4957324662399565 132 107 70
-0.2467569252445664 0.11231504228153455 -1.5004125365790346 129 103 71
-0.2452059042610482 0.11020552271528633 -1.5071380880577314 119 93 56
-0.23553709003122947 0.09715947065709468 -1.531800770509573 123 98 63
-0.2406039905859556 0.10391197032774324 -1.5328104947357692 111 87 52
-0.2492747982030362 0.11549093440356406 -1.5306258450162764 83 62 33
-0.2505052861549582 0.11710602797088443 -1.5349637413873187 75 53 30
-0.2515122904021938 0.11842182475773755 -1.5394998007533538 134 111 68
-0.2524683234020946 0.11966934900115062 -1.5440827372134152 186 157 102
-0.2552519301872417 0.12336447132157918 -1.5470367727113885 179 152 105
-0.25800926109576167 0.12702446098071524 -1.5500046999743282 92 71 42
-0.25962765713478375 0.1291591265949228 -1.5539866134424267 111 89 64
-0.2605337627794766 0.13033981832977792 -1.5586085498735471 118 94 61
-0.25556146331523344 0.12364729330341484 -1.5685523700312798 125 98 64
-0.25553247568210435 0.12357541685959478 -1.5740465134659367 120 94 58
-0.2659587692278725 0.13750710467098015 -1.5700209230376132 132 107 67
-0.2706243642292574 0.14372325923986118 -1.5712050724959867 135 109 67
-0.27136551435112105 0.14468306412160364 -1.5759688004428605 138 114 76
-0.2683922663140649 0.1406676375501983 -1.5841561811124185 139 112 77
-0.2713076713462489 0.14453965657883588 -1.5869291414918165 132 110 75
-0.27717185257112587 0.15236156136505474 -1.5869572262533247 159 141 108
-0.2834601509853424 0.16075174872371434 -1.5865611410884273 168 149 107
-0.287063942643479 0.16554618922298647 -1.5886391233927741 155 132 87
-0.28988611373888645 0.16929371218906808 -1.5914342199119371 174 152 104
-0.29585595046633517 0.17725777042954982 -1.591260078248203 176 150 100
-0.2998496440936833 0.18257482037011108 -1.5929195755450705 154 127 80
-0.30453805910716314 0.18882262297448388 -1.5939037108712664 173 145 95
-0.30955659237682087 0.19551279160951734 -1.594551997498134 167 135 85
-0.31057957116965307 0.19685052813108506 -1.598983550060216 150 119 70
-0.31490980142944297 0.202618827486017 -1.600253915351361 172 143 93
-0.3151572905360432 0.20291770995390424 -1.605421496575995 182 153 98
-0.3184031018385768 0.20723338440130779 -1.6077088557170258 214 184 132
-0.3218178114834116 0.21177541343130984 -1.6098199291632547 203 173 125
-0.3266939353211804 0.21827543222575446 -1.6105002613645107 167 143 94
-0.31874015902155206 0.20758671239069498 -1.6236340618847005 111 89 49
-0.3233647167504923 0.21374972495420858 -1.6245540944829204 100 77 46
-0.3261447721923706 0.21744162355027052 -1.6272577767957364 101 78 47
-0.3195575263221633 0.2085831680054323 -1.6391531620867463 89 66 35
-0.3298843014841685 0.22238633371076288 -1.634428978809982 94 73 41
-0.3338057877426365 0.2276077284043076 -1.6359792517463971 90 70 38
-0.3342530700550041 0.22817424570857386 -1.6409588972264189 91 72 41
-0.33254535480048586 0.22585327056628202 -1.648088979136884 96 77 43
-0.30734604826966333 0.19205554122328267 -1.6787021054466909 122 100 62
-0.30370249466329197 0.18713997233468332 -1.6878886439507843 121 97 59
-0.2929025044271367 0.17256718610955274 -1.715510719873183 123 99 61
-0.2928647990018066 0.17248271037682733 -1.7211654757632826 123 98 61
-0.29390124935226497 0.17383758465940136 -1.7257346009714987 120 95 58
-0.2949289809555628 0.17518076630283924 -1.7303141377946005 110 86 49
-0.29710030341186316 0.17805643219158102 -1.7337225749562677 107 84 50
-0.29114210352164854 0.17003782789179112 -1.745488321622117 116 92 59
-0.298166815906193 0.1792118199378201 -1.7779271539396044 102 80 48
-0.29389519380484347 0.17341769923212286 -1.793861395323022 111 90 58
-0.29153753558014806 0.17022308820000348 -1.8020989441541257 103 84 51
-0.29376035714077914 0.17316762070164438 -1.8054787060059168 99 79 46
-0.29640310874867687 0.1766750401081088 -1.8084029567070017 104 85 46
-0.29656386908695515 0.17685575957675254 -1.8139804510061681 116 96 57
-0.30055841533425737 0.18217515721359634 -1.8154397062290388 97 78 43
-0.30463944504270896 0.1876105898410561 -1.8167869607530682 91 71 38
-0.3014677801276691 0.1833244824908597 -1.8259698879365533 92 72 39
-0.30449637105005617 0.18734926592580353 -1.8284469255152485 90 70 37
-0.306459811538922 0.18994632920894766 -1.8320728094641803 90 70 37
-0.30570206573837305 0.18889571914260217 -1.8386691670292843 87 67 35
-0.3086513681306288 0.19281433432570433 -1.8412136023813215 86 65 33
-0.30874466732454303 0.1929044784628416 -1.8468888205915968 82 62 30
-0.309722976243396 0.1941809686341165 -1.8515953895097912 80 59 28
-0.30580033120267053 0.1888873943596549 -1.8617303215956211 81 60 29
-0.3066908914786223 0.19004612223800055 -1.8665554606042756 83 62 31
-0.3076035025361979 0.1912343953120212 -1.87135872144607 87 66 35
-0.3083229565482083 0.1921637010759235 -1.8763804025042958 83 62 31
-0.309688845345919 0.19395962616414558 -1.880681249615205 74 53 24
-0.31002363306979974 0.19437318740121778 -1.8861410725638117 75 54 25
-0.3115192485859072 0.1963430217154013 -1.8902979554890924 82 61 32
-0.3125787230495675 0.19772812498248415 -1.8949468633342115 81 60 31
-0.31161916750448626 0.19640623517867334 -1.9018891610382993 81 60 31
-0.31207018905339046 0.19697548999853598 -1.9072410567189553 83 62 31
-0.31219384820031054 0.19710578942635515 -1.9129726941430811 85 63 32
-0.30951861504469175 0.19348328854843783 -1.9219191474169262 80 60 27
-0.31130375559440976 0.1958411768772454 -1.9257676107833317 83 63 30
-0.31495018894087173 0.2006947849357058 -1.9274669242130784 91 71 38
-0.3184587491846522 0.2053636252186291 -1.9293089288816792 90 70 37
-0.31435522701516405 0.19982563983439017 -1.9399639741116537 88 68 35
-0.3159467991021659 0.2019240074274447 -1.9440316265123159 88 68 34
-0.3172899618498633 0.2036892893509757 -1.9483869829510228 85 65 30
-0.3189036359613652 0.20581731564577094 -1.9524252871139731 83 63 28
-0.3196605419636088 0.20679645550883013 -1.957467169122918 88 68 34
-0.32063985034466375 0.20807381234635208 -1.9622509109906763 96 76 43
-0.3238791361500648 0.2123818163546603 -1.9643672538875347 91 71 38
-0.3231724733216253 0.21139824882211744 -1.9711448729637842 92 72 39
-0.32482953616878235 0.2135844856402686 -1.9751276826887754 96 76 43
-0.3335289575118372 0.22521509571628312 -1.9707131706624845 93 73 40
-0.3333155836725942 0.22489307469582104 -1.9769015958743752 89 69 36
-0.33335144989081056 0.22490524994527056 -1.9828018988903473 87 67 34
-0.3317550758214474 0.2227283012730613 -1.9906745383331983 85 65 32
-0.33181994420061733 0.22277922860519678 -1.9965637778956562 83 63 30
-0.3312611129802711 0.22199360411283753 -2.003216592299835 82 62 29
-0.3347259138262117 0.22660443387213286 -2.0049992118207363 82 63 30
-0.32873612464292423 0.21853456174795105 -2.01827564805586 79 59 27
-0.32816238174337037 0.2176557377333297 -2.037056254610512 107 86 43
-0.32698094437921116 0.21599787219341038 -2.0506181214663504 171 146 96
-0.3275531636613517 0.21672873769078976 -2.0559785764210887 183 153 105
-0.32954390266071387 0.21932560702067644 -2.0656604306212776 99 75 37
-0.334820550749231 0.22636706263162265 -2.065151590343933 94 70 35
-0.33419988076246054 0.22549771715201383 -2.0720088654912736 91 68 34
-0.3377017666813018 0.2301585958318536 -2.073695180746206 93 71 34
-0.34023753212145064 0.23352352425357553 -2.0765838626088104 87 65 27
-0.3414015616967498 0.2350482961215279 -2.081198801553185 85 63 25
-0.33723235428993037 0.2294182937191661 -2.0925819580516825 92 70 31
-0.3338713292821342 0.22487227528940973 -2.1029772990677618 94 72 33
-0.3336323128073541 0.22451449715052324 -2.109422657575228 98 76 36
-0.34221496070347557 0.2359918909987 -2.104587158860344 101 79 32
-0.3482858488464287 0.24409975292400327 -2.102921816924114 152 125 72
-0.35450081471963263 0.25240113390748825 -2.1010351870544057 178 148 95
-0.36042246871042805 0.2603092078517729 -2.099490369170004 179 151 103
-0.34893118186053396 0.24485452115324918 -2.1204617600310365 123 98 55
-0.34813801676155304 0.2437531837716096 -2.127634232649084 95 73 37
-0.3485482629843824 0.24426642491035389 -2.133254885374395 89 69 30
-0.35962997156085114 0.25909827381283324 -2.124941178889989 89 68 28
-0.365056122599656 0.26634198329523395 -2.123963188946277 90 68 30
-0.3672405078904175 0.2692360297538625 -2.127213404945393 90 68 31
-0.3668373173917811 0.2686580079548959 -2.1338666005218383 89 66 32
-0.3668519278573213 0.2686405396298764 -2.1399804935932294 89 66 31
-0.36999506348384953 0.2728211328505241 -2.1419576466121213 89 66 32
-0.37173941529171334 0.2751247726750646 -2.145779887474399 92 69 34
-0.3737037033573145 0.2777235728637461 -2.149305461638417 95 71 34
-0.3742791504661068 0.2784586437107015 -2.1546824867445955 100 76 37
-0.37458962355872566 0.2788380925486707 -2.160420198444286 101 78 37
-0.37641831878876153 0.2812549507386421 -2.164124166104386 100 77 36
-0.38462467209776213 0.2922308017212877 -2.1592247400352913 101 78 36
-0.3802417304566124 0.2863115508569737 -2.1712951201170534 101 78 36
-0.3862624294342607 0.29435445178360364 -2.1693013951120292 100 77 35
-0.38814499865719443 0.2968438166147564 -2.172898565213884 97 74 32
-0.387899414490436 0.2964769788388938 -2.179393416126794 100 77 35
-0.3905114556581434 0.2999454037610461 -2.1819918705222383 100 77 35
-0.3942004247649248 0.3048593047499871 -2.1831029663009525 101 78 36
-0.39624184534042095 0.3075620001318313 -2.1864614196194903 100 77 35
-0.3970724903772774 0.30863961528679795 -2.1914839847821592 103 80 38
-0.39723357924973646 0.3088185079399052 -2.1974361919971637 105 82 40
-0.3982703863699093 0.31017278761360584 -2.2021824126940586 105 81 40
-0.39908629351095526 0.3112305457463769 -2.207237822499608 114 89 48
-0.40157701991389555 0.31453640076216066 -2.2099605810556118 109 84 42
-0.40407142649095984 0.3178472531797639 -2.2126686961213693 116 92 48
-0.4076488190523792 0.32261191267261685 -2.2138480373510885 119 95 51
-0.40845939793588476 0.32366257538305954 -2.2189014953824544 115 92 49
-0.4127072855608097 0.32932746093895593 -2.219109639559689 110 87 45
-0.4145796668118526 0.33180355058932365 -2.2226548168476885 106 83 40
-0.4172289692319764 0.33532264534138523 -2.225093124886116 113 90 46
-0.4171165475391893 0.33513426779870964 -2.2314492815386697 114 91 47
-0.41939258614278235 0.3381523228551786 -2.2344092125743913 110 88 44
-0.4185187435646754 0.3369416464346751 -2.2418671415124463 110 87 43
-0.41948207168714885 0.33819734986658156 -2.2467067611329354 114 92 45
-0.42004903605084654 0.3389208926971815 -2.252119041653295 118 97 54
-0.42406097530631065 0.3442695994588359 -2.2525676552109197 98 81 48
-0.4279694337555469 0.3494795035162445 -2.253144053376157 111 98 76
-0.43205835016923533 0.3549318255495873 -2.2534375734296734 150 144 138
-0.43426170772811606 0.35785260964736737 -2.256451048020714 179 177 177
-0.614479339782805 0.5981663032303448 -2.2686579638701416 215 215 215
-0.6175874025076387 0.6023072514045411 -2.269454293408544 214 214 214
-0.6211813457486274 0.6071012926093741 -2.2694251104026653 215 215 215
-0.16579661140002827 0.014913702712005872 -1.0279968952896457 84 75 63
-0.16823005589094006 0.018133274838890462 -1.031494559942015 87 77 63
-0.1686147289643359 0.018621792661149744 -1.036148645664497 84 72 58
-0.17599274691417696 0.028432765369593327 -1.0368186623003324 86 74 60
