ply
format ascii 1.0
element vertex 696
property float x
property float y
property float z
property uchar diffuse_red
property uchar diffuse_green
property uchar diffuse_blue
end_header
0.1225436590053583 0.2550935853396186 -1.4676443485216977 97 77 51
0.12279721085150272 0.2551514340523982 -1.4731042478686995 87 67 40
0.12231758938475093 0.2562672993242422 -1.4779410983111878 72 52 28
0.12179482327474928 0.2574456324918625 -1.482743851210254 79 59 38
0.12120051413406505 0.25872734437581485 -1.487487508676137 112 94 68
0.11896958153438239 0.26236840467437883 -1.4908105995113747 108 92 63
0.11693636046567762 0.2657238994738574 -1.4942985496184733 103 88 61
0.11427599954916079 0.2699825656520934 -1.497230883708656 116 97 70
0.11172548025179962 0.2740821444699131 -1.500249397505626 97 77 47
0.11451198974679805 0.2704930925209231 -1.5079647858519327 95 75 44
0.11633780699625257 0.2682895454026271 -1.5148534300374676 94 73 40
0.1084145294314923 0.280125831323026 -1.5131015914989931 95 74 40
0.11363334067994857 0.2730377036550181 -1.523018763729517 99 79 44
0.10986998358709377 0.27888224736912226 -1.5249417756890715 98 75 40
0.10894894736683089 0.2806346798568602 -1.5293982795034176 85 63 27
0.11332809182247608 0.2747603789769385 -1.5386283070468114 82 62 25
0.11705574689110873 0.26982609630425847 -1.547303176217785 156 131 85
0.11626628676484291 0.27139188369302447 -1.5519114410579593 159 130 82
0.11474705252341141 0.27400734068117577 -1.5558569493921852 149 117 79
0.11321995213213198 0.27663384374491556 -1.559791994689523 103 76 38
0.11007414154157041 0.2815872931989755 -1.5622406046684838 106 82 38
0.10784373683625859 0.28522380564372246 -1.5655172857641126 100 77 37
0.10256541304941197 0.2932401254730237 -1.56597442679612 86 63 34
0.09834750412603074 0.299730515993644 -1.5673861475532465 82 59 29
0.10183831874114752 0.2951442965111513 -1.575937562467222 100 77 38
0.10281496099357407 0.29417178257400856 -1.5821741195157346 110 86 43
0.10311854778605109 0.2941668961653682 -1.587793726072543 114 90 48
0.09973264391470399 0.29946045942074584 -1.5899596359089296 111 87 45
0.10035851305437091 0.2989932697284162 -1.5958874126704545 126 102 60
0.09971466117217836 0.30034946767742443 -1.6006260078134187 129 105 64
0.08081437383073475 0.32876296445426917 -1.5986634056985791 142 115 77
0.07792006058152665 0.33334350492420667 -1.601202194631472 127 101 66
0.07560337046810317 0.33709468306232926 -1.6042836451402722 127 105 75
0.07136711899406684 0.3435975433374828 -1.6055065104742656 104 88 63
0.0638317432733343 0.3548283301968591 -1.6035183121465302 96 82 58
0.0605756188869008 0.35992211453763423 -1.6056398176867768 90 73 47
0.05705412418282915 0.3653950130181877 -1.6074883802830362 97 78 52
0.05285018126372454 0.3718444134806211 -1.608654089572119 100 82 55
0.04788449300476544 0.37938337919682535 -1.6090526327584276 90 73 44
0.042156391404113286 0.3880122693279593 -1.6086759567487605 103 84 56
0.03775500580912883 0.39473877353228704 -1.6095771099243008 112 90 64
0.03481340943624303 0.3993733944112443 -1.6119005628055123 87 66 40
0.032976781822885465 0.4024252032306312 -1.6153081846078645 97 80 55
0.03431191937743586 0.4009369547400537 -1.6218691600736357 88 72 46
0.034686192538845445 0.4008248985255491 -1.627484913503237 85 65 38
0.03393499139096878 0.4023237936371642 -1.6319811070695427 73 53 23
0.0323983734320043 0.40494631421723715 -1.6356887901936954 96 75 45
0.03373452784012909 0.4034598816568352 -1.6422912657982507 99 78 46
0.036611881728460166 0.39977083386374884 -1.6504687446274358 92 71 40
0.04124648565269601 0.3935715076712789 -1.6604557153579989 104 83 55
0.0485885690507695 0.38350502446099755 -1.6732374567600947 97 80 53
0.05845898293349347 0.36982956442468373 -1.6886574783796304 73 54 31
0.06663151986702665 0.35858591128086054 -1.7024076694542476 70 53 30
0.07339959740019575 0.34935354485427367 -1.7147732716771609 79 63 41
0.07688388752170944 0.3448157093297887 -1.7238014388372962 73 57 34
0.07960365410817818 0.34137205890041455 -1.7320676376506348 80 64 39
0.07905491176215168 0.3425972452396273 -1.7369642565285006 91 70 42
0.0810673208712972 0.34016647193999544 -1.7445317495432149 93 73 42
0.08461071256699099 0.3355521388156233 -1.7537189281805825 100 78 47
0.07787472771382092 0.3456091841962268 -1.752160431963814 111 89 57
0.08064150307505019 0.34210500237556685 -1.7605569930797214 112 89 55
0.08438755750113361 0.3372058973525588 -1.7700114895233814 95 71 38
0.08684641271625904 0.33414516973980546 -1.7781353100628514 115 90 55
0.08522560380497826 0.33690372951611575 -1.781951479253837 115 94 58
0.08113071417499038 0.3431892335890333 -1.783129099621567 106 83 53
0.0802970223047805 0.34482449632166845 -1.787769655169845 104 81 53
0.08194401697055617 0.34292449230288735 -1.795069350806263 100 78 48
0.08035202544631961 0.34564109583277225 -1.7989054186013658 106 85 56
0.08225214507058765 0.3433824704797114 -1.806502577139594 105 86 59
0.08670488416153857 0.337489601885129 -1.8168797504316907 87 66 41
0.08542495964643096 0.3397634258830466 -1.8210744964002452 84 64 35
0.08570303721366432 0.33981881391290636 -1.826962815231873 89 69 38
0.08483298599062636 0.3415093001926942 -1.8316065656305853 99 78 48
0.08052632154756928 0.3480910673875627 -1.8324886032361762 99 78 48
0.07903361532773565 0.35066680763410724 -1.8364388936138172 100 79 49
0.07806839401202303 0.3524918222717097 -1.8409670123688187 90 69 39
0.07633494339984928 0.3554096270973374 -1.84464656419951 92 71 42
0.0751430060185374 0.35755691081086205 -1.8489214137986525 89 68 38
0.07263556943695715 0.36157460672855224 -1.8517325763127892 95 74 43
0.07236689792699372 0.3624087895373179 -1.8570300343262267 94 75 43
0.07070504685242551 0.3652235812196963 -1.860774263352035 91 72 40
0.07061146429252974 0.3658093761564635 -1.866273443660969 91 72 41
0.07078020212371766 0.36602296527977396 -1.8720740040766206 89 70 39
0.06975711801945986 0.36793022438775863 -1.8765374151805112 92 72 42
0.06941249212676298 0.36887388926212994 -1.8817687799536094 92 72 42
0.0655712019116361 0.37478312900128297 -1.8830343813450265 90 70 41
0.06569246763182418 0.3750651324881164 -1.8887934742311112 90 70 41
0.06619869167431502 0.3748013360308442 -1.895000001534172 92 72 42
0.06567383915550015 0.37600163592901326 -1.9000355895563363 91 70 41
0.06328889911993527 0.3798414466901286 -1.9029370531119745 89 68 39
0.06446165378736735 0.37863353561074514 -1.9099294597245742 87 66 37
0.06615327787436495 0.3766909069924663 -1.9175366239067047 86 65 36
0.06560857526082903 0.3779210001964298 -1.9225695557431783 87 66 35
0.06565063336449697 0.37831946013434326 -1.9282880062728327 86 65 34
0.06551154483371846 0.3789752808401711 -1.9338024489590966 83 63 31
0.06228562338548205 0.38400629587286245 -1.9357121833974753 77 57 25
0.06118945060163522 0.38601835826948827 -1.9401052113536112 81 61 28
0.05817246474749033 0.39075150841326267 -1.9422375827073426 83 63 29
0.05599303588244045 0.39429724061499744 -1.9453444740811066 83 63 30
0.0539821229781762 0.3976036837874364 -1.9486427196739768 84 63 32
0.05571165097673536 0.3956137817886165 -1.9563739829567406 87 66 35
0.05479309786925632 0.39737387526747153 -1.960971762003309 95 74 43
0.060169687359875657 0.3902247767038853 -1.9730863443971205 95 74 43
0.04817932367653316 0.4076530880439206 -1.9644494759135191 92 71 40
0.05258609225134295 0.4018782916861169 -1.975427867996642 94 73 42
0.04606839576358204 0.4115582463484723 -1.9732864582829177 92 71 40
0.03702594045796337 0.42526342151336616 -1.9737252416700295 90 69 38
0.035790627065331815 0.4297677705266662 -2.006360793011988 81 59 29
0.03516593458544795 0.43111138479362293 -2.0113021167775518 79 58 27
0.038029710467112954 0.4275309854779279 -2.020570242182118 88 67 36
0.0380908047924087 0.42790819066093605 -2.0263817989370705 102 81 48
0.04156709125735966 0.42346716463146233 -2.0364583829036187 126 101 64
0.04349302600202842 0.4212158150009342 -2.044628588285071 131 104 69
0.041121347349042936 0.4250276301006544 -2.047431682357761 98 75 45
0.04227189609072285 0.42387182585024424 -2.0546535191263358 83 62 32
0.043445332099773915 0.42268499885714905 -2.0619196211758326 81 60 31
0.046429286187830515 0.4189473869475468 -2.071490526045836 83 62 34
0.03732432817458092 0.43224872085251004 -2.0657617400535297 84 63 34
0.05048321133456998 0.41417586943493473 -2.0882843469454127 85 64 35
0.037071635799271474 0.4335410280135176 -2.0770281510378514 79 58 29
0.03685092799561457 0.4343208524462509 -2.0825502384825767 79 57 28
0.04189877625909791 0.42768237077428706 -2.094833759854792 79 58 28
0.03946951579413227 0.431573915123099 -2.0975462736403405 93 71 40
0.04500060467251574 0.42426012349257985 -2.1105131996928987 101 77 40
0.04171936684453753 0.42935128902739045 -2.112132423158119 121 95 51
0.03854348557765841 0.4342929071685345 -2.113871982851002 146 118 72
0.03457813592114245 0.4403437886450704 -2.1145694741972516 139 112 74
0.03169626143031448 0.4448691778600733 -2.1166584107008224 98 77 46
0.027257047835350157 0.45158322614072527 -2.11669764421185 81 62 32
0.024263820385914597 0.4562625179408491 -2.1186079545054475 78 56 25
0.024403964634140185 0.45653670431808374 -2.1246235144543086 80 57 26
0.02541318714400498 0.45559033544950883 -2.131793230307552 80 57 25
0.021656262438232904 0.4613411653618851 -2.1326767410476895 78 55 23
0.01688401752323418 0.46851651813163236 -2.132194330378362 79 56 24
0.017376929162621874 0.4682956834076296 -2.1386835004462474 80 57 25
0.017942966250661857 0.46797306595471777 -2.1452811256226076 81 58 26
0.030268088256620307 0.45114478096101507 -2.1676075315145398 82 59 27
0.025566984117089603 0.45821960177555815 -2.1672119231101847 82 59 27
0.018646607296218365 0.46983267221490954 -2.1814616422928137 80 57 25
0.008814512950932968 0.48504286355926524 -2.1857532070442733 80 58 27
0.008377479694626211 0.4861307605516994 -2.1910407293737006 79 57 26
0.01656239544753904 0.47514173388396985 -2.2081739165115737 79 57 26
0.013998766074281965 0.479211113620545 -2.210573382393991 79 57 25
0.012612318532191469 0.48163132568383016 -2.214586866170131 78 55 23
0.008497021973748853 0.4878713214620464 -2.214819440357419 79 56 24
0.005175906028703325 0.49299795357254556 -2.216131500359944 81 58 26
0.0005530222552289077 0.49994470741146957 -2.2156143650625753 82 59 26
-0.0032116994022419743 0.50568875581307 -2.216268063997583 82 59 26
-0.006937256346056492 0.5113763658765331 -2.216956021263088 82 60 25
-0.011430676695519004 0.5181360797591932 -2.216546232155542 83 61 27
-0.014599848520052361 0.5230423202192336 -2.217973472409702 84 64 29
-0.01386695107724048 0.5224931445805786 -2.224889039082251 84 64 29
-0.012447832502102324 0.5209860679122242 -2.23278826506278 85 65 29
-0.014164841026886199 0.523862074262399 -2.2362581273400854 86 67 30
-0.016505458264357092 0.5276087290966298 -2.2388359206195783 87 67 32
-0.01919312119334829 0.5318392329808175 -2.2409088851938854 84 66 30
-0.020154731667608783 0.533658751249937 -2.245436536579483 78 63 27
-0.02110591150151836 0.5354637363357961 -2.249979474148972 66 51 22
-0.021447598532233908 0.5364181369620846 -2.255398696018534 75 65 43
-0.018994020156033603 0.5334726817677938 -2.2648504586137057 115 109 99
-0.017815459378267867 0.532308001405038 -2.2724865428428878 157 154 155
-0.018360708265337422 0.5335488554872106 -2.2776424361602703 182 182 182
-0.02564949760731139 0.5441931199275472 -2.2730087423735963 192 193 193
-0.028953558570543547 0.5492784828858435 -2.27412913120493 198 199 200
0.17957826911557093 0.1422266759658734 -1.0312496196241678 164 160 158
0.17778453081821724 0.14524255471164405 -1.0350649487796404 151 146 143
0.17589237532991508 0.14840171182529938 -1.0388181997406296 135 129 123
0.17425664874294663 0.1511862228701925 -1.042716932014002 124 118 107
0.17341899540736228 0.15280591575116298 -1.0470828405565193 112 105 94
0.17221051009015031 0.15496668606564656 -1.0512296425795666 90 83 71
0.17110836506423424 0.1569722276633237 -1.0554384369180303 83 75 63
0.17075028571157508 0.1578925033506413 -1.060091672678642 74 66 54
0.1634192285350406 0.1689814170432269 -1.0605568254459876 68 59 47
0.16308671321457324 0.16986338789731736 -1.0652128804313998 80 71 59
0.1705039390046895 0.15944809268321414 -1.0745739346219585 85 78 66
0.1723420063762136 0.1571686284315082 -1.0805814721226146 99 92 82
0.17418597624660564 0.1548818424273148 -1.0866082791280722 107 99 91
0.17580072211001427 0.15293034679365825 -1.0925098209331852 113 107 101
0.17758643462978949 0.15073095481853188 -1.0985314497450889 124 119 113
0.17919767439503126 0.14878697218193393 -1.1044602365996794 143 138 134
0.18082145099432145 0.14682591529933747 -1.1104113275025012 159 153 152
0.18261986220883258 0.14461174838938984 -1.1164863626705208 172 169 167
0.20841962917071086 0.13124709715233301 -1.428647419950666 97 88 76
0.20513548826078304 0.13642304606298866 -1.4314040604733977 98 83 68
0.1977502625536741 0.14751247780806676 -1.4308769933749914 94 77 59
0.19052856214997552 0.15836299159063927 -1.4304426352557336 95 80 60
0.18637580587300293 0.16478593036759293 -1.4324365967128 97 83 63
0.182119884217098 0.17135603599615634 -1.4343285034803315 93 76 59
0.17624970712293883 0.18025103996563402 -1.4348942920497862 90 74 57
0.16157479856591192 0.20183101742900106 -1.4282775734757471 91 75 57
0.15667559973504422 0.20932014295820683 -1.4295499564105352 90 74 56
0.15333428391938014 0.21456324731902193 -1.4320738729589386 92 75 57
0.1488658901687132 0.22142844554413005 -1.4336577401168868 93 77 57
0.14540298618605313 0.22684403765862027 -1.4360496441625 87 71 51
0.14559429139828475 0.22699731510996046 -1.4414506554720048 84 68 48
0.13951217761736215 0.23618168422152308 -1.4416482325925053 89 73 52
0.14112195003024816 0.23429307047820758 -1.448227082253764 97 80 57
0.1378475445226239 0.23943403170372363 -1.450735319157709 91 73 49
0.13472456547102712 0.24435599416055132 -1.4533568261212433 85 65 41
0.13418585010828002 0.24555945516998423 -1.458143280624707 86 66 42
0.1360937882313143 0.24324426508390212 -1.4650019364958617 99 79 55
0.13208625208041885 0.24943692505137205 -1.4668568142284868 99 79 53
0.1326974486137078 0.24898753589591477 -1.47262812242598 93 73 46
0.1328715097431319 0.2491673283826794 -1.4780355076356881 87 68 39
0.13267125088699178 0.24988569417969658 -1.4831288644565759 104 84 58
0.13180963684626207 0.25155481860998974 -1.4876575797163707 121 101 75
0.12729700397568902 0.2584695643245876 -1.4890318544616614 116 97 69
0.12490225797416893 0.26234022566141224 -1.492221299796708 105 88 60
0.12162483098203841 0.26747791647797936 -1.4946338437656719 113 96 68
0.11870396881959247 0.2721024338356987 -1.4973437310760702 96 79 51
0.11705496834685827 0.2748999280073258 -1.5011565415699821 93 72 44
0.11976768282791772 0.2714359526931257 -1.5088020088690395 97 76 46
0.1224065041981176 0.26807990479427085 -1.5164051698150363 95 74 43
0.11792507532193128 0.274943036411054 -1.5177234716807886 93 72 41
0.12063591859555733 0.27148553439675177 -1.5254136074106595 97 77 43
0.1148018357347064 0.28028727971565487 -1.5255042950522197 92 69 35
0.11325844742848695 0.28293281861101666 -1.5294057067077262 86 65 29
0.12273958156930129 0.2697694360395367 -1.5432066593229055 134 112 70
0.12230670597173862 0.2708250829343566 -1.5481365533181017 150 126 80
0.11963281956723329 0.2750933770526457 -1.551042955332177 137 110 66
0.11844718942142068 0.2772278651157599 -1.5552896662983138 124 95 57
0.11616374174101862 0.28093535272681475 -1.5585353410209783 94 70 30
0.1160553557907111 0.2815260248253 -1.5637607238198523 102 79 38
0.11182176280476452 0.28802617362408317 -1.5652087326326982 98 76 40
0.11456527827561774 0.28453231342561563 -1.5730565269278112 80 56 27
0.10475450129665034 0.2990169223858895 -1.5693362858048137 97 75 39
0.11140660178846523 0.28992796257301245 -1.5808127460480297 107 84 42
0.114279141630963 0.28625296448566534 -1.588823850097723 112 88 48
0.09866984241939578 0.3094643695022662 -1.5849332666201026 121 96 56
0.10859638038794941 0.2956982925911544 -1.5995744804081922 139 114 76
0.10658793744263492 0.2990091379770188 -1.60303907421809 122 96 59
0.09183956520675127 0.32053879065216007 -1.5944526818431344 143 118 79
0.08887127251590562 0.3252177089600197 -1.5969534990875611 138 113 74
0.08625299717453219 0.3293952210699702 -1.599774865048166 135 109 74
0.08272911369602037 0.33486628572497734 -1.6017210388338352 127 104 70
0.08055506220622091 0.33840704125755655 -1.6049443631427478 112 92 62
0.07657707080648743 0.3445246389885318 -1.6064259312427842 110 94 68
0.07072319673347804 0.35332043812707464 -1.606079066617297 99 84 59
0.06609264682512198 0.3603664484482511 -1.6068848808783234 94 77 51
0.06224458226444621 0.366293148895589 -1.6084270463077401 92 75 49
0.05688015654966816 0.3743833303435208 -1.608473708849407 102 85 59
0.05322654686656497 0.38002903938913446 -1.6101642254216624 96 79 51
0.048360476597015645 0.38740379522430024 -1.6106486682621157 116 98 70
0.04331417159363152 0.39503369119640896 -1.6109307593938154 117 97 69
0.039840232236476814 0.4004181468232987 -1.6127384632507777 96 76 50
0.03916932655088701 0.40180293164944836 -1.617305519857104 96 79 53
0.04068129636871004 0.40007471412743595 -1.6240429570484798 83 65 38
0.039554466045657155 0.402110491727342 -1.6281664563403337 71 51 23
0.04178835509293838 0.3993549948635399 -1.6356492064596275 74 54 24
0.039563438760912145 0.40295668045042604 -1.6386799969061476 100 80 48
0.039791499772027755 0.40306192671772884 -1.6441711944295536 99 79 46
0.041580816997567216 0.40094325308159984 -1.651246386712115 107 86 55
0.04355786514155993 0.3985586059983656 -1.6585296353518497 110 91 60
0.054554861796569654 0.3833282595873755 -1.6749972178471462 88 72 46
0.06479714322570312 0.36917904056344275 -1.6907734321518288 75 58 34
0.07542426471141159 0.35448787593781245 -1.7070163641358966 63 45 23
0.08216111708938417 0.34534077585665046 -1.7193441564273644 73 57 37
0.08659621870205358 0.3394737735510552 -1.7293536225952402 71 55 32
0.08843328183004559 0.33730664076227523 -1.7367163615203305 89 71 44
0.08883952445189294 0.3371766767445884 -1.7426157873709485 98 77 46
0.09053651980634841 0.3352114415658042 -1.749865512848811 101 80 49
0.09106010140264725 0.3349164587674436 -1.7559099595034753 108 87 56
0.08506296564919599 0.3438941616536775 -1.7551466970611933 111 90 57
0.0894623487430436 0.33808907515850256 -1.7652548951064406 112 89 54
0.09412286204491382 0.331915737479326 -1.775673443188829 103 80 44
0.09488462219192703 0.3312859757347512 -1.7820144794329948 123 101 64
0.09254448133048293 0.33506444399543533 -1.7850830891927554 108 85 52
0.09083634104228161 0.33794439787678116 -1.788814111595585 107 84 53
0.08567349449685807 0.3457306524160782 -1.7888599752679268 104 81 51
0.08792236022022232 0.3429898935313455 -1.7967990412643258 104 81 50
0.08761277310374294 0.34388325456637797 -1.8020170518328327 107 87 57
0.08781412036181166 0.34405173688592094 -1.8077891225461207 84 69 43
0.08908933760441051 0.34269683901424863 -1.8147275754415417 66 50 27
0.08956928964800814 0.3424716109116636 -1.8208207827461158 76 57 31
0.08972475005775662 0.34270753793684183 -1.8265717534763533 101 80 50
0.08681767088355657 0.3472879577866767 -1.828996446271154 99 78 49
0.0861178998688285 0.3487371350331316 -1.8338188547703578 95 74 47
0.08450543161474317 0.3514805376517766 -1.837643617026585 97 76 45
0.08320082179298219 0.3537872018538625 -1.8418025902449 96 75 44
0.08161330848945492 0.3564946601105467 -1.8456478102387306 96 75 44
0.08081846347733435 0.35807857983031843 -1.8503653833460518 95 76 44
0.0793462780839721 0.3606222315026894 -1.8543333758043365 97 78 46
0.07995814259217712 0.36021365031491037 -1.8606160427546485 96 77 45
0.08021423593915886 0.36030980182210254 -1.8665127739962073 91 72 41
0.07810379420937338 0.363757454485817 -1.869770130014925 89 70 40
0.07477173291417152 0.368933865544581 -1.8716490467626565 90 71 41
0.07651732200102238 0.36692230276921106 -1.8792280150105938 89 70 40
0.07569994537792143 0.3685390684582461 -1.8839319121941391 90 71 41
0.07047121619423469 0.3763971343045874 -1.8836414685309282 90 71 41
0.0702099364443364 0.37722627672174003 -1.8889646516583027 90 71 41
0.06938826406213514 0.37884836816587386 -1.893654489075752 91 72 42
0.06980964532259443 0.37871292576484955 -1.8997659883267604 91 70 41
0.07116367226818507 0.37725980991173125 -1.9069561189094468 90 69 40
0.0705113878597636 0.3786437546143894 -1.911856170471152 89 68 39
0.07233381814497325 0.3765308051513915 -1.9196117780796145 88 67 38
0.07433042242228219 0.3741733600974463 -1.9275881856157404 88 67 37
0.07435167488547495 0.3746079254772487 -1.933294306506591 88 67 36
0.07529751296856216 0.3737372894201962 -1.9400829992808986 85 65 32
0.07482914011629224 0.3748646340048373 -1.9452353276720307 82 62 29
0.07206022282489621 0.3792400297448143 -1.9476996659721604 82 62 29
0.06860010954642207 0.3845900250429985 -1.9493408237823568 81 61 28
0.0678075600418708 0.38617427159645384 -1.9541047096909434 88 68 36
0.06681045732229624 0.388047244059196 -1.9586286755231082 91 70 39
0.06617531119453382 0.3894096508289118 -1.9635812683400062 89 68 37
0.06306548688662073 0.39426235186208414 -1.965598267274272 96 75 44
0.057687264990420345 0.4023123817379198 -1.964899589810429 95 74 43
0.05604007993208135 0.40510010839103594 -1.9686264180081094 95 74 43
0.05948348137725751 0.4007124679751701 -1.9784459346779 95 74 43
0.05406332422702295 0.4088177199003786 -1.977649529616567 93 72 41
0.047532376952318295 0.4184854507091643 -1.9754842902298477 92 71 40
0.04900995063564778 0.41686914118081614 -1.9829561963731692 91 70 39
0.04137284407641342 0.42809069021518886 -1.9794015764884327 90 69 38
0.037598632854025815 0.43433324291293457 -1.9861677634867252 87 66 35
0.03737511048231831 0.4351123216715446 -1.9915747408164928 86 65 34
0.03623578495251842 0.4371805485088877 -1.9958647258978053 88 65 35
0.04322098296396057 0.4278183587415451 -2.010140223323166 88 64 35
0.045794302706107876 0.42466653768360635 -2.019033424769478 85 64 32
0.05014800778379633 0.4190129914976532 -2.0301527869271605 95 75 42
0.05010140576172448 0.4195495010309473 -2.0358547489112038 104 83 47
0.05014860790379261 0.4199547050009279 -2.0416801682405255 131 106 66
0.04772492180517998 0.4238332381643937 -2.0444323905889634 124 100 64
0.04664707865142681 0.4258198282546403 -2.0488574111643207 91 68 40
0.044963474120773644 0.42865739980691103 -2.052522433192388 80 59 30
0.044810837446487894 0.42934421203729456 -2.0581077962425276 79 58 29
0.048045783200073106 0.42527436804126617 -2.0679709601707565 80 59 30
0.05024518081216875 0.4226609072444933 -2.076554861987697 81 60 31
0.0507861397057871 0.42237728790531903 -2.0830586107482674 82 61 32
0.04493592524440315 0.4310640734749794 -2.0814460692593943 81 60 31
0.044764488747825154 0.4317799916899827 -2.087040812353439 81 58 30
0.0420809234922456 0.43602050671621484 -2.089429078605838 79 58 29
0.04361282565331867 0.43434767542036906 -2.0972112774944254 94 73 41
0.042436613850896976 0.43647378901782563 -2.1015291961084888 105 80 43
0.04579894147845717 0.4322369773876386 -2.111698681222284 134 105 63
0.04324780929028238 0.4362914133061531 -2.1142526672015913 139 111 69
0.041314630863593715 0.43947896873612213 -2.117596978004517 110 85 51
0.038360139970099516 0.4440969208492753 -2.119606658428306 85 63 33
0.03555140248439262 0.44850956395161384 -2.1217924441946994 81 60 29
0.03158672527276121 0.45454002511832925 -2.122453846429632 82 60 29
0.029752342339418564 0.45758593118667445 -2.1258871304383926 83 60 29
0.02672149723664463 0.46230627090601406 -2.1277413891143953 81 58 27
0.02756730085976744 0.4615996741079221 -2.134692077816776 80 57 25
0.021230794856354873 0.47094438173844416 -2.1321609275085547 80 57 25
0.02079758880905222 0.4720271979219934 -2.137416986153179 80 57 25
0.024859664281411398 0.4668227863425031 -2.1486528976659525 81 58 26
0.03202220911421377 0.4572856789495799 -2.1640585603175655 82 59 27
0.02975879004621243 0.46093197194344293 -2.1669250913606417 82 59 27
0.01619450895448654 0.4803739837318294 -2.1546365170079613 82 59 28
0.029527878186657197 0.4622187243768719 -2.1784042466731295 83 60 29
0.033215050569208676 0.45754983463763504 -2.189278063954922 82 59 28
0.013797926609217331 0.48659839848630937 -2.1865764215730983 80 57 25
0.011933497767929124 0.4896818047091506 -2.1899144259204557 79 56 24
0.020721414276588357 0.47790032891503437 -2.2078359355957224 78 55 23
0.01805400513004357 0.48210616795828554 -2.2100979708583655 78 55 23
0.016060558692947285 0.4853709649105202 -2.2132758823730763 78 55 23
0.017178406076666014 0.48429646935714915 -2.220742413947841 80 57 25
0.006566278924635127 0.4995771740911293 -2.2119854421436305 81 58 26
0.004305143545266427 0.5032116555376208 -2.2147496265108244 84 61 29
0.0037236088795497 0.5045047031300043 -2.2198423043358444 83 61 28
0.00019037459803811219 0.5099105751028283 -2.2208188547429906 81 61 26
-0.0028754144322221953 0.5146637686532931 -2.2224307221333373 82 62 27
-0.006165984249941858 0.5197287554758891 -2.2237118830422795 83 63 28
-0.004695279816718301 0.5181628895183777 -2.2316740398503434 83 63 28
-0.00548457250406284 0.5197446030004519 -2.2364669854685046 85 65 30
-0.009353612098640662 0.5256127163276565 -2.2369060239144654 86 68 32
-0.011682794664716972 0.529336439092009 -2.2395071526904387 85 67 31
-0.013098912435396293 0.5317891452255503 -2.243396525586871 85 67 31
-0.012672216795198837 0.531678545974597 -2.2499098009690583 79 64 28
-0.015280079350559528 0.5357884730402818 -2.252096613649162 75 61 32
-0.01911777745840948 0.5416071578471882 -2.2525089414502393 80 70 50
-0.017520410775034606 0.5398698288244953 -2.26070917860925 124 119 110
-0.016268136844850928 0.5386136506233938 -2.2684319429590585 165 163 164
-0.016101649044468508 0.5388673472239532 -2.2746035012540244 186 185 186
-0.021629300980295252 0.5470308445471416 -2.2725378019331184 195 196 197
-0.02893055763787339 0.5576544980152583 -2.2678625856087287 199 200 202
0.1835378727556168 0.14685351534875307 -1.0554258436667716 177 178 177
0.1825249763754542 0.14873029449871605 -1.0597077341514338 171 172 169
0.1839372342011703 0.14708157138349037 -1.0654369279931182 163 163 161
0.18405054804311394 0.14732193705225038 -1.0704004043119804 161 162 160
0.18720966451940618 0.1435431784714486 -1.0821201700500624 174 177 174
0.18909297556683174 0.1412142683962751 -1.0881860037458475 178 180 179
0.1912592127022796 0.1384757052893012 -1.09444054259947 179 181 182
0.1951303955991414 0.13946539387112772 -1.1767261112199368 188 189 191
0.2157799095609018 0.12990528305747095 -1.436306757165981 101 94 86
0.2028780322440745 0.148894036640148 -1.4314230363732885 96 84 70
0.20437419541302665 0.14718633425491268 -1.4379636566729113 97 84 66
0.19936678449569625 0.15482417114209657 -1.4393074197593974 100 86 69
0.19559521555698473 0.16068468758425442 -1.4416213861745566 95 80 64
0.1865018267854315 0.17418754891606947 -1.4396220036099379 93 77 60
0.17714336526155308 0.18806705064116763 -1.437359259159268 94 79 62
0.16822840281750978 0.20130562117259787 -1.4354070380837491 97 81 65
0.1630706978585296 0.2091465205027762 -1.4364747033369751 96 81 64
0.15887537733400323 0.215604036439287 -1.4383059340348083 87 74 55
0.15431883747304154 0.22257832460535648 -1.4398207908045402 86 73 53
0.15408796633912297 0.22334436426537746 -1.444884926239871 91 78 58
0.15078500202989284 0.22851785828198823 -1.4474084392556437 91 78 58
0.14812846854656606 0.2327630219701573 -1.4504555240840993 94 78 58
0.14632106664354338 0.23578965757940645 -1.454201209539053 96 79 58
0.14515344294873417 0.23789857398933156 -1.4584778580185391 94 76 54
0.14544681827403316 0.23791299653925646 -1.4639816611668537 85 65 43
0.1468967414942002 0.2362703967851718 -1.4704690951104384 100 79 57
0.14504503245581524 0.2393604047803583 -1.4741757946297618 100 80 56
0.14470354377429745 0.24028615579540163 -1.4791606699175641 88 68 43
0.1446410473385015 0.24081257230353698 -1.4843874948704638 98 78 51
0.1426007996884928 0.24417216078134268 -1.4879272616160004 123 103 73
0.13591299515662525 0.2541866582936568 -1.4874685181114602 125 105 73
0.1313712118151737 0.2611256489792981 -1.4888248469218894 117 98 67
0.12876811385322665 0.2652875683833708 -1.4918365781821554 110 93 65
0.12710981335029872 0.26809641129191114 -1.4956586694225278 111 94 66
0.12866610598281197 0.2663047911279008 -1.5022773995140366 91 74 46
0.1249107398148834 0.27211416743930067 -1.504267640294288 98 78 49
0.12730961551527262 0.26911847390066634 -1.5116407059418246 97 76 46
0.12973882171776224 0.2660811320803264 -1.5190614084346519 96 75 44
0.12828265450973436 0.2686015923198241 -1.5230701565818958 96 75 44
0.12498793302580619 0.2737504632305321 -1.5254458209217163 94 73 41
0.1255267143613436 0.27341824208717636 -1.5312182501902698 81 61 26
0.12945618030043649 0.2682407638231352 -1.5400276974989726 112 91 53
0.13177954118113788 0.2653608848914712 -1.5474286583162378 147 124 81
0.12958706637471826 0.26893452772991344 -1.5507900556849208 144 119 75
0.12626831319543624 0.2741163897428543 -1.5531278795569858 127 101 60
0.12452901060890179 0.27704129469173694 -1.5568811740121062 103 77 36
0.12123727213926047 0.2821825945144671 -1.5592195258383166 104 81 39
0.1220229612552316 0.2815014594839473 -1.565260425568112 98 76 35
0.12237695791730013 0.281437451742414 -1.5709175943984452 98 76 41
0.11294609631677488 0.2953386930884576 -1.5676023602479245 92 69 33
0.11148832812877718 0.2978587553514912 -1.571577214929357 105 83 41
0.11065320900436579 0.29949027985383486 -1.5761245421534125 107 83 42
0.10986303513265477 0.3010577769913333 -1.580714531520659 113 88 50
0.10677517099419165 0.30590216135768417 -1.5831680429326345 122 97 57
0.10423031665447838 0.30997119818009544 -1.5861152790803574 127 102 62
0.10158095786555008 0.31418840587291685 -1.5889548309207953 132 106 69
0.09865469198283 0.3187994330842942 -1.5915236594208237 128 101 64
0.09614027101101041 0.3228225371261661 -1.5944686196626987 134 108 69
0.09363042446367581 0.32683832442306926 -1.5974082510915353 139 115 77
0.09112514743572722 0.3308468041485842 -1.6003425754703418 121 97 65
0.08696465465276085 0.3372119937366847 -1.6016906575153709 120 99 68
0.08563773707094682 0.339540427313605 -1.6057265836053563 111 92 67
0.08021574489325733 0.34769910058424536 -1.6058337112561112 114 98 74
0.07614437638678795 0.35393282252501035 -1.6072119504662175 100 84 59
0.07113584465084294 0.3614987205547231 -1.607665916838584 95 78 52
0.06607969879242434 0.3691302451544251 -1.6080480656297218 102 85 59
0.06072432236054787 0.37718533180373 -1.6081134208369565 93 76 50
0.05654438440235221 0.383566104363965 -1.6092965912726036 101 84 57
0.052393717539219065 0.38990354859090265 -1.6104878485221428 110 93 65
0.04771666328714838 0.39698778356334924 -1.6111422153565884 121 104 76
0.0486197708380019 0.3961370179387497 -1.6172660395247387 93 77 49
0.04739537472212668 0.3983112435449938 -1.6213006638353227 101 83 56
0.04774080804491507 0.39825442071401806 -1.626889104996247 82 63 34
0.04734562172424839 0.39925060684619473 -1.631749763666734 73 52 22
0.0501127446473498 0.3957547729741733 -1.6397678818778625 84 64 31
0.0477745478206138 0.39951210502606377 -1.642702097164195 103 83 50
0.04884300584236839 0.3984310874115285 -1.6490469299459647 95 74 44
0.048725735981110435 0.39903463538464906 -1.6542109258560886 109 88 59
0.06515627631812093 0.37659126837707174 -1.6814451852594607 84 70 45
0.07218205757797361 0.36706484574936177 -1.6939424154811276 82 67 44
0.08567877526065179 0.3483623643618306 -1.7130919035404724 71 54 33
0.09038651427970945 0.34213430764740177 -1.7233425253324317 74 59 38
0.09116606486487394 0.3414801599512125 -1.7295980741329429 83 67 43
0.09136055266418458 0.34165653201651264 -1.7352627561551237 92 71 42
0.09645490805118598 0.33488735798107594 -1.74599688883543 104 84 51
0.09861863159900894 0.33227523632547246 -1.7537339065638626 106 86 53
0.09915432047321046 0.331971897672631 -1.7597992246143348 111 91 58
0.09583394050215549 0.3371327340187115 -1.76185338480265 113 92 59
0.09931994016146908 0.33265077691625855 -1.77101266584179 109 85 50
0.10219645947335645 0.3290344522646845 -1.7795618709305248 132 106 70
0.10203327411342236 0.32972446428979796 -1.7849367434963717 121 97 63
0.09997565954767182 0.3330969335118446 -1.7883166940962498 109 86 54
0.09796808212346195 0.33639800619756327 -1.791742744739182 107 84 54
0.10146697854482711 0.33190587490741486 -1.8010133473030878 102 82 52
0.09861968249337663 0.33639548740204955 -1.8035493632559272 101 81 52
0.09359900167378149 0.3439586387590195 -1.8037494321107082 91 72 48
0.09477302118129613 0.34275805658708075 -1.8105668805039234 74 60 40
0.0960687145752431 0.3413866156764172 -1.817529715379929 66 52 30
0.09645582648036774 0.34130100426862664 -1.8235273634481042 93 74 47
0.09529354149798783 0.34340628969951636 -1.8278571125550827 100 79 49
0.09292142244957013 0.34722130226700754 -1.8308722050669817 99 78 47
0.09148761283569887 0.3497097485841851 -1.8349001916961547 96 75 46
0.08703145504905047 0.3564676560446003 -1.8356234774512894 92 71 40
0.08495617668869446 0.3598608301312416 -1.8389327792055628 97 76 45
0.08548104355186015 0.35958160768955005 -1.8450929658882187 98 77 46
0.08633898082085073 0.358832980841629 -1.8516306453830378 98 78 48
0.08476965216570964 0.3615117180501433 -1.855496584916442 98 79 49
0.0873931158225934 0.3582727658736097 -1.8640095800919727 95 76 46
0.08539001700376433 0.36156411652101683 -1.8673994914608385 92 73 43
0.0842151432827625 0.36368648433832595 -1.8717070054705567 88 69 39
0.08393164039395037 0.3645514950377259 -1.877011165595583 93 74 44
0.08351861568728394 0.3655995649726159 -1.8821748249355061 93 74 44
0.08245492929202866 0.3675653556334713 -1.8866098289312732 90 71 41
0.07756632044612638 0.37492291001329847 -1.886724339307083 91 72 42
0.0775761249686075 0.3753746285843277 -1.8923618118585261 92 73 43
0.08022393834057664 0.3721097363400376 -1.901003641802123 91 72 42
0.07833897117840644 0.3752327070120796 -1.9045045487699315 92 71 42
0.07853667562792258 0.3754216931607373 -1.9103801156781122 91 70 41
0.07860120071080634 0.3757989097875535 -1.9161112366757342 91 70 41
0.08101290347447496 0.3728719995254276 -1.9245486186600815 91 70 41
0.08532850182835047 0.36726694996468745 -1.9352050753072856 91 70 40
0.08474751358517754 0.3685563508997647 -1.940234154991768 89 68 37
0.08553934569144536 0.36791428636084383 -1.9468588456984963 88 68 35
0.08448968417198185 0.3698639162775497 -1.9513533126001203 86 66 33
0.08303733433698327 0.372379929398422 -1.9553776608511448 86 66 33
0.07994368880167965 0.3772037892015731 -1.9574780916828054 83 63 30
0.07635014271676652 0.3827293188934634 -1.9589774757399887 83 63 30
0.07490297308798502 0.3852362362045003 -1.9629859985393499 86 65 34
0.07382169405347108 0.38722868298742924 -1.967423571777222 94 73 42
0.07120595913170796 0.3913771917651279 -1.9700436607106147 96 75 44
0.06533976857886858 0.40009114655604294 -1.9687924200893225 94 73 42
0.06369105882565662 0.40287866056751376 -1.9725309622478115 96 75 44
0.06237027226746025 0.40520531968123735 -1.9766568196020649 95 74 43
0.054970110199071165 0.4160671078513355 -1.9734974447640048 94 73 42
0.046532349351395136 0.43073117905582 -1.9974423912920871 84 63 32
0.04799518029791908 0.4291519888864423 -2.0049306617589266 84 61 30
0.051455090624432764 0.4247749833319992 -2.014884419694653 84 61 30
0.055522061305486314 0.4195498475504586 -2.025615819341682 86 65 34
0.05766657628744146 0.4170211939567247 -2.0340126666461726 97 77 43
0.0562079984833751 0.4195415858139822 -2.037976797129781 113 92 53
0.05518385372614634 0.4214532934905222 -2.0424764858741185 133 108 70
0.05298053468997352 0.4250160957173392 -2.045509868473362 98 76 43
0.0521509736477174 0.4266550476712553 -2.0502479309641433 90 70 42
0.05119394701852234 0.42847251330292796 -2.0548279099173348 83 62 33
0.05364443187844706 0.42552174691758654 -2.0636814933035468 81 60 31
0.05159779164949643 0.4288646998994916 -2.06690407898674 81 60 31
0.05382728708228393 0.4262257894099284 -2.0755121542151453 82 61 32
0.05529202942674838 0.4246582622735868 -2.083176104013534 82 61 32
0.05105685917118882 0.4310616193648916 -2.083628868320938 82 61 32
0.054938009345592675 0.42611751063261055 -2.094381053113421 81 57 29
0.05613918618977956 0.42492175894793993 -2.101750225452294 84 63 32
0.04965755167758182 0.4344623709715989 -2.0993095279674208 99 79 43
0.05399306266049561 0.4288883543051855 -2.1107027762310873 114 90 50
0.04944521394114082 0.43572480920784307 -2.110709697696347 134 107 65
0.04737293523712785 0.4391023045338871 -2.113884001872714 142 116 76
0.045320142450256756 0.4424519720254382 -2.1170759693127925 107 84 49
0.04243399694752892 0.44696422052013407 -2.1191798141676603 82 60 29
0.04019704844797811 0.4505694025803155 -2.1221144719045903 79 58 27
0.03940812782022893 0.45215356269504137 -2.1269286126155134 81 59 28
0.03902073190518443 0.45317776943981314 -2.132269443244989 83 60 29
0.03506413213597159 0.4591799963086649 -2.1329347928926192 81 58 27
0.03490887858964864 0.459880211451373 -2.138577068284124 80 57 25
0.02823061674750396 0.4696740868902354 -2.135625293116964 79 56 24
0.02656708367135549 0.4724754858563144 -2.13926236302483 79 56 24
0.029183274236020906 0.4693130791469312 -2.148568344379221 80 57 26
0.03152043066892027 0.46654157798261325 -2.1575297447503936 81 58 27
0.029755112274497147 0.4694860624645213 -2.1610470660744228 82 59 28
0.029708827584880165 0.47003632626904623 -2.1668566084946 83 60 28
0.029953062153485338 0.4701827121910632 -2.173062591693891 83 60 29
0.031221565958366504 0.468904173504285 -2.1806542908224187 83 60 29
0.03244521887759155 0.4676894318522043 -2.188202258377281 79 56 25
0.033324476949893905 0.46695520496188825 -2.1953012888893277 80 57 25
0.03265753280458558 0.46837289403520777 -2.20031934174 80 57 25
0.018235798382217366 0.4894061414564648 -2.1925349541085644 77 54 22
0.023551404927768194 0.4834838221054977 -2.217523247676142 78 55 23
0.020493780925955357 0.48822211480539096 -2.2192439070552608 80 57 25
0.014847834916162761 0.49655399472987466 -2.2173759932943056 78 55 23
0.007805038055532898 0.5068226533583606 -2.2135401416095077 78 55 23
0.007795975701271635 0.5073230102380746 -2.219422706866857 81 59 26
0.008468470619771462 0.5068780175098961 -2.226261264772936 81 61 26
0.009141720498544975 0.5064330127801075 -2.233113392340445 82 62 27
0.0026429418363356494 0.515939029573101 -2.2299431422596254 84 64 29
0.00038252159539955977 0.5195629638064484 -2.232678043447427 83 63 28
-0.0020326582985922825 0.5234007350927221 -2.2351859432544066 86 66 32
-0.0024551482345584463 0.5244749604784225 -2.2404937644675513 86 67 33
-0.004756347813482997 0.5281536233055522 -2.2431492993637097 82 63 29
-0.007215952132200831 0.5320510019033227 -2.2455705787542892 82 63 29
-0.008376194340834114 0.5341472440771351 -2.2498281425288327 76 61 27
-0.012254478206027625 0.5400083340303681 -2.2502104425348057 80 66 40
-0.017027447664205886 0.5471066508630392 -2.249292590801824 90 80 62
-0.012834360566303826 0.5417887130882465 -2.2611934556363207 132 128 121
-0.013415073927545845 0.5430820689589702 -2.2662753272663574 170 170 171
-0.013634602750110525 0.5438758399620255 -2.2718806630160424 188 188 190
-0.017934214140993665 0.5503153427061026 -2.2715996286679987 196 197 199
0.1954080610016709 0.13802171799612906 -1.059921871704809 181 181 181
0.19376681981288865 0.14081067786368956 -1.0638526825732553 181 181 182
0.21412229189337129 0.1419708519335678 -1.442183685767107 98 88 76
0.21192200577993459 0.14557101263408123 -1.4457954693986639 97 85 70
0.2070513453219261 0.1529936262751716 -1.447257527372102 98 85 68
0.2030477333577484 0.15917321967231335 -1.4493948694627983 97 83 65
0.18796510364990202 0.18120703466128207 -1.442558190485787 93 80 64
0.18205660492016296 0.19010654752811185 -1.443080907936728 93 80 64
0.1833397820915834 0.1887148585345722 -1.4494310668080232 88 75 59
0.16768714522811493 0.2115492081688497 -1.4419516568554342 95 81 63
0.16498031060955648 0.21586184435789907 -1.4450049755731524 88 73 54
0.16171163580335812 0.22097699000439325 -1.4475853871816304 83 68 49
0.15832117089140882 0.2262651060176134 -1.450051464407312 86 70 51
0.15571922801043403 0.2304249125920233 -1.4531571543517723 85 70 52
0.15417349013039075 0.23307445276691574 -1.4571324326169546 82 66 47
0.15306633411196727 0.23509703598174592 -1.461470841569892 91 74 54
0.15442766320142431 0.23359302878922666 -1.467878548291449 99 80 59
0.1554475356945885 0.23257794682486244 -1.474013214370106 97 76 55
0.15422217491386467 0.2347703430590241 -1.4782637670310927 93 73 50
0.15654570439115556 0.23189530634765748 -1.4855212453722395 100 80 55
0.15391414199549242 0.23609587901436113 -1.488583592525216 117 96 68
0.15031284512850573 0.24167977024530712 -1.49080807654274 121 100 69
0.1407110972400901 0.2558255414338636 -1.487875378179333 120 99 69
0.14268613984184103 0.2534487025539045 -1.4948447098079258 115 95 68
0.1406535096482496 0.25679065988425576 -1.498373850624492 111 94 66
0.13899196945410938 0.2596027907502428 -1.502218009082872 99 82 55
0.13641093289152412 0.2637258451965934 -1.5052589812925057 97 80 52
0.13593527598269728 0.26484620938291786 -1.5101264018830236 99 79 50
0.13769441443093594 0.26278101822989813 -1.516952938764727 98 77 47
0.139459073383182 0.2607093780752105 -1.5238012803070764 96 75 44
0.1387146624638688 0.2622146848220203 -1.5284552148507904 97 75 44
0.13516298084306952 0.2677198678320722 -1.530627803470539 84 63 31
0.13623685130421412 0.26663452937379445 -1.536890015065791 96 77 41
0.1392913376450003 0.2627293446119193 -1.544929049065539 130 109 68
0.13875807056914904 0.2639352360967163 -1.5497866762101078 137 112 70
0.13608595181131775 0.2681865488187506 -1.552729004808947 134 109 71
0.1338170412907096 0.2718630325172915 -1.556023824161142 107 82 45
0.1325711137917241 0.2740829213631339 -1.5602345582249648 103 80 39
0.13135391012626202 0.2762618087648976 -1.5644697860400991 105 81 41
0.12950720586966635 0.2793361753778735 -1.5681312704336292 101 77 40
0.12896597880747893 0.28055313280115196 -1.5729785685314104 92 70 32
0.1207910540401918 0.2926268336164274 -1.5708400139926415 106 83 44
0.11922554892769041 0.2952987140153223 -1.574728236728668 107 84 42
0.11821768656386139 0.2971775180205186 -1.5791269003216213 111 86 45
0.11727296044687865 0.29896657327268383 -1.5835838728087375 123 98 56
0.11576407205133377 0.30155740440491385 -1.5875175968717574 116 91 52
0.11196254390668545 0.30740550960388124 -1.5893132559616783 125 100 60
0.10827878747248329 0.3130848300218432 -1.5912013010578532 125 99 62
0.10501533188080994 0.31816576065292645 -1.5934664214529364 133 106 68
0.1014351308756341 0.3236952964857322 -1.5954192875876485 135 108 69
0.0976346095354805 0.3295362786088912 -1.5971478794169398 132 107 71
0.09464756955302395 0.33422099460283755 -1.599629009591596 126 103 72
0.09212734862129274 0.33824210116120057 -1.6025410047744229 116 98 69
0.08992674345974022 0.341808852245588 -1.6057479543786293 111 92 71
0.08577755986125174 0.3481395174726053 -1.6070835397024603 105 88 67
0.08143549683884369 0.3547420989435452 -1.608213951097576 102 85 60
0.07611084981786823 0.3627364190934735 -1.6083770137128124 96 79 53
0.0723900437541822 0.36845424441419217 -1.6100616645912869 87 70 44
0.06664996916439633 0.3770333097552571 -1.6097719069627132 94 77 51
0.060419074153047175 0.38630553389555106 -1.6089745377605196 118 98 66
0.05752545879669371 0.39084549295246457 -1.6113991555231442 114 93 61
0.05498800080663474 0.39487978640438565 -1.6141600502995477 117 98 69
0.05509312613604325 0.3951696935720014 -1.6195056714390708 109 92 64
0.05331911281962834 0.3981217042337238 -1.6230070091127557 85 65 37
0.0534663251211952 0.39835265947273213 -1.6284019533465326 75 54 24
0.05326937837752213 0.3990714806027164 -1.6334628135659381 80 58 27
0.05812115943060653 0.3926439938555202 -1.6435508003908121 96 75 39
0.05394312417509911 0.3989993604021844 -1.6446648770312635 97 77 44
0.06043011258282943 0.3902618805487173 -1.6564358969184072 96 75 47
0.06794561072981498 0.38007335386680147 -1.6692880675313548 101 81 51
0.07230244982340514 0.37480546437823226 -1.6843668601062656 74 60 37
0.08111235941370754 0.3627976363581395 -1.6986619565332488 73 58 37
0.09514509862836662 0.3434118332927091 -1.71833396227006 69 53 32
0.09815909363661657 0.33960792162214887 -1.7268578250087154 74 59 37
0.09871182072023582 0.33928424266333695 -1.7328878129054173 81 63 37
0.10133463460522285 0.33603670602104535 -1.7410540771952634 100 78 45
0.10515707443119646 0.33109659165259614 -1.7504799812392235 103 83 48
0.10463551961133458 0.3322941157415632 -1.755447360620158 111 91 56
0.10949727472671175 0.32589055148249746 -1.7659997214798375 113 93 59
0.10871084703134293 0.32746401286982446 -1.7707155281900187 97 75 42
0.10981083909274761 0.32637496304461755 -1.7774011182499634 126 100 64
0.10998408052836553 0.3265949017363997 -1.7831305154203607 145 116 79
0.10522887867811867 0.33376915981888683 -1.7836929660074603 116 91 58
0.10314502244496174 0.3371730236300828 -1.7870444417897509 110 87 56
0.1034913827353808 0.33714877773110347 -1.7929564843107149 102 81 54
0.10253067692820403 0.3389683734279185 -1.7974921807332935 90 72 50
0.10051482547435994 0.3422755666827058 -1.8009064480801382 76 60 41
0.10130083840050064 0.34163284152130535 -1.8073020709779322 68 55 38
0.10185377721849756 0.3413195743561143 -1.8134602324787163 66 54 37
0.10325766173003872 0.33980819508602095 -1.8205418385253465 76 60 36
0.10405696412018992 0.33914984061766 -1.8269887010870483 102 82 53
0.10157207371677665 0.3431180810669422 -1.8299017461233822 106 85 53
0.09984395781625532 0.34601984303764927 -1.8336246056064878 105 84 53
0.09837679847722819 0.3485538108235316 -1.83762619500493 100 79 49
0.09151268617971445 0.35868430611807123 -1.8357440350812113 91 70 39
0.08616986754969327 0.3666705807876043 -1.8354856155069015 96 75 44
0.08970790103551135 0.36215865587122364 -1.8449344139884294 97 76 45
0.09118341800722946 0.36055075377232226 -1.852145531179883 98 78 49
0.09074822138772176 0.361631638285865 -1.8572657700418942 99 79 51
0.09284284404949175 0.359155394107835 -1.8651886950186332 96 76 48
0.09228151717315247 0.3604149642666067 -1.8701851641538105 94 74 47
0.09116753024082719 0.36245163278098175 -1.8745695306612222 94 75 45
0.09032961353741312 0.3641002652896064 -1.8792614272055652 97 78 48
0.08949148442188787 0.3657492950541655 -1.883954266182806 96 77 47
0.08803834683552414 0.3682623884793762 -1.8879575481103417 90 71 41
0.08353167565327443 0.37506398029681715 -1.888518035688157 91 72 42
0.08478986278150846 0.373768372633022 -1.895568556470697 95 76 46
0.08659236111746502 0.37170986153615926 -1.9032512679264642 93 74 44
0.08460022535421977 0.37497936073376165 -1.9066398676730592 91 70 41
0.08479219340256397 0.3751831629934117 -1.912511800116956 91 70 41
0.08524433649205124 0.3750225977291965 -1.9186894050325092 92 71 42
0.08790859057404718 0.37175967653779163 -1.9274138807810983 92 71 42
0.0885300714364596 0.371363908578579 -1.9338137300122484 91 70 40
0.09379602691484915 0.3644563667066924 -1.9455827583137748 90 69 38
0.08438806880639182 0.3781246996057312 -1.9404163056374597 89 69 36
0.09041329069189935 0.3701558987042554 -1.9531021198395642 88 68 35
0.0906517464752987 0.3703006517993479 -1.959101010829498 86 66 33
0.08555385550781741 0.37792290905872966 -1.9588794371190976 85 65 32
0.08114680804179983 0.38457508258318507 -1.959438723002107 84 64 31
0.08130469837584103 0.38483197340622405 -1.9653346951329822 86 65 34
0.07905485184500852 0.38846095848696666 -1.9684034284559744 93 72 41
0.0770364557123005 0.3917652143829057 -1.971737041940637 91 70 39
0.07240005046223572 0.3987332362447299 -1.9719628232969075 89 68 37
0.07409623198432197 0.3968374797317816 -1.979686213762821 92 71 40
0.07228232502873427 0.3998542201629727 -1.9832465245009343 93 72 41
0.06897373876331767 0.4049612582545252 -1.9850154534145543 93 72 41
0.06678199218118883 0.40850505549006305 -1.9881068050918185 91 70 39
0.06468571339710169 0.4119146849975009 -1.9913047298911157 87 66 35
