ply
format ascii 1.0
element vertex 833
property float x
property float y
property float z
property float nx
property float ny
property float nz
property uchar diffuse_red
property uchar diffuse_green
property uchar diffuse_blue
property uchar class
property uchar detection
end_header
-0.1353 -0.1973 -1.5293 -0.522 -0.836 0.170 78 55 24 0 0
-0.1370 -0.1995 -1.5383 -0.538 -0.790 0.295 82 57 26 0 0
-0.1448 -0.2090 -1.5787 -0.075 -0.541 0.838 100 76 37 0 0
-0.1469 -0.2117 -1.5820 0.016 -0.716 0.698 99 76 41 0 0
-0.1492 -0.2148 -1.5851 0.016 -0.716 0.698 97 70 37 0 0
-0.2003 -0.2824 -1.6134 -0.593 -0.674 0.441 106 86 55 0 0
-0.1691 -0.2389 -1.7111 -0.755 -0.653 0.057 83 64 32 0 0
-0.1721 -0.2427 -1.7244 -0.471 -0.774 0.424 81 62 29 0 0
-0.1712 -0.2413 -1.7309 -0.514 -0.814 0.270 80 60 27 0 0
-0.1704 -0.2400 -1.7429 -0.492 -0.869 0.057 65 45 14 0 0
-0.1856 -0.2589 -1.8153 -0.553 -0.649 0.521 73 49 23 0 0
-0.1871 -0.2608 -1.8192 -0.553 -0.649 0.521 75 51 25 0 0
-0.2209 -0.3031 -1.9670 -0.476 -0.763 0.438 67 45 22 0 0
-0.2231 -0.3058 -1.9702 -0.455 -0.745 0.489 67 45 22 0 0
-0.2267 -0.3105 -1.9829 -0.556 -0.734 0.390 71 49 26 0 0
-0.2284 -0.3127 -1.9866 -0.584 -0.627 0.516 72 50 27 0 0
-0.2292 -0.3136 -1.9914 -0.605 -0.676 0.422 71 49 26 0 0
-0.2404 -0.3273 -2.0531 -0.396 -0.871 0.290 84 61 30 0 0
-0.2445 -0.3328 -2.0534 -0.623 -0.685 0.378 81 57 27 0 0
-0.2456 -0.3342 -2.0578 -0.623 -0.685 0.378 77 55 25 0 0
-0.2537 -0.3444 -2.0883 -0.646 -0.746 0.164 80 55 25 0 0
-0.2567 -0.3483 -2.0960 -0.640 -0.638 0.428 72 51 20 0 0
-0.2612 -0.3540 -2.1077 -0.521 -0.653 0.550 88 64 28 0 0
-0.2795 -0.3777 -2.1475 -0.735 -0.483 0.476 102 78 40 0 0
-0.2808 -0.3794 -2.1516 -0.567 -0.657 0.497 102 78 40 0 0
-0.2807 -0.3791 -2.1578 -0.647 -0.471 0.600 102 78 40 0 0
-0.2815 -0.3801 -2.1626 -0.303 -0.920 0.249 97 76 38 0 0
-0.3109 -0.4183 -2.2156 -0.485 -0.850 0.207 128 100 58 0 0
-0.3365 -0.4520 -2.2368 -0.661 -0.639 0.392 74 62 44 0 0
0.0670 0.0735 -1.1686 -0.369 -0.843 0.390 65 49 27 0 0
0.0658 0.0719 -1.1730 -0.369 -0.843 0.390 60 47 21 0 0
0.0598 0.0642 -1.1847 -0.211 -0.736 0.644 71 55 28 0 0
0.0577 0.0615 -1.1885 -0.211 -0.736 0.644 107 93 59 0 0
0.0210 0.0128 -1.2104 0.068 -0.458 0.887 127 105 60 0 0
-0.0362 -0.0635 -1.2215 -0.002 -0.372 0.928 116 96 72 0 0
-0.0546 -0.0878 -1.2335 -0.502 -0.790 0.352 121 101 74 0 0
-0.0551 -0.0884 -1.2381 -0.588 -0.787 -0.188 56 40 21 0 0
-0.0546 -0.0875 -1.2436 -0.588 -0.787 -0.188 42 28 14 0 0
-0.0542 -0.0870 -1.2488 -0.708 -0.704 -0.055 48 35 19 0 0
-0.1117 -0.1597 -1.4541 -0.747 -0.533 0.397 106 79 40 0 0
-0.1240 -0.1758 -1.4694 -0.464 -0.729 0.503 107 81 46 0 0
-0.1257 -0.1780 -1.4731 -0.454 -0.856 0.248 112 87 51 0 0
-0.1359 -0.1907 -1.5163 -0.429 -0.864 0.263 71 50 26 0 0
-0.1389 -0.1946 -1.5293 -0.573 -0.780 0.251 74 54 29 0 0
-0.1444 -0.2015 -1.5453 -0.570 -0.689 0.448 54 35 14 0 0
-0.2055 -0.2818 -1.6170 -0.690 -0.635 0.346 126 104 71 0 0
-0.1725 -0.2357 -1.7114 -0.654 -0.708 0.267 76 57 26 0 0
-0.1733 -0.2367 -1.7160 -0.654 -0.708 0.267 91 72 40 0 0
-0.1741 -0.2377 -1.7207 -0.654 -0.708 0.267 93 76 45 0 0
-0.1750 -0.2387 -1.7253 -0.654 -0.708 0.267 84 65 33 0 0
-0.1756 -0.2392 -1.7412 -0.482 -0.787 0.385 63 43 13 0 0
-0.1787 -0.2432 -1.7544 -0.428 -0.819 0.382 72 51 25 0 0
-0.1831 -0.2486 -1.7719 -0.528 -0.823 0.212 78 57 30 0 0
-0.1889 -0.2550 -1.8384 -0.645 -0.722 0.249 72 48 22 0 0
-0.1897 -0.2560 -1.8432 -0.645 -0.722 0.249 73 49 23 0 0
-0.2132 -0.2856 -1.9294 -0.642 -0.650 0.408 61 39 16 0 0
-0.2201 -0.2946 -1.9438 -0.584 -0.712 0.390 71 52 28 0 0
-0.2217 -0.2967 -1.9476 -0.684 -0.593 0.425 61 41 17 0 0
-0.2329 -0.3108 -1.9914 -0.656 -0.636 0.407 71 49 26 0 0
-0.2499 -0.3322 -2.0570 -0.443 -0.846 0.297 71 49 23 0 0
-0.2520 -0.3348 -2.0660 -0.360 -0.827 0.431 62 44 17 0 0
-0.2536 -0.3369 -2.0698 -0.398 -0.741 0.541 77 56 26 0 0
-0.2552 -0.3389 -2.0735 -0.318 -0.788 0.527 77 56 24 0 0
-0.2588 -0.3434 -2.0865 -0.528 -0.793 0.304 82 59 28 0 0
-0.2588 -0.3433 -2.0924 -0.687 -0.642 0.340 68 49 21 0 0
-0.2602 -0.3451 -2.0964 -0.640 -0.638 0.428 63 42 17 0 0
-0.2844 -0.3764 -2.1518 -0.567 -0.657 0.497 101 77 39 0 0
-0.2840 -0.3757 -2.1585 -0.730 -0.660 0.178 102 78 40 0 0
-0.3006 -0.3973 -2.1883 -0.754 -0.450 0.478 118 91 48 0 0
-0.3141 -0.4147 -2.2165 -0.368 -0.812 0.453 131 104 61 0 0
-0.3194 -0.4215 -2.2326 -0.722 -0.582 0.375 128 101 59 0 0
0.1098 0.1332 -0.9033 -0.046 0.161 0.986 179 177 179 0 0
0.0323 0.0309 -0.9754 -0.410 -0.846 -0.340 124 99 64 0 0
0.0810 0.0995 -1.1334 -0.909 0.096 0.405 45 44 40 0 0
0.0620 0.0748 -1.1679 -0.207 -0.908 0.364 84 71 54 0 0
0.0531 0.0633 -1.1879 -0.211 -0.736 0.644 54 39 17 0 0
-0.0230 -0.0382 -1.2132 0.033 -0.231 0.972 96 77 46 0 0
-0.0324 -0.0507 -1.2167 -0.070 -0.344 0.936 94 75 50 0 0
-0.0585 -0.0831 -1.3403 -0.343 -0.922 0.181 116 96 70 0 0
-0.0610 -0.0863 -1.3435 -0.557 -0.607 0.566 109 86 65 0 0
-0.0703 -0.0983 -1.3671 -0.433 -0.348 0.831 188 157 129 0 0
-0.0665 -0.0930 -1.3755 -0.630 -0.558 0.540 176 142 111 0 0
-0.0687 -0.0959 -1.3789 -0.601 -0.486 0.635 137 102 64 0 0
-0.0735 -0.1022 -1.3854 -0.484 -0.593 0.643 187 161 124 0 0
-0.1244 -0.1686 -1.4723 -0.338 -0.812 0.475 110 84 50 0 0
-0.1258 -0.1704 -1.4763 -0.309 -0.827 0.469 112 87 50 0 0
-0.1272 -0.1722 -1.4803 -0.309 -0.827 0.469 94 70 36 0 0
-0.1284 -0.1737 -1.4844 -0.306 -0.787 0.537 91 67 36 0 0
-0.1299 -0.1757 -1.4883 -0.400 -0.868 0.293 79 56 26 0 0
-0.1432 -0.1927 -1.5287 -0.503 -0.826 0.254 56 40 19 0 0
-0.1447 -0.1944 -1.5379 -0.499 -0.791 0.355 60 44 26 0 0
-0.2024 -0.2702 -1.6080 -0.587 -0.515 0.624 133 110 70 0 0
-0.2072 -0.2764 -1.6190 -0.658 -0.694 0.291 121 95 61 0 0
-0.2125 -0.2831 -1.6400 -0.554 -0.784 0.280 79 57 27 0 0
-0.2133 -0.2841 -1.6445 -0.554 -0.784 0.280 110 88 57 0 0
-0.2012 -0.2673 -1.6682 -0.007 -0.832 -0.554 91 71 39 0 0
-0.1783 -0.2356 -1.7201 -0.593 -0.783 0.188 103 84 53 0 0
-0.1781 -0.2349 -1.7370 -0.599 -0.653 0.464 87 66 34 0 0
-0.1792 -0.2362 -1.7413 -0.500 -0.686 0.529 73 53 22 0 0
-0.1828 -0.2409 -1.7540 -0.428 -0.819 0.382 68 47 20 0 0
-0.1863 -0.2452 -1.7669 -0.528 -0.823 0.212 82 61 33 0 0
-0.1869 -0.2460 -1.7717 -0.528 -0.823 0.212 65 44 18 0 0
-0.1912 -0.2511 -1.8005 -0.344 -0.791 0.505 61 41 14 0 0
-0.2186 -0.2852 -1.9215 -0.693 -0.619 0.371 67 45 22 0 0
-0.2189 -0.2855 -1.9269 -0.478 -0.757 0.446 64 42 19 0 0
-0.2201 -0.2871 -1.9311 -0.545 -0.708 0.450 66 44 21 0 0
-0.2207 -0.2878 -1.9362 -0.531 -0.803 0.270 70 48 25 0 0
-0.2238 -0.2917 -1.9439 -0.584 -0.712 0.390 60 39 15 0 0
-0.2250 -0.2933 -1.9482 -0.684 -0.593 0.425 66 45 21 0 0
-0.2333 -0.3032 -2.0016 -0.394 -0.735 0.552 70 48 24 0 0
-0.2344 -0.3046 -2.0061 -0.386 -0.662 0.643 70 48 24 0 0
-0.2517 -0.3269 -2.0478 -0.280 -0.877 0.389 79 55 26 0 0
-0.2541 -0.3300 -2.0564 -0.280 -0.877 0.389 53 34 11 0 0
-0.2553 -0.3315 -2.0607 -0.280 -0.877 0.389 60 42 19 0 0
-0.2560 -0.3321 -2.0717 -0.573 -0.805 0.157 75 55 24 0 0
-0.2588 -0.3359 -2.0737 -0.495 -0.704 0.510 82 62 31 0 0
-0.2599 -0.3373 -2.0781 -0.583 -0.678 0.448 88 66 25 0 0
-0.2615 -0.3393 -2.0819 -0.581 -0.735 0.350 115 93 49 0 0
-0.2626 -0.3406 -2.0864 -0.581 -0.735 0.350 86 65 32 0 0
-0.2631 -0.3413 -2.0916 -0.577 -0.771 0.269 73 53 26 0 0
-0.2643 -0.3428 -2.0959 -0.521 -0.820 0.236 69 48 25 0 0
-0.2655 -0.3443 -2.1002 -0.437 -0.767 0.470 68 45 19 0 0
-0.2762 -0.3581 -2.1270 -0.570 -0.652 0.500 89 67 29 0 0
-0.2881 -0.3734 -2.1519 -0.567 -0.657 0.497 100 76 38 0 0
-0.3031 -0.3929 -2.1841 -0.657 -0.712 0.247 109 83 42 0 0
0.0276 0.0323 -0.9748 -0.184 -0.872 -0.453 128 105 68 0 0
0.0880 0.1167 -1.1194 -0.926 0.213 0.311 65 62 56 0 0
0.0859 0.1140 -1.1232 -0.938 0.178 0.296 70 70 63 0 0
0.0816 0.1087 -1.1413 -0.938 0.078 0.338 59 58 54 0 0
0.0769 0.1024 -1.1435 -0.807 0.136 0.575 45 45 41 0 0
0.0549 0.0734 -1.1760 -0.052 -0.888 0.456 70 61 45 0 0
-0.0320 -0.0424 -1.2145 -0.043 -0.233 0.971 89 70 40 0 0
-0.0409 -0.0544 -1.2183 -0.032 -0.316 0.948 104 86 61 0 0
-0.0621 -0.0826 -1.2332 -0.510 -0.844 0.169 113 95 67 0 0
-0.0503 -0.0652 -1.2979 -0.562 -0.787 0.254 53 36 17 0 0
-0.0518 -0.0671 -1.3070 -0.562 -0.787 0.254 68 46 20 0 0
-0.0540 -0.0700 -1.3105 -0.459 -0.830 0.316 57 35 10 0 0
-0.0626 -0.0809 -1.3348 -0.530 -0.787 0.314 131 110 81 0 0
-0.0719 -0.0924 -1.3792 -0.497 -0.576 0.649 165 130 89 0 0
-0.1069 -0.1385 -1.4229 -0.610 -0.772 0.182 121 94 58 0 0
-0.1300 -0.1684 -1.4757 -0.394 -0.615 0.683 98 73 36 0 0
-0.1314 -0.1702 -1.4797 -0.436 -0.655 0.618 101 77 41 0 0
-0.1332 -0.1724 -1.4834 -0.436 -0.655 0.618 91 67 36 0 0
-0.1346 -0.1742 -1.4874 -0.650 -0.495 0.576 75 52 21 0 0
-0.1482 -0.1914 -1.5380 -0.591 -0.687 0.423 41 27 15 0 0
-0.1494 -0.1929 -1.5422 -0.591 -0.687 0.423 48 34 22 0 0
-0.1503 -0.1941 -1.5466 -0.573 -0.701 0.424 42 28 15 0 0
-0.1519 -0.1961 -1.5504 -0.547 -0.687 0.478 60 41 21 0 0
-0.1614 -0.2086 -1.5677 -0.557 -0.733 0.390 79 55 28 0 0
-0.1618 -0.2090 -1.5727 -0.180 -0.798 0.575 93 70 37 0 0
-0.1798 -0.2328 -1.5868 -0.251 -0.731 0.634 144 115 76 0 0
-0.1875 -0.2429 -1.5951 -0.190 -0.180 0.965 146 124 90 0 0
-0.2144 -0.2785 -1.6257 -0.572 -0.689 0.445 79 56 31 0 0
-0.2171 -0.2818 -1.6389 -0.424 -0.873 0.240 74 50 20 0 0
-0.2090 -0.2703 -1.6637 0.079 -0.857 -0.508 90 71 38 0 0
-0.1803 -0.2306 -1.7110 -0.419 -0.884 0.207 80 61 30 0 0
-0.1820 -0.2328 -1.7201 -0.643 -0.678 0.354 104 84 52 0 0
-0.1850 -0.2362 -1.7446 -0.461 -0.796 0.391 78 55 28 0 0
-0.1868 -0.2385 -1.7481 -0.363 -0.875 0.322 56 33 9 0 0
-0.1926 -0.2459 -1.7695 -0.427 -0.787 0.446 74 53 26 0 0
-0.1945 -0.2477 -1.8010 -0.365 -0.790 0.493 68 47 20 0 0
-0.2215 -0.2815 -1.9167 -0.561 -0.719 0.411 70 48 25 0 0
-0.2244 -0.2850 -1.9305 -0.425 -0.829 0.363 65 43 20 0 0
-0.2248 -0.2854 -1.9357 -0.581 -0.768 0.269 70 48 25 0 0
-0.2256 -0.2864 -1.9405 -0.473 -0.842 0.260 67 45 22 0 0
-0.2265 -0.2876 -1.9451 -0.508 -0.781 0.364 61 39 16 0 0
-0.2278 -0.2892 -1.9493 -0.555 -0.613 0.562 63 41 18 0 0
-0.2442 -0.3100 -2.0040 -0.648 -0.758 -0.070 70 48 24 0 0
-0.2560 -0.3247 -2.0530 -0.471 -0.771 0.428 68 50 24 0 0
-0.2572 -0.3263 -2.0573 -0.471 -0.771 0.428 53 35 13 0 0
-0.2604 -0.3304 -2.0648 -0.360 -0.827 0.431 67 47 20 0 0
-0.2598 -0.3294 -2.0716 -0.411 -0.904 0.117 80 60 31 0 0
-0.2605 -0.3303 -2.0765 -0.309 -0.930 0.198 85 65 35 0 0
-0.2612 -0.3311 -2.0815 -0.309 -0.930 0.198 96 73 33 0 0
-0.2622 -0.3323 -2.0862 -0.318 -0.894 0.317 116 94 50 0 0
-0.2801 -0.3555 -2.1267 -0.595 -0.598 0.537 88 66 29 0 0
-0.2887 -0.3666 -2.1444 -0.479 -0.825 0.299 99 75 37 0 0
-0.3241 -0.4126 -2.2185 -0.510 -0.719 0.472 122 95 51 0 0
-0.3262 -0.4152 -2.2276 -0.343 -0.789 0.509 130 103 62 0 0
-0.3276 -0.4170 -2.2314 -0.343 -0.789 0.509 133 106 65 0 0
0.0597 0.0813 -0.8921 -0.356 -0.408 0.841 121 110 94 0 0
0.0222 0.0327 -0.9737 -0.121 -0.871 -0.477 112 91 53 0 0
0.0914 0.1296 -1.1237 -0.889 0.291 0.354 81 77 72 0 0
0.0842 0.1202 -1.1349 -0.915 0.172 0.366 59 56 45 0 0
0.0813 0.1165 -1.1434 -0.938 0.105 0.330 62 61 51 0 0
0.0781 0.1122 -1.1466 -0.833 0.220 0.508 52 51 43 0 0
0.0749 0.1079 -1.1498 -0.710 0.188 0.678 44 41 34 0 0
0.0741 0.1070 -1.1545 -0.589 0.135 0.797 55 46 36 0 0
-0.0253 -0.0258 -1.2115 0.133 -0.269 0.954 93 74 43 0 0
-0.0660 -0.0802 -1.2330 -0.510 -0.844 0.169 96 77 51 0 0
-0.0602 -0.0719 -1.2524 -0.624 -0.712 -0.323 39 27 14 0 0
-0.0530 -0.0610 -1.2986 -0.454 -0.789 0.415 49 32 17 0 0
-0.0542 -0.0625 -1.3029 -0.454 -0.789 0.415 65 46 22 0 0
-0.0610 -0.0714 -1.3182 -0.615 -0.625 0.482 55 37 13 0 0
-0.0640 -0.0752 -1.3262 -0.401 -0.859 0.319 109 90 57 0 0
-0.0654 -0.0770 -1.3303 -0.404 -0.859 0.314 103 82 50 0 0
-0.0834 -0.1000 -1.3832 -0.430 -0.662 0.614 163 138 100 0 0
-0.1090 -0.1337 -1.4190 -0.443 -0.610 0.657 116 90 54 0 0
-0.1101 -0.1351 -1.4232 -0.556 -0.763 0.329 132 101 70 0 0
-0.1111 -0.1363 -1.4276 -0.455 -0.774 0.440 140 108 71 0 0
-0.1111 -0.1362 -1.4328 -0.471 -0.865 0.171 120 90 47 0 0
-0.1471 -0.1828 -1.5107 -0.368 -0.887 0.279 46 27 13 0 0
-0.1523 -0.1893 -1.5375 -0.499 -0.791 0.355 33 20 10 0 0
-0.1534 -0.1906 -1.5418 -0.499 -0.791 0.355 45 32 17 0 0
-0.1539 -0.1913 -1.5466 -0.520 -0.769 0.371 42 28 12 0 0
-0.1556 -0.1934 -1.5503 -0.525 -0.706 0.474 65 46 24 0 0
-0.1602 -0.1995 -1.5565 -0.504 -0.670 0.545 77 56 25 0 0
-0.1848 -0.2319 -1.5854 -0.135 -0.771 0.623 143 115 74 0 0
-0.1860 -0.2334 -1.5896 -0.064 -0.643 0.764 153 129 87 0 0
-0.1947 -0.2450 -1.5967 -0.262 -0.177 0.949 119 98 68 0 0
-0.1832 -0.2267 -1.7118 -0.686 -0.544 0.483 88 69 37 0 0
-0.1901 -0.2350 -1.7541 -0.629 -0.702 0.335 73 51 26 0 0
-0.1967 -0.2436 -1.7690 -0.540 -0.660 0.523 76 55 27 0 0
-0.1936 -0.2393 -1.7781 -0.579 -0.781 0.234 62 41 12 0 0
-0.2092 -0.2580 -1.8732 -0.535 -0.581 0.613 67 45 21 0 0
-0.2190 -0.2712 -1.8784 -0.647 -0.636 0.420 73 51 27 0 0
-0.2277 -0.2817 -1.9309 -0.450 -0.835 0.317 64 42 19 0 0
-0.2298 -0.2841 -1.9457 -0.518 -0.802 0.298 64 42 19 0 0
-0.2318 -0.2866 -1.9548 -0.462 -0.849 0.256 68 46 22 0 0
-0.2336 -0.2889 -1.9583 -0.417 -0.609 0.675 72 50 26 0 0
-0.2415 -0.2988 -1.9890 -0.528 -0.790 0.311 73 51 27 0 0
-0.2472 -0.3061 -2.0050 -0.059 -0.881 0.470 72 50 26 0 0
-0.2506 -0.3106 -2.0122 -0.551 -0.819 0.162 71 50 26 0 0
-0.2512 -0.3112 -2.0173 -0.551 -0.819 0.162 93 71 30 0 0
-0.2532 -0.3139 -2.0205 -0.526 -0.654 0.544 112 86 43 0 0
-0.2539 -0.3147 -2.0254 -0.422 -0.717 0.555 83 58 30 0 0
-0.2544 -0.3153 -2.0306 -0.598 -0.767 0.231 78 54 26 0 0
-0.2620 -0.3248 -2.0617 -0.510 -0.723 0.465 64 44 21 0 0
-0.2637 -0.3269 -2.0654 -0.449 -0.704 0.550 67 47 21 0 0
-0.2735 -0.3394 -2.0995 -0.437 -0.767 0.470 71 50 21 0 0
-0.2822 -0.3505 -2.1231 -0.560 -0.733 0.385 86 64 27 0 0
-0.2834 -0.3520 -2.1274 -0.509 -0.735 0.448 88 66 29 0 0
-0.2940 -0.3656 -2.1602 -0.490 -0.809 0.323 101 78 37 0 0
-0.2951 -0.3670 -2.1646 -0.415 -0.828 0.378 98 74 37 0 0
-0.2965 -0.3688 -2.1686 -0.276 -0.859 0.431 94 70 32 0 0
0.0179 0.0334 -0.9253 -0.019 -0.910 0.414 140 115 80 0 0
0.0165 0.0316 -0.9293 -0.019 -0.910 0.414 137 111 75 0 0
0.0156 0.0305 -0.9336 0.037 -0.910 0.413 114 93 63 0 0
0.0142 0.0287 -0.9377 0.094 -0.905 0.415 95 78 52 0 0
0.0953 0.1432 -1.1336 -0.854 0.404 0.328 133 131 126 0 0
0.0642 0.1018 -1.1609 -0.409 0.187 0.893 104 84 59 0 0
0.0263 0.0514 -1.1931 -0.626 -0.777 -0.068 44 33 14 0 0
0.0241 0.0485 -1.1967 -0.683 -0.300 0.666 102 88 57 0 0
0.0191 0.0420 -1.2037 -0.715 -0.211 0.667 104 83 38 0 0
-0.0298 -0.0240 -1.2109 0.019 -0.219 0.976 79 60 29 0 0
-0.0617 -0.0661 -1.2539 -0.319 -0.840 -0.439 40 27 16 0 0
-0.0598 -0.0634 -1.2604 -0.178 -0.902 -0.394 50 37 24 0 0
-0.0594 -0.0626 -1.2658 -0.318 -0.937 -0.143 40 28 13 0 0
-0.0586 -0.0613 -1.2766 -0.531 -0.846 -0.050 55 42 26 0 0
-0.0637 -0.0673 -1.3138 -0.562 -0.514 0.648 67 45 22 0 0
-0.0653 -0.0694 -1.3177 -0.827 -0.453 0.332 66 47 22 0 0
-0.0712 -0.0764 -1.3545 -0.426 -0.723 0.543 163 136 105 0 0
-0.0827 -0.0914 -1.3764 -0.399 -0.802 0.444 152 120 82 0 0
-0.1169 -0.1363 -1.4310 -0.567 -0.655 0.499 129 100 60 0 0
-0.1186 -0.1385 -1.4347 -0.600 -0.702 0.384 126 98 58 0 0
-0.1242 -0.1457 -1.4507 -0.700 -0.495 0.515 129 100 58 0 0
-0.1263 -0.1484 -1.4541 -0.570 -0.531 0.627 152 123 82 0 0
-0.1455 -0.1734 -1.4945 -0.563 -0.726 0.395 72 48 20 0 0
-0.1470 -0.1754 -1.4983 -0.459 -0.725 0.513 71 50 21 0 0
-0.1577 -0.1886 -1.5465 -0.520 -0.769 0.371 47 32 10 0 0
-0.1592 -0.1906 -1.5504 -0.484 -0.711 0.511 66 47 22 0 0
-0.1635 -0.1962 -1.5569 -0.752 -0.514 0.413 74 55 23 0 0
-0.1932 -0.2357 -1.5859 -0.137 -0.925 0.355 140 117 79 0 0
-0.1867 -0.2237 -1.7120 -0.669 -0.652 0.357 80 61 32 0 0
-0.1880 -0.2254 -1.7161 -0.583 -0.602 0.546 88 67 35 0 0
-0.1892 -0.2269 -1.7203 -0.510 -0.642 0.572 89 68 37 0 0
-0.2107 -0.2528 -1.8473 -0.421 -0.644 0.638 66 44 20 0 0
-0.2133 -0.2557 -1.8728 -0.433 -0.641 0.634 67 45 21 0 0
-0.2346 -0.2827 -1.9444 -0.453 -0.797 0.399 63 41 18 0 0
-0.2353 -0.2836 -1.9492 -0.392 -0.890 0.232 66 44 21 0 0
-0.2364 -0.2849 -1.9537 -0.453 -0.850 0.269 68 46 22 0 0
-0.2392 -0.2886 -1.9617 -0.401 -0.762 0.508 69 47 23 0 0
-0.2457 -0.2967 -1.9884 -0.526 -0.767 0.367 72 50 26 0 0
-0.2466 -0.2977 -1.9931 -0.257 -0.777 0.574 70 48 24 0 0
-0.2576 -0.3120 -2.0195 -0.773 -0.499 0.392 107 82 39 0 0
-0.2604 -0.3150 -2.0512 -0.575 -0.727 0.375 80 55 26 0 0
-0.2641 -0.3198 -2.0581 -0.401 -0.758 0.514 56 38 14 0 0
-0.2658 -0.3221 -2.0616 -0.510 -0.723 0.465 64 45 20 0 0
-0.2676 -0.3244 -2.0651 -0.661 -0.573 0.485 65 45 20 0 0
-0.2643 -0.3197 -2.0757 -0.281 -0.736 0.616 79 59 32 0 0
-0.2744 -0.3326 -2.1035 -0.519 -0.782 0.346 68 48 18 0 0
-0.2752 -0.3336 -2.1084 -0.587 -0.685 0.431 77 54 22 0 0
-0.2825 -0.3434 -2.1100 -0.404 -0.868 0.289 88 66 30 0 0
-0.2910 -0.3543 -2.1338 -0.668 -0.441 0.599 89 67 30 0 0
-0.2966 -0.3614 -2.1499 -0.643 -0.659 0.391 98 74 36 0 0
-0.2981 -0.3633 -2.1597 -0.415 -0.828 0.378 98 75 34 0 0
-0.2991 -0.3645 -2.1643 -0.480 -0.761 0.436 96 72 35 0 0
-0.3030 -0.3697 -2.1706 -0.390 -0.841 0.376 111 86 45 0 0
-0.3057 -0.3730 -2.1848 -0.294 -0.783 0.548 109 84 44 0 0
-0.3357 -0.4125 -2.2243 -0.384 -0.872 0.305 121 94 50 0 0
-0.3367 -0.4137 -2.2289 -0.384 -0.872 0.305 130 103 61 0 0
-0.3469 -0.4270 -2.2495 -0.392 -0.658 0.643 73 62 42 0 0
-0.3424 -0.4202 -2.2814 -0.288 -0.828 0.481 158 155 152 0 0
-0.3633 -0.4491 -2.2538 -0.486 -0.447 0.751 180 180 179 0 0
0.0213 0.0452 -0.9050 -0.586 -0.462 0.666 105 90 60 0 0
0.0194 0.0427 -0.9088 -0.333 -0.647 0.686 102 85 58 0 0
0.0162 0.0384 -0.9119 -0.070 -0.932 0.355 109 89 63 0 0
0.0147 0.0365 -0.9159 -0.050 -0.948 0.315 119 95 67 0 0
0.0130 0.0344 -0.9198 0.113 -0.873 0.475 129 103 73 0 0
0.0694 0.1171 -1.1615 -0.626 0.302 0.719 98 84 66 0 0
0.0630 0.1084 -1.1625 -0.403 0.159 0.902 97 83 63 0 0
0.0569 0.1002 -1.1639 -0.318 0.107 0.942 103 88 64 0 0
0.0446 0.0836 -1.1663 -0.018 -0.639 0.769 102 86 60 0 0
0.0407 0.0783 -1.1689 0.078 -0.776 0.626 77 66 49 0 0
0.0383 0.0752 -1.1725 0.078 -0.776 0.626 56 50 43 0 0
-0.0597 -0.0566 -1.2176 0.239 -0.412 0.879 125 107 82 0 0
-0.0642 -0.0614 -1.2650 -0.400 -0.899 -0.178 42 27 15 0 0
-0.0635 -0.0603 -1.2705 -0.457 -0.887 -0.059 40 26 14 0 0
-0.0626 -0.0589 -1.2764 -0.531 -0.846 -0.050 54 38 23 0 0
-0.0652 -0.0618 -1.3051 -0.554 -0.821 0.138 49 31 11 0 0
-0.0657 -0.0622 -1.3099 -0.442 -0.817 0.371 61 40 17 0 0
-0.0693 -0.0669 -1.3175 -0.707 -0.685 0.178 73 52 25 0 0
-0.1214 -0.1347 -1.4302 -0.406 -0.724 0.558 152 120 77 0 0
-0.1230 -0.1367 -1.4340 -0.406 -0.724 0.558 123 94 52 0 0
-0.1248 -0.1390 -1.4429 -0.480 -0.692 0.540 130 100 64 0 0
-0.1282 -0.1434 -1.4504 -0.524 -0.756 0.392 133 102 65 0 0
-0.1314 -0.1475 -1.4580 -0.416 -0.661 0.625 125 96 58 0 0
-0.1508 -0.1728 -1.4981 -0.459 -0.725 0.513 75 54 24 0 0
-0.1931 -0.2244 -1.7200 -0.495 -0.634 0.594 78 57 29 0 0
-0.2001 -0.2324 -1.7791 -0.562 -0.759 0.330 64 42 18 0 0
-0.2016 -0.2343 -1.7830 -0.631 -0.688 0.358 68 46 22 0 0
-0.2155 -0.2515 -1.8460 -0.594 -0.707 0.384 66 44 20 0 0
-0.2148 -0.2501 -1.8639 -0.466 -0.751 0.468 66 44 20 0 0
-0.2214 -0.2583 -1.8904 -0.645 -0.658 0.389 66 44 21 0 0
-0.2371 -0.2784 -1.9400 -0.388 -0.747 0.540 65 43 20 0 0
-0.2625 -0.3100 -2.0476 -0.591 -0.713 0.378 83 60 27 0 0
-0.2713 -0.3209 -2.0891 -0.493 -0.806 0.328 109 87 40 0 0
-0.2906 -0.3462 -2.1218 -0.541 -0.770 0.337 86 64 27 0 0
-0.2916 -0.3475 -2.1263 -0.606 -0.714 0.350 88 65 29 0 0
-0.2997 -0.3579 -2.1447 -0.585 -0.747 0.317 99 75 39 0 0
-0.3004 -0.3588 -2.1497 -0.589 -0.745 0.312 98 74 38 0 0
-0.3022 -0.3610 -2.1591 -0.415 -0.828 0.378 93 71 34 0 0
-0.3034 -0.3624 -2.1635 -0.415 -0.828 0.378 96 73 40 0 0
-0.3118 -0.3735 -2.1812 -0.042 -0.929 0.368 111 88 47 0 0
-0.3180 -0.3817 -2.1841 -0.447 -0.778 0.441 107 83 42 0 0
-0.3224 -0.3876 -2.1896 -0.708 -0.697 0.113 117 92 51 0 0
-0.3500 -0.4237 -2.2382 -0.497 -0.651 0.573 117 94 54 0 0
0.0182 0.0487 -0.9053 -0.586 -0.462 0.666 111 91 62 0 0
0.0154 0.0450 -0.9086 -0.333 -0.647 0.686 103 85 55 0 0
0.0717 0.1285 -1.1653 -0.708 0.363 0.605 104 90 75 0 0
0.0582 0.1102 -1.1671 -0.575 0.289 0.766 96 82 60 0 0
0.0483 0.0967 -1.1659 -0.327 0.134 0.936 96 80 54 0 0
0.0420 0.0882 -1.1670 -0.282 0.088 0.955 79 63 36 0 0
0.0234 0.0635 -1.1909 -0.877 -0.266 0.400 39 31 22 0 0
-0.0229 0.0010 -1.2056 0.225 -0.220 0.949 83 64 32 0 0
-0.0772 -0.0723 -1.2276 -0.376 -0.847 0.376 91 72 42 0 0
-0.0699 -0.0615 -1.2583 -0.221 -0.842 -0.492 49 35 22 0 0
-0.0683 -0.0592 -1.2646 -0.250 -0.935 -0.252 41 28 15 0 0
-0.0679 -0.0585 -1.2700 -0.310 -0.927 -0.211 36 24 12 0 0
-0.0678 -0.0574 -1.3060 -0.631 -0.612 0.477 48 30 10 0 0
-0.0722 -0.0630 -1.3180 -0.629 -0.762 0.152 79 58 31 0 0
-0.0796 -0.0722 -1.3536 -0.554 -0.544 0.631 178 152 126 0 0
-0.0815 -0.0746 -1.3573 -0.554 -0.544 0.631 187 158 136 0 0
-0.1290 -0.1369 -1.4424 -0.354 -0.851 0.389 135 106 65 0 0
-0.1371 -0.1474 -1.4614 -0.334 -0.814 0.475 125 97 55 0 0
-0.1556 -0.1714 -1.5024 -0.507 -0.729 0.460 74 52 29 0 0
-0.2277 -0.2661 -1.6321 -0.450 -0.758 0.472 75 52 25 0 0
-0.2291 -0.2677 -1.6361 -0.450 -0.758 0.472 75 51 24 0 0
-0.1949 -0.2191 -1.7166 -0.472 -0.744 0.473 87 66 39 0 0
-0.1957 -0.2201 -1.7212 -0.586 -0.755 0.295 61 40 15 0 0
-0.2055 -0.2298 -1.8566 -0.428 -0.876 0.220 65 43 19 0 0
-0.2156 -0.2433 -1.8617 -0.273 -0.962 0.004 65 43 19 0 0
-0.2189 -0.2478 -1.8634 -0.410 -0.759 0.505 65 43 19 0 0
-0.2259 -0.2569 -1.8779 -0.596 -0.539 0.596 64 42 18 0 0
-0.2273 -0.2579 -1.9108 -0.503 -0.707 0.497 66 44 21 0 0
-0.2388 -0.2730 -1.9311 -0.623 -0.651 0.433 69 47 24 0 0
-0.2497 -0.2867 -1.9695 -0.565 -0.653 0.504 66 45 19 0 0
-0.2663 -0.3075 -2.0415 -0.464 -0.847 0.261 82 61 29 0 0
-0.2698 -0.3116 -2.0606 -0.576 -0.716 0.395 62 39 13 0 0
-0.2724 -0.3150 -2.0689 -0.304 -0.752 0.584 64 42 18 0 0
-0.2794 -0.3238 -2.0950 -0.099 -0.795 0.599 70 51 20 0 0
-0.2923 -0.3408 -2.1186 -0.567 -0.628 0.533 89 69 32 0 0
-0.2963 -0.3458 -2.1310 -0.606 -0.714 0.350 89 67 30 0 0
-0.3038 -0.3554 -2.1502 -0.423 -0.803 0.419 98 74 38 0 0
-0.3049 -0.3569 -2.1546 -0.566 -0.772 0.289 98 74 38 0 0
-0.3059 -0.3580 -2.1593 -0.480 -0.769 0.423 97 75 37 0 0
-0.3106 -0.3643 -2.1644 -0.521 -0.814 0.256 98 76 37 0 0
-0.3170 -0.3727 -2.1790 -0.270 -0.827 0.494 107 84 43 0 0
-0.3447 -0.4090 -2.2279 -0.384 -0.719 0.580 120 95 52 0 0
-0.3515 -0.4180 -2.2356 -0.461 -0.444 0.769 120 97 56 0 0
-0.3546 -0.4223 -2.2367 -0.621 -0.588 0.518 123 101 61 0 0
0.0459 0.0940 -0.8971 -0.028 -0.062 0.998 112 96 76 0 0
0.0162 0.0536 -0.9013 -0.354 -0.572 0.740 127 105 79 0 0
0.0144 0.0514 -0.9052 -0.411 -0.620 0.669 114 93 64 0 0
0.0114 0.0472 -0.9083 -0.042 -0.662 0.748 103 85 54 0 0
0.0529 0.1113 -1.1713 -0.536 0.339 0.773 101 86 62 0 0
0.0174 0.0636 -1.1946 -0.696 -0.395 0.600 54 41 25 0 0
-0.0811 -0.0700 -1.2224 -0.530 -0.707 0.469 125 105 78 0 0
-0.0807 -0.0693 -1.2277 -0.690 -0.633 0.352 70 50 26 0 0
-0.0817 -0.0706 -1.2320 -0.690 -0.633 0.352 66 48 29 0 0
-0.0822 -0.0710 -1.2367 -0.708 -0.626 0.326 58 43 29 0 0
-0.0728 -0.0576 -1.2639 -0.044 -0.975 -0.219 36 24 11 0 0
-0.0730 -0.0577 -1.2689 -0.119 -0.975 -0.188 33 23 11 0 0
-0.0712 -0.0541 -1.3062 -0.631 -0.612 0.477 49 30 13 0 0
-0.0719 -0.0550 -1.3108 -0.642 -0.596 0.482 67 46 24 0 0
-0.0770 -0.0616 -1.3223 -0.618 -0.617 0.488 95 74 43 0 0
-0.0785 -0.0636 -1.3262 -0.474 -0.669 0.573 96 75 41 0 0
-0.1413 -0.1454 -1.4609 -0.334 -0.814 0.475 113 85 46 0 0
-0.1647 -0.1752 -1.5343 -0.606 -0.688 0.399 69 46 24 0 0
-0.1659 -0.1767 -1.5385 -0.606 -0.688 0.399 69 44 23 0 0
-0.2291 -0.2606 -1.6185 -0.685 -0.553 0.474 118 91 51 0 0
-0.2307 -0.2627 -1.6274 -0.490 -0.707 0.510 75 54 25 0 0
-0.1973 -0.2147 -1.7124 -0.567 -0.802 0.189 70 50 23 0 0
-0.1985 -0.2162 -1.7166 -0.687 -0.616 0.385 90 69 40 0 0
-0.1997 -0.2176 -1.7209 -0.687 -0.616 0.385 79 58 29 0 0
-0.2134 -0.2340 -1.8061 -0.507 -0.697 0.507 62 40 17 0 0
-0.2136 -0.2341 -1.8115 -0.449 -0.825 0.343 62 40 16 0 0
-0.2237 -0.2465 -1.8621 -0.307 -0.894 0.325 65 43 19 0 0
-0.2257 -0.2490 -1.8655 -0.383 -0.754 0.534 64 42 18 0 0
-0.2273 -0.2512 -1.8693 -0.435 -0.841 0.322 65 43 19 0 0
-0.2298 -0.2543 -1.8777 -0.361 -0.765 0.533 65 43 19 0 0
-0.2322 -0.2572 -1.8920 -0.530 -0.648 0.547 69 47 24 0 0
-0.2410 -0.2683 -1.9272 -0.623 -0.651 0.433 80 58 35 0 0
-0.2423 -0.2699 -1.9314 -0.623 -0.651 0.433 67 45 22 0 0
-0.2434 -0.2712 -1.9358 -0.709 -0.637 0.303 59 38 15 0 0
-0.2443 -0.2724 -1.9404 -0.602 -0.661 0.448 55 35 11 0 0
-0.2464 -0.2749 -1.9494 -0.450 -0.749 0.486 69 49 25 0 0
-0.2478 -0.2767 -1.9535 -0.450 -0.749 0.486 69 49 25 0 0
-0.2581 -0.2895 -1.9986 -0.443 -0.794 0.416 67 45 21 0 0
-0.2704 -0.3051 -2.0411 -0.464 -0.847 0.261 80 58 26 0 0
-0.2727 -0.3078 -2.0558 -0.550 -0.797 0.249 82 59 29 0 0
-0.2734 -0.3087 -2.0607 -0.651 -0.578 0.493 69 46 18 0 0
-0.2766 -0.3128 -2.0682 -0.304 -0.752 0.584 63 42 16 0 0
-0.2972 -0.3395 -2.1170 -0.481 -0.827 0.291 86 65 28 0 0
-0.3000 -0.3430 -2.1310 -0.543 -0.704 0.458 89 67 30 0 0
-0.3019 -0.3454 -2.1343 -0.340 -0.766 0.545 89 67 30 0 0
-0.3050 -0.3494 -2.1419 -0.340 -0.766 0.545 98 74 36 0 0
-0.3066 -0.3515 -2.1456 -0.423 -0.803 0.419 99 75 39 0 0
-0.3078 -0.3531 -2.1498 -0.423 -0.803 0.419 99 75 39 0 0
-0.3087 -0.3542 -2.1545 -0.601 -0.761 0.245 100 76 40 0 0
-0.3097 -0.3553 -2.1592 -0.527 -0.810 0.257 99 77 38 0 0
-0.3145 -0.3618 -2.1641 -0.537 -0.758 0.369 97 75 36 0 0
-0.3258 -0.3767 -2.1835 -0.563 -0.702 0.437 107 82 42 0 0
-0.3271 -0.3783 -2.1877 -0.563 -0.702 0.437 112 87 46 0 0
0.0423 0.0969 -0.8970 -0.021 -0.034 0.999 116 100 80 0 0
0.0123 0.0561 -0.9011 -0.263 -0.677 0.687 134 114 87 0 0
0.0101 0.0531 -0.9047 -0.160 -0.694 0.702 119 101 70 0 0
-0.0132 0.0224 -0.9401 0.219 -0.893 0.394 106 88 58 0 0
-0.0159 0.0190 -0.9529 0.004 -1.000 -0.021 106 86 54 0 0
-0.0461 -0.0151 -1.1996 0.440 -0.663 0.606 94 76 52 0 0
-0.0838 -0.0660 -1.2181 -0.271 -0.715 0.644 139 117 91 0 0
-0.0847 -0.0672 -1.2224 -0.530 -0.707 0.469 115 93 70 0 0
-0.0850 -0.0672 -1.2323 -0.690 -0.633 0.352 75 58 41 0 0
-0.0859 -0.0684 -1.2366 -0.759 -0.467 0.454 50 36 23 0 0
-0.0796 -0.0590 -1.2616 -0.279 -0.923 -0.267 33 23 11 0 0
-0.0761 -0.0529 -1.3103 -0.665 -0.642 0.382 63 44 20 0 0
-0.1412 -0.1378 -1.4485 -0.531 -0.671 0.517 131 104 61 0 0
-0.1424 -0.1393 -1.4527 -0.402 -0.822 0.404 132 107 65 0 0
-0.2341 -0.2595 -1.6277 -0.450 -0.758 0.472 78 57 26 0 0
-0.2372 -0.2636 -1.6350 -0.389 -0.864 0.318 77 53 28 0 0
-0.2023 -0.2136 -1.7165 -0.668 -0.655 0.353 78 56 27 0 0
-0.2046 -0.2162 -1.7306 -0.683 -0.724 0.095 87 67 34 0 0
-0.2041 -0.2154 -1.7367 -0.634 -0.715 0.293 95 75 43 0 0
-0.2172 -0.2313 -1.8060 -0.507 -0.697 0.507 61 39 14 0 0
-0.2177 -0.2318 -1.8112 -0.449 -0.825 0.343 62 40 16 0 0
-0.2254 -0.2413 -1.8474 -0.737 -0.627 0.252 67 45 21 0 0
-0.2314 -0.2489 -1.8688 -0.435 -0.841 0.322 65 43 19 0 0
-0.2323 -0.2499 -1.8735 -0.310 -0.722 0.619 67 45 21 0 0
-0.2338 -0.2518 -1.8774 -0.415 -0.728 0.545 67 45 21 0 0
-0.2353 -0.2538 -1.8812 -0.415 -0.728 0.545 64 42 18 0 0
-0.2358 -0.2543 -1.8921 -0.530 -0.648 0.547 71 49 26 0 0
-0.2448 -0.2654 -1.9272 -0.497 -0.722 0.482 70 48 25 0 0
-0.2459 -0.2669 -1.9315 -0.483 -0.823 0.299 65 43 20 0 0
-0.2535 -0.2764 -1.9625 -0.637 -0.738 0.224 66 46 21 0 0
-0.2621 -0.2870 -1.9982 -0.546 -0.750 0.373 74 51 26 0 0
-0.2777 -0.3065 -2.0601 -0.323 -0.909 0.264 81 59 29 0 0
-0.3012 -0.3370 -2.1167 -0.523 -0.814 0.250 83 61 25 0 0
-0.3026 -0.3387 -2.1267 -0.603 -0.778 0.178 84 62 25 0 0
-0.3038 -0.3402 -2.1310 -0.543 -0.704 0.458 88 66 29 0 0
-0.3058 -0.3429 -2.1340 -0.558 -0.581 0.593 88 66 29 0 0
-0.3107 -0.3493 -2.1449 -0.635 -0.722 0.274 101 78 41 0 0
-0.3127 -0.3516 -2.1542 -0.680 -0.671 0.294 98 75 37 0 0
-0.3174 -0.3578 -2.1654 -0.565 -0.799 0.206 100 79 39 0 0
-0.3432 -0.3917 -2.2113 -0.306 -0.630 0.714 124 98 58 0 0
-0.3465 -0.3960 -2.2184 -0.543 -0.777 0.318 122 96 58 0 0
-0.3508 -0.4017 -2.2240 -0.669 -0.547 0.503 127 102 62 0 0
-0.3623 -0.4167 -2.2487 -0.571 -0.595 0.566 78 67 47 0 0
-0.0885 -0.0647 -1.2172 -0.300 -0.862 0.408 157 136 108 0 0
-0.0890 -0.0654 -1.2218 -0.395 -0.811 0.432 94 72 47 0 0
-0.0903 -0.0669 -1.2259 -0.395 -0.811 0.432 60 42 23 0 0
-0.0885 -0.0643 -1.2323 -0.565 -0.742 0.360 70 53 36 0 0
-0.0815 -0.0536 -1.2679 -0.611 -0.638 -0.469 37 26 14 0 0
-0.1485 -0.1397 -1.4609 -0.608 -0.773 0.183 116 89 51 0 0
-0.1940 -0.1980 -1.5927 -0.194 -0.611 0.767 158 131 88 0 0
-0.2255 -0.2408 -1.6084 -0.536 -0.288 0.793 162 138 104 0 0
-0.2377 -0.2569 -1.6276 -0.526 -0.681 0.509 78 55 23 0 0
-0.2075 -0.2121 -1.7371 -0.708 -0.647 0.285 101 81 49 0 0
-0.2292 -0.2381 -1.8645 -0.618 -0.736 0.276 67 45 21 0 0
-0.2348 -0.2456 -1.8692 -0.501 -0.845 0.186 68 46 22 0 0
-0.2355 -0.2464 -1.8741 -0.501 -0.845 0.186 70 48 24 0 0
-0.2361 -0.2471 -1.8791 -0.501 -0.845 0.186 71 49 26 0 0
-0.2363 -0.2472 -1.8846 -0.468 -0.814 0.344 65 43 20 0 0
-0.2377 -0.2490 -1.8886 -0.365 -0.722 0.587 70 48 25 0 0
-0.2395 -0.2513 -1.8922 -0.530 -0.648 0.547 71 49 26 0 0
-0.2461 -0.2596 -1.9186 -0.436 -0.754 0.491 67 45 22 0 0
-0.2475 -0.2614 -1.9226 -0.436 -0.754 0.491 66 44 21 0 0
-0.2490 -0.2633 -1.9265 -0.471 -0.808 0.355 65 43 20 0 0
-0.2499 -0.2645 -1.9311 -0.483 -0.823 0.299 65 43 20 0 0
-0.2561 -0.2721 -1.9582 -0.596 -0.742 0.308 47 29 8 0 0
-0.2580 -0.2744 -1.9674 -0.596 -0.742 0.308 73 49 25 0 0
-0.2593 -0.2760 -1.9716 -0.522 -0.791 0.319 70 46 21 0 0
-0.2784 -0.3002 -2.0404 -0.474 -0.823 0.313 79 56 25 0 0
-0.2913 -0.3162 -2.0941 -0.358 -0.869 0.342 78 55 25 0 0
-0.2927 -0.3181 -2.0981 -0.315 -0.812 0.492 80 56 26 0 0
-0.3075 -0.3373 -2.1310 -0.543 -0.704 0.458 89 67 30 0 0
-0.3094 -0.3398 -2.1343 -0.558 -0.581 0.593 90 68 31 0 0
-0.3110 -0.3419 -2.1380 -0.558 -0.581 0.593 93 71 34 0 0
-0.3175 -0.3501 -2.1587 -0.654 -0.703 0.280 98 76 38 0 0
-0.3188 -0.3519 -2.1628 -0.480 -0.769 0.423 97 75 37 0 0
-0.3200 -0.3534 -2.1671 -0.506 -0.753 0.422 97 75 36 0 0
-0.3329 -0.3705 -2.1841 -0.364 -0.736 0.571 101 78 37 0 0
-0.3344 -0.3723 -2.1940 -0.533 -0.718 0.447 115 90 51 0 0
-0.3359 -0.3742 -2.1979 -0.547 -0.627 0.555 101 75 39 0 0
-0.3542 -0.3985 -2.2245 -0.514 -0.655 0.554 124 99 59 0 0
-0.3557 -0.4005 -2.2281 -0.539 -0.668 0.513 124 99 59 0 0
-0.0852 -0.0509 -1.2679 -0.704 -0.564 -0.431 42 29 16 0 0
-0.0787 -0.0413 -1.2882 -0.476 -0.814 0.334 68 55 41 0 0
-0.0800 -0.0430 -1.2923 -0.472 -0.745 0.471 52 39 24 0 0
-0.0814 -0.0447 -1.2964 -0.552 -0.704 0.448 49 35 19 0 0
-0.0827 -0.0464 -1.3005 -0.472 -0.745 0.471 52 37 19 0 0
-0.1212 -0.0964 -1.3938 -0.727 -0.538 0.427 159 128 88 0 0
-0.1220 -0.0973 -1.3984 -0.657 -0.602 0.453 131 99 65 0 0
-0.1234 -0.0991 -1.4076 -0.499 -0.676 0.542 92 69 36 0 0
-0.1836 -0.1766 -1.5745 -0.306 -0.766 0.565 72 50 25 0 0
-0.1857 -0.1793 -1.5779 -0.613 -0.614 0.498 78 57 29 0 0
-0.1860 -0.1796 -1.5829 -0.651 -0.446 0.614 77 54 26 0 0
-0.2004 -0.1991 -1.5899 0.108 -0.939 0.326 156 129 87 0 0
-0.2261 -0.2340 -1.6062 -0.585 -0.189 0.789 140 114 78 0 0
-0.2421 -0.2552 -1.6320 -0.611 -0.679 0.406 69 45 19 0 0
-0.2190 -0.2188 -1.7786 -0.693 -0.611 0.381 69 47 23 0 0
-0.2207 -0.2210 -1.7823 -0.614 -0.708 0.348 68 46 22 0 0
-0.2344 -0.2371 -1.8686 -0.524 -0.475 0.707 67 45 21 0 0
-0.2429 -0.2481 -1.8925 -0.726 -0.506 0.466 71 49 26 0 0
-0.2497 -0.2566 -1.9187 -0.405 -0.717 0.568 67 45 22 0 0
-0.2513 -0.2586 -1.9226 -0.446 -0.723 0.528 66 44 21 0 0
-0.2525 -0.2601 -1.9268 -0.499 -0.727 0.471 63 41 18 0 0
-0.2539 -0.2620 -1.9308 -0.483 -0.823 0.299 64 42 19 0 0
-0.2550 -0.2630 -1.9469 -0.634 -0.636 0.439 63 43 18 0 0
-0.2598 -0.2692 -1.9582 -0.596 -0.742 0.308 55 35 13 0 0
-0.2658 -0.2767 -1.9855 -0.706 -0.558 0.436 79 55 27 0 0
-0.3099 -0.3328 -2.1270 -0.654 -0.677 0.337 88 66 30 0 0
-0.3109 -0.3340 -2.1315 -0.654 -0.677 0.337 90 68 31 0 0
-0.3378 -0.3690 -2.1946 -0.403 -0.774 0.489 115 90 51 0 0
-0.3395 -0.3713 -2.1980 -0.520 -0.679 0.518 106 80 45 0 0
-0.3664 -0.4069 -2.2416 -0.581 -0.733 0.355 113 92 49 0 0
-0.3677 -0.4085 -2.2457 -0.684 -0.531 0.500 89 71 41 0 0
-0.3691 -0.4104 -2.2496 -0.684 -0.531 0.500 72 60 39 0 0
-0.3710 -0.4129 -2.2527 -0.591 -0.456 0.666 77 69 50 0 0
-0.0143 0.0430 -0.9071 0.145 -0.703 0.696 105 86 56 0 0
-0.0276 0.0252 -0.9238 0.081 -0.805 0.587 106 86 53 0 0
-0.0904 -0.0504 -1.2616 -0.587 -0.643 -0.493 36 26 16 0 0
-0.0815 -0.0373 -1.2837 -0.687 -0.725 0.045 47 33 20 0 0
-0.0864 -0.0433 -1.3108 -0.409 -0.846 0.342 48 31 12 0 0
-0.1255 -0.0944 -1.3984 -0.702 -0.566 0.432 133 105 74 0 0
-0.1269 -0.0961 -1.4025 -0.663 -0.637 0.394 116 91 58 0 0
-0.1290 -0.0988 -1.4111 -0.560 -0.680 0.473 116 91 60 0 0
-0.1304 -0.1005 -1.4152 -0.560 -0.680 0.473 105 75 34 0 0
-0.1925 -0.1804 -1.5908 -0.459 -0.864 0.206 126 106 67 0 0
-0.2218 -0.2149 -1.7740 -0.415 -0.787 0.456 62 41 17 0 0
-0.2378 -0.2346 -1.8459 -0.499 -0.815 0.294 65 43 19 0 0
-0.2411 -0.2382 -1.8763 -0.822 -0.513 0.249 66 44 20 0 0
-0.2419 -0.2391 -1.8811 -0.725 -0.628 0.284 67 45 21 0 0
-0.2447 -0.2426 -1.8892 -0.656 -0.505 0.560 70 48 25 0 0
-0.2463 -0.2448 -1.8930 -0.697 -0.532 0.481 70 48 25 0 0
-0.2635 -0.2663 -1.9583 -0.591 -0.745 0.308 63 41 17 0 0
-0.2814 -0.2888 -2.0287 -0.447 -0.881 -0.156 76 52 21 0 0
-0.3126 -0.3287 -2.1224 -0.657 -0.670 0.346 84 61 27 0 0
-0.3398 -0.3642 -2.1850 -0.618 -0.684 0.387 96 73 32 0 0
-0.3419 -0.3667 -2.1940 -0.491 -0.664 0.564 107 82 43 0 0
-0.3434 -0.3688 -2.1977 -0.491 -0.664 0.564 101 75 40 0 0
-0.3639 -0.3960 -2.2270 -0.514 -0.670 0.535 115 90 49 0 0
-0.3707 -0.4048 -2.2468 -0.690 -0.674 0.264 98 80 50 0 0
-0.3743 -0.4095 -2.2533 -0.580 -0.444 0.683 79 71 52 0 0
-0.0330 0.0254 -0.9227 0.081 -0.805 0.587 96 77 44 0 0
-0.0895 -0.0432 -1.2042 0.058 -0.583 0.810 101 88 65 0 0
-0.0920 -0.0447 -1.2631 -0.847 -0.414 -0.332 40 28 15 0 0
-0.0850 -0.0342 -1.2838 -0.685 -0.695 -0.221 46 34 20 0 0
-0.1271 -0.0887 -1.3950 -0.601 -0.567 0.564 120 96 65 0 0
-0.1338 -0.0974 -1.4154 -0.625 -0.680 0.384 133 100 53 0 0
-0.1643 -0.1374 -1.4775 -0.453 -0.654 0.606 102 74 39 0 0
-0.1661 -0.1396 -1.4864 -0.082 -0.763 0.641 83 60 26 0 0
-0.1714 -0.1468 -1.4920 -0.395 -0.674 0.624 79 56 25 0 0
-0.2220 -0.2130 -1.6019 0.122 -0.480 0.869 135 113 76 0 0
-0.2446 -0.2438 -1.6156 -0.669 -0.594 0.446 162 139 104 0 0
-0.2157 -0.2004 -1.7180 -0.394 -0.868 0.302 81 60 32 0 0
-0.2208 -0.2060 -1.7570 -0.438 -0.778 0.451 75 55 26 0 0
-0.2233 -0.2091 -1.7709 -0.705 -0.658 0.265 66 44 20 0 0
-0.2442 -0.2353 -1.8485 -0.683 -0.623 0.381 65 43 19 0 0
-0.2444 -0.2347 -1.8769 -0.629 -0.542 0.558 65 43 19 0 0
-0.2462 -0.2371 -1.8804 -0.529 -0.608 0.592 67 45 21 0 0
-0.2488 -0.2404 -1.8887 -0.621 -0.682 0.386 69 47 23 0 0
-0.2833 -0.2835 -2.0252 -0.746 -0.662 -0.071 89 66 29 0 0
-0.2930 -0.2955 -2.0656 -0.525 -0.683 0.508 76 53 22 0 0
-0.2986 -0.3033 -2.0637 -0.365 -0.837 0.408 75 53 22 0 0
-0.2998 -0.3048 -2.0680 -0.553 -0.790 0.266 85 66 34 0 0
-0.3005 -0.3056 -2.0730 -0.643 -0.747 0.166 82 60 23 0 0
-0.3053 -0.3115 -2.0962 -0.795 -0.466 0.387 80 57 23 0 0
-0.3134 -0.3218 -2.1207 -0.504 -0.737 0.451 84 61 29 0 0
-0.3193 -0.3295 -2.1362 -0.576 -0.760 0.303 90 68 30 0 0
-0.3231 -0.3345 -2.1428 -0.604 -0.674 0.425 93 71 32 0 0
-0.3456 -0.3640 -2.1940 -0.491 -0.664 0.564 112 88 45 0 0
-0.3472 -0.3660 -2.1977 -0.491 -0.664 0.564 116 92 52 0 0
-0.3675 -0.3931 -2.2271 -0.518 -0.722 0.458 112 87 46 0 0
-0.3759 -0.4036 -2.2569 -0.640 -0.701 0.314 82 73 53 0 0
-0.3734 -0.3994 -2.2796 -0.449 -0.852 0.269 166 166 164 0 0
-0.0126 0.0607 -0.9021 -0.113 -0.336 0.935 119 102 72 0 0
-0.0269 0.0410 -0.9042 -0.354 -0.540 0.763 130 111 79 0 0
-0.0296 0.0373 -0.9074 0.022 -0.809 0.587 108 87 60 0 0
-0.0321 0.0340 -0.9109 -0.187 -0.604 0.775 112 88 59 0 0
-0.0347 0.0305 -0.9142 -0.187 -0.604 0.775 124 101 67 0 0
-0.0451 0.0167 -0.9323 0.158 -0.888 0.432 119 96 63 0 0
-0.0700 -0.0095 -1.1703 0.536 -0.801 0.266 79 61 31 0 0
-0.0896 -0.0323 -1.2934 -0.523 -0.740 0.423 34 21 12 0 0
-0.1179 -0.0688 -1.3744 -0.539 -0.571 0.619 130 105 70 0 0
-0.1373 -0.0943 -1.4155 -0.625 -0.680 0.384 164 133 82 0 0
-0.1676 -0.1341 -1.4778 -0.554 -0.552 0.623 101 72 40 0 0
-0.1695 -0.1366 -1.4814 -0.536 -0.695 0.479 108 83 42 0 0
-0.1709 -0.1384 -1.4854 -0.536 -0.695 0.479 86 63 29 0 0
-0.1722 -0.1401 -1.4894 -0.536 -0.695 0.479 75 52 21 0 0
-0.1852 -0.1571 -1.5195 -0.642 -0.702 0.309 61 41 17 0 0
-0.1877 -0.1592 -1.5545 -0.445 -0.837 0.320 65 45 21 0 0
-0.1949 -0.1686 -1.5742 -0.673 -0.612 0.415 76 54 29 0 0
-0.2221 -0.2004 -1.7429 -0.456 -0.647 0.611 77 56 29 0 0
-0.2239 -0.2028 -1.7465 -0.380 -0.799 0.466 43 25 14 0 0
-0.2345 -0.2152 -1.8132 -0.722 -0.636 0.274 69 47 23 0 0
-0.2475 -0.2319 -1.8489 -0.683 -0.623 0.381 66 44 20 0 0
-0.2416 -0.2233 -1.8619 -0.511 -0.683 0.522 66 44 20 0 0
-0.2492 -0.2328 -1.8929 -0.525 -0.783 0.334 68 46 22 0 0
-0.2547 -0.2404 -1.8918 -0.654 -0.619 0.435 67 45 21 0 0
-0.2574 -0.2437 -1.9058 -0.342 -0.726 0.596 68 46 22 0 0
-0.2580 -0.2444 -1.9108 -0.303 -0.849 0.433 68 46 22 0 0
-0.2597 -0.2462 -1.9261 -0.618 -0.745 0.251 71 49 25 0 0
-0.2596 -0.2458 -1.9321 -0.635 -0.513 0.578 67 45 21 0 0
-0.2928 -0.2884 -2.0293 -0.595 -0.734 0.328 72 49 19 0 0
-0.2944 -0.2895 -2.0629 -0.546 -0.643 0.538 79 57 26 0 0
-0.2951 -0.2903 -2.0679 -0.449 -0.818 0.360 76 53 22 0 0
-0.3069 -0.3058 -2.0932 -0.663 -0.646 0.379 79 56 22 0 0
-0.3093 -0.3090 -2.0958 -0.724 -0.601 0.340 80 57 23 0 0
-0.3172 -0.3191 -2.1206 -0.504 -0.737 0.451 81 57 24 0 0
-0.3208 -0.3240 -2.1214 -0.584 -0.676 0.450 81 58 25 0 0
-0.3230 -0.3268 -2.1303 -0.508 -0.797 0.327 81 59 22 0 0
-0.3497 -0.3616 -2.1934 -0.570 -0.684 0.456 106 84 42 0 0
-0.3510 -0.3633 -2.1976 -0.570 -0.684 0.456 92 71 37 0 0
-0.3525 -0.3652 -2.2014 -0.543 -0.630 0.555 83 62 27 0 0
-0.3540 -0.3672 -2.2051 -0.567 -0.595 0.570 85 63 29 0 0
-0.3560 -0.3696 -2.2143 -0.680 -0.391 0.620 100 77 36 0 0
-0.3760 -0.3953 -2.2751 -0.605 -0.794 0.060 138 135 127 0 0
-0.0369 0.0350 -0.9102 -0.013 -0.682 0.731 127 104 72 0 0
-0.0398 0.0312 -0.9134 -0.107 -0.543 0.833 145 121 82 0 0
-0.0427 0.0272 -0.9165 0.129 -0.768 0.628 146 123 83 0 0
-0.0508 0.0163 -0.9263 0.060 -0.755 0.653 115 91 58 0 0
-0.0498 0.0217 -1.0373 0.588 -0.780 -0.214 184 184 185 0 0
-0.0479 0.0246 -1.0434 0.567 -0.784 -0.254 185 185 187 0 0
-0.0777 -0.0126 -1.1625 0.560 -0.792 0.243 93 73 45 0 0
-0.1108 -0.0569 -1.2090 -0.487 -0.801 0.347 142 124 94 0 0
-0.1093 -0.0495 -1.3585 -0.452 -0.609 0.652 139 115 78 0 0
-0.1395 -0.0895 -1.4116 -0.530 -0.703 0.475 145 113 70 0 0
-0.1411 -0.0916 -1.4154 -0.558 -0.679 0.478 143 112 63 0 0
-0.1522 -0.1065 -1.4318 -0.350 -0.709 0.612 116 90 47 0 0
-0.1541 -0.1089 -1.4355 -0.465 -0.644 0.608 105 79 40 0 0
-0.1518 -0.1055 -1.4428 -0.377 -0.559 0.738 109 83 48 0 0
-0.1712 -0.1313 -1.4778 -0.488 -0.602 0.632 106 78 41 0 0
-0.1738 -0.1347 -1.4808 -0.587 -0.767 0.259 110 85 41 0 0
-0.1755 -0.1370 -1.4844 -0.743 -0.566 0.358 86 63 27 0 0
-0.1766 -0.1383 -1.4887 -0.743 -0.566 0.358 75 52 19 0 0
-0.1818 -0.1450 -1.5050 -0.517 -0.775 0.362 69 47 23 0 0
-0.1916 -0.1568 -1.5542 -0.362 -0.874 0.325 65 45 21 0 0
-0.2505 -0.2365 -1.6169 -0.784 -0.573 0.239 120 91 57 0 0
-0.2367 -0.2150 -1.6807 -0.343 -0.658 -0.670 92 73 41 0 0
-0.2212 -0.1918 -1.7257 -0.682 -0.675 0.280 94 74 41 0 0
-0.2236 -0.1949 -1.7341 -0.614 -0.537 0.579 73 50 19 0 0
-0.2237 -0.1948 -1.7396 -0.446 -0.735 0.511 80 57 25 0 0
-0.2252 -0.1967 -1.7436 -0.446 -0.735 0.511 84 62 35 0 0
-0.2265 -0.1983 -1.7477 -0.357 -0.885 0.300 39 20 8 0 0
-0.2269 -0.1979 -1.7754 -0.469 -0.716 0.517 68 47 18 0 0
-0.2292 -0.2011 -1.7783 -0.491 -0.614 0.619 68 46 20 0 0
-0.2463 -0.2218 -1.8607 -0.368 -0.785 0.499 66 44 20 0 0
-0.2483 -0.2243 -1.8697 -0.303 -0.553 0.776 64 42 18 0 0
-0.2535 -0.2314 -1.8748 -0.563 -0.725 0.395 63 41 17 0 0
-0.2550 -0.2332 -1.8788 -0.493 -0.740 0.457 66 44 20 0 0
-0.2625 -0.2418 -1.9331 -0.689 -0.419 0.592 67 45 21 0 0
-0.2779 -0.2615 -1.9776 -0.539 -0.803 0.255 73 49 23 0 0
-0.2787 -0.2625 -1.9824 -0.539 -0.803 0.255 74 50 23 0 0
-0.2995 -0.2885 -2.0669 -0.540 -0.764 0.353 79 56 25 0 0
-0.3327 -0.3315 -2.1518 -0.701 -0.618 0.356 95 73 34 0 0
-0.3387 -0.3391 -2.1732 -0.322 -0.792 0.519 102 80 39 0 0
-0.3501 -0.3545 -2.1863 -0.576 -0.713 0.400 94 70 32 0 0
-0.3533 -0.3587 -2.1936 -0.570 -0.684 0.456 106 84 45 0 0
-0.3546 -0.3604 -2.1977 -0.570 -0.684 0.456 88 67 34 0 0
-0.3561 -0.3623 -2.2016 -0.568 -0.620 0.541 95 75 42 0 0
-0.3576 -0.3641 -2.2055 -0.567 -0.595 0.570 97 77 43 0 0
-0.3802 -0.3931 -2.2744 -0.700 -0.600 0.387 142 140 131 0 0
-0.3829 -0.3965 -2.2825 -0.590 -0.766 0.255 189 189 190 0 0
-0.3892 -0.4055 -2.2782 -0.695 -0.559 -0.453 198 198 200 0 0
-0.0560 0.0168 -0.9254 0.060 -0.755 0.653 110 84 53 0 0
-0.0613 0.0101 -0.9461 0.124 -0.911 0.393 99 79 42 0 0
-0.1125 -0.0520 -1.1953 -0.837 -0.189 0.513 86 72 49 0 0
-0.1149 -0.0548 -1.2086 -0.828 -0.406 0.387 154 136 106 0 0
-0.1188 -0.0545 -1.3641 -0.472 -0.483 0.738 144 118 90 0 0
-0.1235 -0.0609 -1.3706 -0.647 -0.617 0.448 145 117 76 0 0
-0.1248 -0.0625 -1.3748 -0.647 -0.617 0.448 164 134 91 0 0
-0.1272 -0.0657 -1.3780 -0.696 -0.480 0.534 121 96 59 0 0
-0.1292 -0.0683 -1.3816 -0.731 -0.517 0.445 124 103 70 0 0
-0.1709 -0.1230 -1.4762 -0.150 -0.586 0.796 89 63 27 0 0
-0.1740 -0.1272 -1.4787 -0.267 -0.874 0.406 102 76 37 0 0
-0.1774 -0.1319 -1.4807 -0.587 -0.767 0.259 109 84 43 0 0
-0.1855 -0.1423 -1.5049 -0.476 -0.755 0.451 62 40 17 0 0
-0.2441 -0.2202 -1.6062 -0.511 -0.620 0.595 122 98 59 0 0
-0.2251 -0.1893 -1.7255 -0.551 -0.756 0.353 87 66 35 0 0
-0.2280 -0.1933 -1.7277 -0.389 -0.844 0.370 78 57 25 0 0
-0.2351 -0.2001 -1.8099 -0.559 -0.716 0.420 70 49 24 0 0
-0.2528 -0.2234 -1.8458 -0.288 -0.596 0.750 66 44 20 0 0
-0.2537 -0.2245 -1.8505 -0.562 -0.714 0.418 66 44 20 0 0
-0.2504 -0.2196 -1.8602 -0.368 -0.785 0.499 66 44 20 0 0
-0.2787 -0.2552 -1.9638 -0.436 -0.827 0.354 71 49 21 0 0
-0.2798 -0.2566 -1.9682 -0.436 -0.827 0.354 76 54 26 0 0
-0.2836 -0.2616 -1.9750 -0.539 -0.679 0.498 73 49 23 0 0
-0.2994 -0.2812 -2.0424 -0.604 -0.757 0.249 75 52 20 0 0
-0.3051 -0.2878 -2.0764 -0.686 -0.622 0.378 78 59 27 0 0
-0.3063 -0.2893 -2.0807 -0.671 -0.687 0.278 75 54 16 0 0
-0.3079 -0.2915 -2.0844 -0.609 -0.768 0.201 117 92 46 0 0
-0.3089 -0.2926 -2.0891 -0.406 -0.876 0.260 112 89 48 0 0
-0.3164 -0.3031 -2.0903 -0.164 -0.881 0.443 82 59 25 0 0
-0.3372 -0.3299 -2.1506 -0.616 -0.691 0.380 92 70 30 0 0
-0.3381 -0.3309 -2.1554 -0.305 -0.896 0.324 94 72 32 0 0
-0.3429 -0.3369 -2.1725 -0.322 -0.792 0.519 100 77 38 0 0
-0.3570 -0.3558 -2.1937 -0.570 -0.684 0.456 98 75 38 0 0
-0.3584 -0.3576 -2.1977 -0.625 -0.711 0.321 97 74 38 0 0
-0.3597 -0.3593 -2.2018 -0.543 -0.630 0.555 95 73 37 0 0
-0.3824 -0.3897 -2.2334 -0.690 -0.547 0.474 120 98 57 0 0
-0.3846 -0.3911 -2.2795 -0.632 -0.657 0.412 174 173 172 0 0
-0.0680 0.0084 -0.9443 0.178 -0.829 0.531 107 87 52 0 0
-0.0764 -0.0004 -1.0206 0.327 -0.945 0.012 97 84 68 0 0
-0.0766 -0.0005 -1.0253 0.364 -0.929 0.071 122 113 102 0 0
-0.1148 -0.0412 -1.3548 -0.619 -0.554 0.557 114 86 52 0 0
-0.1163 -0.0432 -1.3587 -0.602 -0.593 0.535 139 109 72 0 0
-0.1220 -0.0508 -1.3697 -0.496 -0.598 0.629 130 104 72 0 0
-0.1261 -0.0565 -1.3715 -0.708 -0.528 0.470 138 109 72 0 0
-0.1654 -0.1084 -1.4476 -0.544 -0.692 0.474 108 81 39 0 0
-0.1674 -0.1111 -1.4510 -0.618 -0.662 0.424 112 84 44 0 0
-0.1748 -0.1207 -1.4707 -0.482 -0.732 0.481 102 76 40 0 0
-0.1760 -0.1222 -1.4749 -0.427 -0.805 0.411 85 61 27 0 0
-0.1780 -0.1250 -1.4783 -0.258 -0.909 0.327 96 72 33 0 0
-0.1788 -0.1258 -1.4829 -0.120 -0.917 0.381 101 76 38 0 0
-0.1973 -0.1493 -1.5451 -0.459 -0.699 0.549 68 48 23 0 0
-0.2367 -0.2023 -1.6016 -0.318 -0.364 0.875 161 135 88 0 0
-0.2395 -0.2060 -1.6041 -0.318 -0.364 0.875 149 121 78 0 0
-0.2514 -0.2224 -1.6129 -0.654 -0.613 0.443 131 108 73 0 0
-0.2558 -0.2281 -1.6243 -0.805 -0.334 0.491 157 128 84 0 0
-0.2284 -0.1859 -1.7259 -0.412 -0.828 0.382 75 53 22 0 0
-0.2569 -0.2210 -1.8510 -0.566 -0.749 0.345 68 46 22 0 0
-0.2624 -0.2273 -1.8847 -0.629 -0.722 0.287 67 45 21 0 0
-0.2813 -0.2505 -1.9712 -0.597 -0.693 0.405 78 57 27 0 0
-0.3069 -0.2823 -2.0732 -0.664 -0.593 0.456 70 49 18 0 0
-0.3082 -0.2841 -2.0773 -0.635 -0.700 0.327 77 56 24 0 0
-0.3091 -0.2850 -2.0822 -0.509 -0.755 0.414 81 58 20 0 0
-0.3122 -0.2894 -2.0837 -0.642 -0.702 0.308 104 82 35 0 0
-0.3132 -0.2906 -2.0883 -0.642 -0.702 0.308 105 83 44 0 0
-0.3157 -0.2939 -2.0908 -0.535 -0.549 0.642 79 58 26 0 0
-0.3165 -0.2949 -2.0957 -0.512 -0.719 0.470 80 57 25 0 0
-0.3281 -0.3101 -2.1212 -0.518 -0.583 0.625 79 55 19 0 0
-0.3335 -0.3171 -2.1374 -0.383 -0.812 0.440 87 63 27 0 0
-0.3398 -0.3253 -2.1524 -0.442 -0.667 0.600 90 67 26 0 0
-0.3881 -0.3880 -2.2799 -0.621 -0.663 0.419 177 177 177 0 0
-0.1170 -0.0424 -1.2022 -0.788 -0.596 0.155 90 78 55 0 0
-0.1499 -0.0801 -1.4120 -0.434 -0.762 0.480 118 90 51 0 0
-0.1512 -0.0819 -1.4161 -0.434 -0.762 0.480 125 95 55 0 0
-0.1604 -0.0942 -1.4291 -0.469 -0.701 0.538 110 82 44 0 0
-0.1692 -0.1059 -1.4474 -0.368 -0.798 0.477 102 77 37 0 0
-0.1716 -0.1090 -1.4506 -0.545 -0.781 0.306 102 76 38 0 0
-0.1725 -0.1102 -1.4550 -0.545 -0.781 0.306 86 60 26 0 0
-0.1730 -0.1106 -1.4599 -0.672 -0.576 0.465 113 87 50 0 0
-0.1799 -0.1198 -1.4746 -0.482 -0.732 0.481 83 59 26 0 0
-0.1819 -0.1224 -1.4781 -0.642 -0.708 0.296 88 61 23 0 0
-0.1839 -0.1252 -1.4814 -0.579 -0.761 0.293 94 68 32 0 0
-0.1856 -0.1272 -1.4905 -0.506 -0.714 0.484 72 49 18 0 0
-0.1870 -0.1289 -1.4945 -0.506 -0.714 0.484 75 52 22 0 0
-0.2432 -0.2034 -1.6040 -0.444 -0.240 0.863 151 126 85 0 0
-0.2463 -0.1994 -1.8168 -0.694 -0.564 0.447 72 50 26 0 0
-0.2476 -0.2010 -1.8210 -0.544 -0.700 0.463 71 49 25 0 0
-0.2537 -0.2091 -1.8309 -0.314 -0.802 0.507 68 46 22 0 0
-0.2684 -0.2274 -1.8933 -0.313 -0.945 0.095 67 45 21 0 0
-0.2849 -0.2474 -1.9714 -0.453 -0.747 0.487 78 57 27 0 0
-0.3406 -0.3187 -2.1446 -0.749 -0.380 0.543 89 65 27 0 0
-0.3487 -0.3294 -2.1628 -0.600 -0.687 0.409 92 70 29 0 0
-0.3500 -0.3310 -2.1670 -0.305 -0.896 0.324 102 80 42 0 0
-0.3528 -0.3345 -2.1750 -0.322 -0.792 0.519 93 71 33 0 0
-0.3905 -0.3847 -2.2447 -0.639 -0.716 0.280 114 91 51 0 0
-0.3913 -0.3852 -2.2620 -0.559 -0.804 -0.204 94 82 64 0 0
-0.3964 -0.3914 -2.2848 -0.816 -0.571 0.087 201 201 203 0 0
-0.0460 0.0532 -0.9032 -0.287 -0.382 0.878 117 99 70 0 0
-0.0834 0.0058 -1.0303 -0.175 -0.947 0.271 103 84 58 0 0
-0.0839 0.0053 -1.0348 -0.151 -0.982 0.116 110 93 68 0 0
-0.0840 0.0053 -1.0396 -0.423 -0.785 0.453 112 97 75 0 0
-0.0853 0.0036 -1.0436 -0.423 -0.785 0.453 119 104 85 0 0
-0.0885 -0.0005 -1.0513 -0.840 -0.041 0.541 146 131 116 0 0
-0.1032 -0.0170 -1.1547 -0.238 -0.913 -0.331 108 85 53 0 0
-0.1042 -0.0182 -1.1590 0.008 -0.997 -0.071 104 82 44 0 0
-0.1041 -0.0178 -1.1641 0.008 -0.997 -0.071 118 97 55 0 0
-0.1140 -0.0312 -1.1770 -0.565 -0.821 -0.078 116 96 59 0 0
-0.1205 -0.0393 -1.2023 -0.704 -0.693 0.157 92 80 61 0 0
-0.1132 -0.0268 -1.2584 -0.667 -0.555 -0.498 51 37 24 0 0
-0.1133 -0.0267 -1.2634 -0.462 -0.826 -0.321 62 48 35 0 0
-0.1120 -0.0243 -1.2798 -0.748 -0.662 0.040 46 32 19 0 0
-0.1123 -0.0215 -1.3576 -0.683 -0.352 0.640 66 49 29 0 0
-0.1237 -0.0373 -1.3640 -0.693 -0.375 0.616 93 77 50 0 0
-0.1513 -0.0742 -1.4087 -0.451 -0.772 0.449 105 82 46 0 0
-0.1736 -0.1041 -1.4467 -0.613 -0.693 0.379 98 73 33 0 0
-0.1753 -0.1064 -1.4505 -0.545 -0.781 0.306 98 72 35 0 0
-0.1762 -0.1075 -1.4549 -0.545 -0.781 0.306 95 69 34 0 0
-0.1844 -0.1183 -1.4738 -0.839 -0.372 0.396 84 62 28 0 0
-0.1906 -0.1260 -1.4946 -0.293 -0.840 0.456 72 50 19 0 0
-0.1917 -0.1274 -1.4988 -0.392 -0.694 0.604 70 49 18 0 0
-0.1973 -0.1348 -1.5094 -0.604 -0.674 0.426 64 42 20 0 0
-0.1958 -0.1325 -1.5162 -0.558 -0.744 0.368 64 41 22 0 0
-0.1985 -0.1362 -1.5189 -0.288 -0.916 0.278 63 41 18 0 0
-0.1994 -0.1372 -1.5234 -0.345 -0.900 0.268 63 43 21 0 0
-0.2031 -0.1414 -1.5519 -0.553 -0.767 0.325 67 45 22 0 0
-0.2040 -0.1423 -1.5565 -0.580 -0.747 0.326 61 40 18 0 0
-0.2049 -0.1435 -1.5609 -0.580 -0.747 0.326 53 35 13 0 0
-0.2068 -0.1458 -1.5698 -0.520 -0.809 0.275 67 45 22 0 0
-0.2426 -0.1878 -1.7744 -0.342 -0.826 0.447 74 53 24 0 0
-0.2573 -0.2062 -1.8309 -0.573 -0.697 0.431 69 47 23 0 0
-0.2594 -0.2088 -1.8399 -0.660 -0.581 0.476 69 47 23 0 0
-0.2670 -0.2189 -1.8535 -0.338 -0.869 0.361 69 47 23 0 0
-0.2693 -0.2206 -1.8911 -0.563 -0.651 0.509 68 46 22 0 0
-0.2705 -0.2221 -1.8955 -0.701 -0.595 0.395 68 46 22 0 0
-0.3222 -0.2860 -2.1105 -0.711 -0.639 0.293 83 59 25 0 0
-0.3410 -0.3114 -2.1375 -0.638 -0.681 0.359 91 67 31 0 0
-0.3433 -0.3146 -2.1400 -0.623 -0.641 0.448 91 67 31 0 0
-0.3447 -0.3164 -2.1440 -0.693 -0.581 0.426 92 68 29 0 0
-0.3523 -0.3263 -2.1630 -0.600 -0.687 0.409 95 72 32 0 0
-0.3772 -0.3589 -2.2227 -0.361 -0.835 0.417 114 90 46 0 0
