ply
format ascii 1.0
element vertex 686
property float x
property float y
property float z
property uchar diffuse_red
property uchar diffuse_green
property uchar diffuse_blue
end_header
0.4634150558152898 0.13243442858595011 -2.12634753060746 118 94 60
0.4685054339397708 0.12744255766058837 -2.12686194202825 119 95 60
0.4727096746537858 0.12336696703855549 -2.1283433375438157 120 95 60
0.4750178854738941 0.12125361384923905 -2.1319319971047475 121 97 62
0.47760679377186105 0.11884937953618119 -2.1352001536652367 119 94 61
0.47942482324890645 0.11724317601990741 -2.1393302911524774 113 91 58
0.4812686937430822 0.11561012415834021 -2.143429363240159 108 86 53
0.4817481961789148 0.11539035207228726 -2.1490731632576088 108 86 54
0.4794167869700936 0.1180831724694294 -2.157919820765352 108 85 55
0.4811256168119795 0.11659059475876066 -2.1621850192820307 106 82 55
0.49384760868381866 0.10368438575558997 -2.1538548658859518 107 84 57
0.4941009580640513 0.10369869279531768 -2.1597506627762995 105 84 55
0.4942742512724835 0.10379636850787521 -2.1657469854846303 98 77 50
0.49388314952580137 0.10447961321956195 -2.1724033317310956 95 75 47
0.49597353507618724 0.10259024792041782 -2.17620183200525 97 77 48
0.4939395776910016 0.10497807366375583 -2.1847814347309398 103 80 51
0.4984512116688226 0.1005775527432492 -2.185769200993276 105 84 53
0.5066995429812604 0.09229969761297169 -2.182377096043641 105 85 53
0.5112532233271325 0.08785321202805257 -2.1832633942902753 112 88 54
0.514938096599163 0.08430737896853874 -2.185148972384624 117 93 56
0.517333469757202 0.08209920303307972 -2.1885376151624945 125 100 62
0.5198497130000248 0.0797653018562588 -2.1917777467154758 129 101 63
0.5259409018332548 0.0737197740444292 -2.1907799696884123 129 101 62
0.5297858261666456 0.07000516438074378 -2.1924175881534054 132 103 62
0.518862807208019 0.08162564121145383 -2.211618116072304 132 103 62
0.5250027819140395 0.07552821320408903 -2.210534599980934 131 102 63
0.52534910663863 0.07544756484354659 -2.2163553594114305 135 106 66
0.5265773960129353 0.07445099525958349 -2.2211253154508332 134 106 66
0.5274401797379203 0.07383429714880696 -2.226337304053767 136 108 68
0.5323584293531504 0.0690033173321995 -2.2266576829270446 142 114 74
0.5379462799626193 0.06347534291972329 -2.2261442340732938 138 110 71
0.5415456402724477 0.060013192901529844 -2.2280172585869886 138 110 71
0.5439566296178998 0.05778591820642742 -2.2313229236904033 136 108 68
0.5466687405759585 0.0552452560264628 -2.234254800542329 140 111 70
0.5500308929591589 0.052028198572607764 -2.2363825585476045 133 107 70
0.5545299099767129 0.047628085327034886 -2.2371017362568746 121 101 64
0.5559154013607567 0.04646600329092859 -2.2416339502830303 117 99 61
0.5576831661841315 0.04490622782423065 -2.2456950256919566 109 94 62
0.5599096206766068 0.04286906342891861 -2.249186384962933 86 76 50
0.5628097898049298 0.04013050985432698 -2.2518362772013805 78 69 51
0.5647021444314275 0.03844056239252053 -2.255731366377564 85 80 61
0.5638774997154457 0.039579052036634255 -2.2630161817139243 112 106 91
0.5646667536064753 0.03903785341618776 -2.2682965335207013 137 132 122
0.5647505525613061 0.03923151975718964 -2.274467639797691 158 155 152
0.5647992354866573 0.03946220632301228 -2.2806929210637463 177 176 175
0.5693941957155169 0.03495756980442344 -2.281188627028645 187 186 189
0.5686956396489435 0.03596696449521225 -2.288364507648869 193 193 194
0.5695144692143359 0.03539594163131027 -2.2936295083143774 196 196 197
0.5712428144228603 0.033877281343532795 -2.297741523363942 199 199 201
0.5721207453334842 0.033244950236017756 -2.3029376404667405 202 202 203
0.5839877756006643 0.021157016249359173 -2.294071102163203 204 204 205
0.5951478737127218 0.009802876003224437 -2.286038872870746 206 206 206
0.5949055671798424 0.010335947648688781 -2.2926151434812505 207 207 207
0.595121639753067 0.010391506885045698 -2.2986121038481118 208 208 208
0.5948648727307239 0.01094069425914923 -2.305230144725818 208 208 208
0.5960196256769702 0.010017854308799201 -2.310028778369311 208 208 208
0.6979776303612141 -0.0960852302872367 -2.183646619130126 210 208 209
0.6919860631280865 -0.089566176642602 -2.1974161113797495 211 209 210
0.6838922147292885 -0.08085051414552924 -2.213989428461924 212 210 211
1.0136705378398785 -0.40344582949838825 -2.2652162506294644 216 216 216
1.0170640501199655 -0.40678760921744694 -2.265247805970622 216 216 217
0.023343730166711596 0.46424878701538325 0.010790383261983144 179 179 182
0.10816352469097863 0.38111207525245017 0.006123061136945482 179 179 181
0.3348194808906696 0.2068370293295347 -1.0980021020580666 189 190 192
0.33841578770073977 0.20343081218000542 -1.1009067745571142 190 191 193
0.24277475827968747 0.2998777509448067 -1.157283828809257 191 192 194
0.3087820205986547 0.23367593687227642 -1.1266198441779613 192 193 195
0.30988062841713704 0.23278593798814243 -1.130939204678371 192 193 195
0.333228804336848 0.20971496172634344 -1.1279812484122633 193 194 196
0.2742440687452369 0.26931095219691603 -1.1653548394395288 194 195 197
0.4093452782489637 0.13433402934036776 -1.1145047049192596 197 198 200
0.4367018615357887 0.10698354149900917 -1.1037732932204527 197 198 200
0.4668014621112332 0.07686400348323985 -1.0913584175566111 198 199 201
0.4796498625379195 0.06412035245876943 -1.0886410883607283 198 199 201
0.5677222765274103 -0.024428178347044763 -1.0427901553970136 199 200 202
0.13798673486009572 0.42401692102365734 -1.6400929884317466 215 216 218
0.1389849263154943 0.4232639830403772 -1.6452876786398538 214 215 217
0.15342500058870567 0.4088698683128506 -1.6405975828480441 215 216 217
0.16212959380505698 0.40029400772099055 -1.6400736051195555 215 217 217
0.17506787140014368 0.3874189946785706 -1.6363747838074165 216 216 218
0.1905837461651917 0.37192457628348796 -1.63069858175936 216 215 220
0.20376836581379132 0.35879382729184534 -1.626687710657511 215 215 216
0.213161807113191 0.34951000508298363 -1.6254542595511805 198 195 193
0.2247544315096558 0.337990980321331 -1.6225257662175274 161 155 148
0.23324616836078138 0.3296190404721685 -1.6218826529813066 131 123 113
0.2436367239323617 0.3193166867455101 -1.6197647158318293 114 105 94
0.24941114271916842 0.3137017632553165 -1.6211064010602847 116 106 95
0.2621021129699511 0.3010585192671274 -1.617151604901863 112 101 89
0.27034276888122216 0.2929347484171313 -1.6165418739465127 108 96 83
0.2766688190443441 0.28675511114217733 -1.6173661086738498 96 83 70
0.28119155003072277 0.28240717947809674 -1.6195540667292785 101 87 73
0.28710014100660497 0.2766498229219046 -1.620654104595459 103 88 74
0.29298405046064435 0.27091651508818126 -1.6217495232118448 94 80 65
0.29869536963539794 0.26535764586366234 -1.6229556606184767 99 85 71
0.3066071439630208 0.25756024288138263 -1.6224193055031872 89 76 63
0.309787117884653 0.25457341013917534 -1.6255589805479256 93 81 68
0.3141295060437222 0.2504039002801249 -1.6277748036049915 99 87 74
0.31845974176024705 0.2462460747210104 -1.6299847827463405 93 81 69
0.3198571090729849 0.24507127243361204 -1.6345036018898162 113 101 90
0.32542283421038165 0.23965539629865307 -1.6357082955063187 119 113 101
0.328844294561679 0.2364204890463344 -1.638601817638337 124 119 108
0.3320024572215433 0.23345307823131717 -1.6416956871227597 128 122 115
0.33420733680632847 0.23145553631102705 -1.6455464782731486 141 138 131
0.33593921193352516 0.22993931641238652 -1.6497748471026021 178 177 172
0.3357852904554736 0.23034289564811045 -1.6555277490715044 211 212 212
0.33331944298444 0.2331008394735637 -1.6631668373060289 214 216 219
0.3213451915906819 0.2455421840069329 -1.6785737790836297 215 216 218
0.33133594161807095 0.23561713401159257 -1.6761017080015908 216 217 219
0.3286682554473439 0.23858322264989196 -1.683964766439715 216 217 219
0.32597368040922803 0.2415777299251753 -1.6918733853503998 216 217 219
0.3240693289858716 0.24376820044170233 -1.6991530876222882 216 217 219
0.3410024776563069 0.22676570728223333 -1.6908436260474644 216 217 219
0.26847765583013106 0.30696745059318975 -1.8946817546891601 217 217 219
0.26479354491384155 0.31100054106107206 -1.9041017632999004 217 217 219
0.27318759079208343 0.30268897660694116 -1.90264674154617 217 217 219
0.2688331658468146 0.3074084946586437 -1.9127004648339692 217 217 217
0.2639131637105715 0.31270780616515176 -1.9233030299413558 217 217 217
0.262265890377259 0.31466222969555097 -1.9309600506707603 216 216 216
0.2586398486535221 0.31864115908171625 -1.9404460827560146 216 216 217
0.18402489692206325 0.39523022503907007 -2.015101175017742 216 216 218
0.19006693740214964 0.3893310774963145 -2.0159580150303658 216 215 216
0.19628531279671646 0.38325039850283993 -2.016626315313428 215 215 215
0.19965661151348424 0.38008169112770557 -2.0199054121858055 214 213 216
0.20073091120801 0.3792631456032709 -2.025309256816489 211 210 211
0.20915474164859205 0.3709227613999562 -2.023864395881507 202 200 197
0.21575524740896446 0.364446969223645 -2.0240848688686217 183 181 175
0.22405410010501126 0.3562312499994054 -2.022682538449191 164 160 154
0.24078634916315178 0.33937921123685744 -2.0133028475044377 150 145 137
0.24930289163635577 0.3309360128583084 -2.0115908362738826 144 139 128
0.22267740529009417 0.35848060476459487 -2.0431246297723775 141 134 123
0.2959943133070527 0.2836666926684363 -1.979862564583479 139 129 119
0.3187728857977329 0.26060445186924414 -1.9643441821192769 139 127 118
0.23028591342562743 0.35152951604530125 -2.055089282201123 139 126 117
0.22939920087691368 0.3527192608959951 -2.0623502070052933 137 124 115
0.23246363322036667 0.3498606418166174 -2.065824693839147 134 121 112
0.3210169417734602 0.25938346486045355 -1.9867765868596043 130 117 108
0.31846827200941774 0.26226644929922216 -1.995411085684992 127 115 102
0.3178421823174804 0.26317955597539694 -2.002203329794632 123 111 97
0.3211375803276608 0.26007253227006377 -2.0051884640566073 123 111 97
0.32442766023297953 0.25697051129131254 -2.0081685214663434 123 110 97
0.33624704474991174 0.2451206330407979 -2.002776784745026 123 109 96
0.33980335066802114 0.24174350413160228 -2.005448563463208 122 108 93
0.34068416001306967 0.24111047540566805 -2.010747510801582 120 107 91
0.3451249626796232 0.23682518398788083 -2.0125282910149123 117 103 88
0.3446016638540804 0.23763282010477127 -2.019218598185013 119 104 89
0.3439854171524912 0.23853640898736528 -2.026014344987779 119 105 89
0.343932859484528 0.23886203438882364 -2.03226067376536 118 104 88
0.3523362670982474 0.23050798084927937 -2.030046689098619 115 102 86
0.3557638592809448 0.22726047864531884 -2.032790427381885 115 100 83
0.36162456855706704 0.22151420700532926 -2.033070592142315 113 98 78
0.3899487578776201 0.192698725734949 -2.010615171507116 108 93 73
0.35901426425965555 0.22473757318237586 -2.048084508069977 107 90 71
0.3662924333800892 0.217533774529796 -2.0468879747102013 106 89 70
0.3725806049239562 0.21134547379066743 -2.0466661865202496 99 82 63
0.37418550923930205 0.20996774574216365 -2.0512076668940202 96 79 59
0.374202132121325 0.21022211677762603 -2.0573792269680276 96 80 60
0.3755942174621838 0.20906331056458094 -2.0621444068755332 88 73 53
0.3764060343269775 0.20850099352879775 -2.0675099638159726 82 67 50
0.3839660981668003 0.2010016677870906 -2.0658906240547585 81 66 51
0.38937716723501614 0.19571016927215223 -2.0664664783852227 84 69 54
0.40369131151121906 0.18126278366173293 -2.0577409699028033 86 71 56
0.400564244848434 0.18474869774955643 -2.067164601579939 85 69 53
0.4062628635133451 0.1791582187047504 -2.067365591218637 81 66 49
0.4090849066898012 0.17652570586395167 -2.0705651725342475 83 67 48
0.4156073365183026 0.1700857781897217 -2.0698543263330773 83 68 49
0.42046698478512584 0.1653554249160386 -2.0708709919532606 84 67 49
0.4240820947026433 0.16190491781715666 -2.073187139526641 84 67 49
0.4259933627442468 0.16020750940764916 -2.0773032887058545 85 68 50
0.4255157844885674 0.16096904250148175 -2.08396670917637 74 57 40
0.4246392740499367 0.16214185146654292 -2.09107006232545 77 60 43
0.42925983097379566 0.15765520922036508 -2.092287053325887 80 63 46
0.4334161815956072 0.15364575106284256 -2.093984370526137 79 62 45
0.4395885129250865 0.14755921784264692 -2.093487780755326 81 65 45
0.44435425894478636 0.1429202886523825 -2.0944852616547687 89 72 52
0.4462645552687005 0.14122220818639525 -2.0985643219120003 94 75 53
0.45159519802385145 0.13599982019260637 -2.098914154994158 101 82 56
0.4542704732882229 0.1335127363487948 -2.1021415310046603 104 84 55
0.46013257856598955 0.12774083578764223 -2.1018686748399396 109 88 56
0.4618253339281577 0.12626543021476017 -2.10615122113194 111 90 57
0.4634297238735262 0.12488107902096723 -2.1105301836107575 114 91 57
0.4633295392985775 0.1252542473164573 -2.1167935220131717 115 91 56
0.46412379693087163 0.12470551952253778 -2.1220755477473627 116 92 57
0.4690741691748864 0.11987056889008885 -2.1227398756972544 117 93 59
0.47216024024254016 0.11695766988291323 -2.1254616044964094 120 96 59
0.4768727360937423 0.11236644088381503 -2.126353715489137 120 96 58
0.4837219056276117 0.10556971613797367 -2.1248277834828575 120 96 58
0.4843908240490991 0.10514904073955372 -2.1302214694894954 119 96 58
0.48271176100975016 0.1071518958319862 -2.138270525992834 116 93 55
0.4801733054304667 0.11004275056642743 -2.1473132591769035 116 93 56
0.48092970200988816 0.10953330696025959 -2.1526427742007925 115 92 56
0.4821426177238162 0.10855273025244538 -2.157457715666419 112 89 55
0.49028390944274103 0.10041767674935537 -2.1543649223784227 104 80 49
0.4915943478600789 0.09933556341903083 -2.159049602339384 101 77 48
0.49383708453021286 0.0972905083048608 -2.162665209046075 104 81 51
0.4943005240330014 0.09708340634452123 -2.1683250841177637 99 79 48
0.4905577549532459 0.10122258439980697 -2.178849705116925 99 77 47
0.49405433433646306 0.09788235036912457 -2.1810246967172082 107 83 52
0.49794126103112796 0.09413811276945228 -2.1827332427355564 109 89 55
0.5050112064253676 0.08710301263163922 -2.18071834640951 115 93 58
0.5124257826248675 0.07971000847164145 -2.178263902978553 123 95 57
0.5159800160026742 0.07630671007101475 -2.1802926386062755 130 102 64
0.5202230258562719 0.07219054800737462 -2.1814985391186266 130 102 63
0.5243148937409785 0.06822990400704498 -2.1828642641523 135 106 65
0.5281549085148113 0.0645290183654274 -2.184510290395528 135 106 65
0.5318741163470171 0.06095242732090439 -2.186283832490715 134 105 62
0.5214153517374251 0.07204505017776064 -2.2048905216175907 136 107 65
0.5165152469702681 0.07738888074630529 -2.2169537570608173 136 107 67
0.521411107303626 0.07259588511607784 -2.2173534712637815 138 109 69
0.5235192563007476 0.07068755753624761 -2.22107134247657 141 112 72
0.5314674123338388 0.06273296889245455 -2.2177664216821946 137 108 68
0.5290392983702147 0.06552043642084493 -2.2269238574744725 139 110 69
0.5359098973199771 0.05867946581714645 -2.2248692371870358 143 113 72
0.5405009688884946 0.05419788326600328 -2.2255410841013648 150 122 79
0.5449848469596215 0.049826420379402325 -2.2263222365410638 147 119 79
0.5450233015383971 0.05005968166460745 -2.2325015806588864 133 106 71
0.5493968400062214 0.045801435418690695 -2.233392168687723 130 104 72
0.5528096375336973 0.04253797866040615 -2.2354407600584856 123 101 67
0.5561303004928009 0.03936944485915367 -2.2375895320605497 105 90 60
0.5581270484895116 0.03757278409819481 -2.241357729605749 71 61 38
0.5600324510259953 0.035870681461763865 -2.2452354669313177 62 55 40
0.5621315094706393 0.033967648701640374 -2.248870414594452 65 56 43
0.5643162801952449 0.03197554483162174 -2.2523947285615646 67 60 42
0.5652682178677546 0.031261983535161575 -2.257451012909974 93 87 70
0.5631907055946698 0.03369133099139482 -2.2662977287260175 121 115 102
0.5651700312945089 0.031912604530844546 -2.270084521916189 144 141 132
0.5659483731450288 0.031379997331367315 -2.275377541278889 167 165 161
0.5697221875707306 0.027738749084799508 -2.276900249489041 181 179 181
0.5706233319978185 0.027078660685795786 -2.28203780813788 189 188 189
0.5718236476264489 0.026108170663388497 -2.286800455439916 194 194 195
0.5718037808121343 0.02640470931103517 -2.2931159611017273 198 198 200
0.5693251068722389 0.02925511430976363 -2.3025756715513634 202 202 204
0.5979638616433834 -0.00021254152890681777 -2.272298385633208 204 204 205
0.596498556012002 0.0015828540326076612 -2.280406083838024 205 205 205
0.6039001713970906 -0.005832970802807758 -2.2771410380220183 205 205 205
0.5977844331372831 0.0007950910914078513 -2.291251221063015 207 207 207
0.5986299160945943 0.00019111291982321088 -2.2964211281346762 208 208 208
0.6063726769081391 -0.007581686522953879 -2.292659648903569 208 208 208
0.6902743415555561 -0.09452778914750101 -2.1899129778345783 210 208 209
0.68707040032427 -0.09093497492963701 -2.2000516841388302 211 209 210
0.7763410399806061 -0.18350201388182574 -2.089427347171255 212 210 211
0.7803487882786423 -0.1874211222611195 -2.0898556613801125 212 210 211
1.014617335613223 -0.4101681036670235 -2.2594376285118534 216 216 216
1.0183541526419906 -0.41386384458874836 -2.258889231769753 215 215 216
0.011287961975715854 0.4699992109694053 0.010936969437049304 179 178 182
0.11962790429383373 0.3640385723010546 0.006052912084264353 178 178 180
0.32693291828480475 0.20843731554723743 -1.1006504136221171 189 190 192
0.31115984855256684 0.22446584645779907 -1.113946608500097 190 191 193
0.32026725939949136 0.21554029989686435 -1.1139348205218969 191 192 194
0.3206209291542991 0.21539494715317334 -1.1186182123273942 192 193 195
0.3132325305727572 0.22301746203789452 -1.1275101027442564 192 193 195
0.32186902889033264 0.21456229407903596 -1.1277053496813467 193 194 196
0.3338247626474424 0.20277475824432126 -1.1260480863641154 193 194 196
0.3286615940431482 0.20816579925673243 -1.1337576287510438 194 195 197
0.3373212404475795 0.19968401934230975 -1.133861472416137 194 195 197
0.32304127522905907 0.21422796109764877 -1.1466600102449416 195 196 198
0.4346812444652502 0.10276148119357552 -1.0986696758499863 197 198 200
0.46122326221637416 0.07630760540424607 -1.0883515493391538 197 198 200
0.4813339958609304 0.05630766969051278 -1.0815578963901178 198 199 201
0.5017616711979284 0.03598547393341646 -1.0744927626015823 198 199 201
0.5909047139997965 -0.053368436123773975 -1.028041528590895 199 200 202
0.1309254740517075 0.42330566590640606 -1.6309510815224126 215 216 218
0.1296226664003176 0.4248773081029083 -1.6378148874172402 215 216 218
0.14128283592700364 0.41334006047501587 -1.6352416468000759 214 215 217
0.15165257739632454 0.4031056921983168 -1.6335595712989321 214 215 217
0.1526599374704405 0.40233971241108735 -1.6387078112236135 215 216 217
0.16634944976120614 0.38874396761676505 -1.6345103106708077 216 216 217
0.17989057363561378 0.3752955910993692 -1.6303582221701747 216 215 215
0.19372161752498096 0.3615511123892753 -1.625927141786727 206 204 204
0.2049883386881307 0.35039890423226244 -1.623341559131046 159 154 148
0.2187444164219685 0.33672496716618383 -1.618842442745136 125 117 104
0.23104201726876722 0.32452453173493223 -1.6153727005407559 122 110 92
0.24142938936958608 0.31425542359083364 -1.6132842210478247 122 107 89
0.24646889838779573 0.30939875400267347 -1.6151909074379935 121 106 88
0.2529767323542046 0.30305449497563963 -1.6159649575220378 121 105 87
0.26705130087142426 0.28904634811675156 -1.6109515812437012 117 100 81
0.2739370760461243 0.28231613342532913 -1.6113629755248886 118 101 80
0.2798353393435279 0.2765849482965144 -1.612502637650516 109 91 70
0.2857089026009671 0.2708777711691528 -1.6136377048435162 105 87 67
0.2913242418325869 0.2654312040701124 -1.6149486431834041 117 99 81
0.2984628990307156 0.25844015169583257 -1.615057031853825 109 93 75
0.3036740164350311 0.2534011326116647 -1.6166337624074012 92 76 59
0.31180311655306636 0.245403862893311 -1.6159134491215332 85 70 54
0.3158282087266998 0.2415649559988846 -1.61837075679457 90 76 58
0.32003675257806785 0.23753948906973388 -1.6206702282229781 95 79 62
0.32464711935747886 0.23310599881815602 -1.6226381332723399 90 74 58
0.3287651532830556 0.22917099319399759 -1.6249786538180564 94 79 63
0.33311164676590466 0.22500369448263058 -1.6271234857964956 84 72 54
0.3354812614571228 0.22284069881181873 -1.6308278614350686 108 96 80
0.3368645191471125 0.22167799137893013 -1.6353161378912653 125 113 100
0.3406233246855109 0.21810544492797534 -1.6378992618845047 123 112 99
0.342424790561924 0.2165182168493216 -1.6420457277622769 121 112 100
0.3446769944464438 0.21447356236884163 -1.6458264738517 137 132 125
0.3444015099019178 0.21499384157431062 -1.6516520262620025 184 181 180
0.3378325971229602 0.22190189829992013 -1.6626063432164642 214 215 215
0.33647270752709596 0.22352450057765044 -1.6693542755716702 215 217 218
0.3357089315010465 0.2245426389004334 -1.6756300582770083 216 217 219
0.329283011998317 0.23131000198787988 -1.6865712555881636 215 216 218
0.32606879580469195 0.23481809950530014 -1.6949087623374444 216 217 219
0.3342727596327078 0.22673191146451904 -1.693826463527773 216 217 219
0.3292260508170822 0.23210207580755643 -1.7037062615399918 216 217 219
0.2792018289325313 0.288271324530039 -1.870033982975739 217 217 219
0.27906838487186414 0.2886668663654647 -1.8761960394162247 217 217 219
0.2618688954119597 0.3072329999448274 -1.9160178322896277 217 217 217
0.25798487642815404 0.3114544901798572 -1.9256819690266629 217 217 217
0.2546665952555214 0.31510082436978787 -1.9348632599311402 217 217 217
0.2509943644287934 0.3191091506413371 -1.9443966767501724 216 215 216
0.20174396115799764 0.36957846670551153 -1.9957170895307672 213 211 211
0.2079772696726344 0.36349685097930595 -1.996342541476234 212 210 209
0.2149314977563236 0.35667903646839044 -1.9962764235582269 202 200 198
0.22090928102567253 0.3508555816982339 -1.9970823004504403 190 186 182
0.2295796151649232 0.34228504481623245 -1.9953642385089698 168 163 158
0.2408574521885315 0.3310531445295231 -1.9911774828377786 151 145 137
0.24716125725015292 0.3248928053500432 -1.9915786141664191 142 135 126
0.25541587250995834 0.3167410089086678 -1.9901246128070749 137 129 120
0.27164889089188915 0.30044672273023737 -1.9811335774276557 130 122 112
0.2803774053680237 0.2918069217395193 -1.9791304460934651 129 120 108
0.2692923751655174 0.3033872130076622 -1.9958227789646217 128 119 108
0.3338216961870508 0.23778827347166687 -1.9408564377067399 129 119 109
0.3453920583035508 0.2262372379581401 -1.9359140511697488 130 118 108
0.26688370827946173 0.30665358647627977 -2.0169069186699327 131 118 109
0.315736040181788 0.25703948271370364 -1.9764111757503757 131 118 109
0.3196345411483167 0.253322440938243 -1.9788174877698552 128 115 106
0.32351182693154923 0.24962647286418316 -1.981230394037538 126 113 104
0.32680665130443765 0.24652490481884237 -1.9841925974366839 123 111 100
0.3265778416414499 0.24702278444241443 -1.9905613628905587 120 108 96
0.33098993932007237 0.24277919225380018 -1.9924268467800783 119 107 94
0.3353485658370676 0.23858950907984355 -1.994327440299251 119 106 94
0.3394085555714925 0.2347043209037667 -1.9965035483506886 119 105 93
0.3434034753185089 0.23088499989292194 -1.9987285341319034 120 106 93
0.3470861871952544 0.22738421702975198 -2.001246345449535 119 106 92
0.35147842279406394 0.2231574519495516 -2.0030504520911343 115 101 88
0.3541258084107478 0.2207141528701454 -2.0065664379873933 113 99 86
0.3495013347026842 0.2257073918971398 -2.017303966283188 112 99 86
0.35201992014492856 0.22339622556566607 -2.0209575372250437 112 98 85
0.3568361465077463 0.21873444684550386 -2.022307511709007 111 98 82
0.35144888315648093 0.22451079484733938 -2.033873422615112 112 97 81
0.3802112584365609 0.19534668604423977 -2.011119539965693 112 96 79
0.3867418748279059 0.18892611742041926 -2.010637221425118 109 93 75
0.3623412486494504 0.21416161434569303 -2.041438892565307 103 87 70
0.36711572339323356 0.209540115277348 -2.042774067252554 97 81 64
0.37246431442814937 0.2043300210497337 -2.043504714048209 90 75 57
0.37974243606688135 0.197143326579248 -2.0422406709645244 92 75 57
0.3767372683707068 0.2004852785116749 -2.0514792442577092 94 77 59
0.3748048797535352 0.2027297744840303 -2.059643555060614 92 76 57
0.3776850498009295 0.20004582559203576 -2.062868002554869 86 70 53
0.3771197927056211 0.20089105273359065 -2.0696472442889404 77 60 45
0.38222920674046285 0.195922911225338 -2.0705539556505292 77 60 46
0.39139554708782986 0.18679678194976418 -2.0672179738863727 82 65 50
0.399405738436078 0.17885344494595934 -2.065040872132722 83 66 49
0.40603925749445535 0.17231938715020767 -2.0642642151012214 83 66 48
0.4091262920323495 0.16941939536376072 -2.067178645469915 84 67 47
0.41362973790516766 0.16506686252758235 -2.0685921244536454 84 67 47
0.42276164415677 0.15596773251055662 -2.065099157316427 84 67 46
0.42554943791323235 0.1533723545730497 -2.0682780927352473 84 67 47
0.42943607128545214 0.1496496450064826 -2.0702818300479957 85 68 47
0.43155591039749164 0.14773860464708805 -2.0741533389926996 85 68 49
0.432376832865924 0.14715996062753994 -2.0794093682849266 74 57 40
0.4333982476661826 0.1463758030186595 -2.0844551004006813 75 58 40
0.43606035268130217 0.14390816440729282 -2.0877403347889807 83 66 48
0.4396502654798218 0.14048800639839898 -2.0900180598542697 92 75 51
0.44308279967501757 0.1372288280299056 -2.092452936497975 96 79 53
0.4475214984747791 0.13293622279736766 -2.09378442508784 95 75 50
0.4492471188300169 0.1314283857640433 -2.0980487534088197 100 79 53
0.4543846763747849 0.12641693243464902 -2.0985893330475296 109 88 55
0.45818623709003614 0.12277654596292648 -2.1005687258443886 114 92 53
0.4590133209157801 0.12219071226073852 -2.105797951263771 116 94 56
0.4594615542204405 0.12199425653594859 -2.111448741938451 114 91 53
0.463292519993114 0.11832265448190044 -2.113372294187274 114 89 53
0.46660320148590706 0.11518503204838215 -2.115857051561923 115 89 54
0.46976291853606356 0.11220205981314108 -2.1184979429758504 116 91 56
0.472654870440597 0.10949385046914545 -2.1214264822706173 120 96 59
0.47791970095299746 0.1043460245186198 -2.1216959698996596 120 97 57
0.47864849706682805 0.10386067550532208 -2.1270221315054325 121 98 57
0.4880857461648754 0.09442112501536304 -2.1225704939262933 122 97 59
0.4869532194932536 0.09584916053241799 -2.129975740791857 122 97 58
0.4854556103984497 0.09765343884560357 -2.137810866541217 121 97 57
0.482457629510177 0.10100195023696856 -2.1473660108422385 120 96 56
0.4802037819099287 0.10358616721078096 -2.156105148901621 119 95 56
0.4873533294184499 0.09649584081585605 -2.154151486146424 110 86 49
0.489089172027989 0.09497511701799066 -2.1583490387391686 105 80 47
0.4933752832579704 0.09082951724126787 -2.1596217243552562 110 85 50
0.49505320766219196 0.08936793419345446 -2.1638747213762595 110 85 50
0.4916084207578396 0.09318022028443601 -2.1740330087782587 110 84 50
0.49325699240415577 0.09174950385131309 -2.1783349175427165 113 87 52
0.49593686193348174 0.0892567227452567 -2.1814401634842753 118 94 56
0.4997085295771271 0.08563912330369405 -2.183268106783615 125 100 60
0.515860679653039 0.06926791577098773 -2.1706424805739766 132 102 63
0.5246976512937087 0.06042883231211371 -2.1664750045534413 132 103 64
0.5276843718291335 0.057615589758614416 -2.1691204883636668 134 105 64
0.5022628235256528 0.08407712391729433 -2.2051716388533533 136 105 64
0.5074006228200244 0.07905008855626527 -2.2053550876117733 137 108 65
0.5065779785442255 0.08016606845925989 -2.2125653409672426 136 107 64
0.5101873768359605 0.0767135154153199 -2.214533538142048 135 106 64
0.5122457185976015 0.07485964610163354 -2.2183330197582976 136 107 66
0.5250158529213631 0.06195920403698868 -2.209349021390802 137 107 67
0.5236853433386528 0.06359868022099419 -2.217159740692333 147 116 76
0.5291384018913841 0.05824153338407462 -2.2168506086224933 147 116 76
0.5360062497718265 0.051423638144755035 -2.214812519929228 147 116 73
0.540221129575598 0.0473415706009544 -2.2159392165457237 153 122 77
0.5440156532657804 0.043692507354510246 -2.217556177644901 155 125 79
0.5448156232357487 0.0431334954108194 -2.2227912409835713 155 126 83
0.5458982866418203 0.0422828782611413 -2.227687153789111 143 116 76
0.5434466375496482 0.0450812357729059 -2.2368987367229938 132 108 71
0.5477798016956315 0.0408750717117356 -2.237835040637634 119 99 66
0.552076196575612 0.03670604847603004 -2.2387971276678753 83 71 44
0.5558182686513666 0.033108734957793706 -2.240422197816925 63 55 34
0.5582976212260837 0.030815146515465408 -2.2435900708768277 62 57 39
0.5633057434872804 0.02590868446376876 -2.243622080271253 66 58 41
0.5662964804210096 0.023085734318526563 -2.2461332397372944 69 62 42
0.5695760839702442 0.019963815356289605 -2.248274666547977 80 74 53
0.568251110865438 0.02160061477734687 -2.2561493605246055 104 99 81
0.5687221103898545 0.02138168831772247 -2.261796418266639 128 124 111
0.5691502472341764 0.021207385277096202 -2.267504429581227 155 152 144
0.5700918818770064 0.020502427449405836 -2.272573834702745 174 171 170
0.5709485727250347 0.019885486221075166 -2.2777543406488974 186 184 185
0.5718083137873153 0.019265584668571034 -2.2829355171264765 192 192 193
0.5733959992681912 0.017892826967553732 -2.287197670012255 197 197 199
0.6008193887328068 -0.010210591929305957 -2.2585909497274868 200 200 202
0.6006832616399724 -0.009803511047937474 -2.264960364773008 203 203 203
0.6022870079563747 -0.011196607328829489 -2.2691154757540644 204 204 204
0.6087391060826601 -0.017608232476603036 -2.2670505179265708 205 205 205
0.6079885031774492 -0.01656480884348055 -2.2742152141913095 206 206 206
0.6026331672930199 -0.010752985012585481 -2.287334939567448 207 207 207
0.6017787353564181 -0.009599983590353356 -2.294681815941236 208 208 208
0.6049302141745128 -0.01259519185941893 -2.2968500439435475 210 208 209
0.6237271794189863 -0.03179733300168347 -2.2786602635852775 211 209 210
0.7749320015572836 -0.18793646779789264 -2.0933562198989333 212 210 211
0.7778903931263513 -0.19075823951217577 -2.0951570975612084 212 210 211
1.014830559280798 -0.4160901162895487 -2.2548975995614047 216 216 216
1.0180471436222525 -0.4192288237306063 -2.2552110112187065 215 215 216
0.017742954479068734 0.45761732551922485 0.010894966972712153 179 179 182
0.11842876778818198 0.3594105184256499 0.00609028092173463 179 179 181
0.2745491021519292 0.254494454626521 -1.1269920963022488 189 190 192
0.2947877244308572 0.23446667796822432 -1.1211258556876116 190 191 193
0.30488601184158587 0.2245754486151302 -1.1206196378733844 191 192 194
0.30109986619713436 0.22856826559965193 -1.1275665820008263 192 193 195
0.30603398652171004 0.2238401407102999 -1.1298106512843034 192 193 195
0.31488040660484784 0.21519784781621287 -1.1299076053585282 193 194 196
0.32289889240136355 0.20738232746398894 -1.1304219309103025 193 194 197
0.3137016685691898 0.21678977751610928 -1.140361613343777 194 195 198
0.31796410517628293 0.21273163549088378 -1.1429262621872023 194 195 198
0.32433131973992424 0.20656666808402044 -1.144311011237027 195 196 198
0.5530935458014727 -0.02180537630316089 -1.0306336341051172 197 198 200
0.5463858570574521 -0.014906273341018583 -1.0387881744789897 197 198 200
0.5072656186853969 0.02444613459829021 -1.0653318717035745 198 199 201
0.5306511466502262 0.001219166312792612 -1.0565315897320138 198 199 201
0.6226621957438042 -0.09073466401637892 -1.0084391000571824 199 200 202
0.06393717924732378 0.48322704890971707 -1.6708687646559595 214 215 217
0.09583512877015932 0.45133594049888165 -1.6538874286770122 214 215 217
0.1093493793331789 0.4379672225797422 -1.6500829633727048 215 216 217
0.12404684631700114 0.4234031562207294 -1.6453542181238021 214 215 217
0.15302608841933552 0.3944382538366709 -1.6301197982490536 215 216 218
0.15774545532589235 0.3899271280613525 -1.6325326636032598 215 216 219
0.17117714112687055 0.37663018689908734 -1.6285161711446747 215 215 217
0.18467803535879412 0.3632608039896349 -1.6243856343543643 195 193 189
0.19684131172365305 0.3512378477570266 -1.6211833784354432 133 128 120
0.20739216599745103 0.3408389561938837 -1.619124451418733 115 105 90
0.22389897474355402 0.3244296497037423 -1.6125700439865556 113 101 81
0.23347618128127817 0.31500838070085374 -1.6111288866292657 115 100 79
0.2425074495217308 0.30613617379927927 -1.610055394906459 113 97 77
0.2519498720333546 0.2968473660172617 -1.6086314718393795 115 98 77
0.2433167085979296 0.30579968635873334 -1.6208569897937277 120 103 81
0.2508734591968293 0.2984126968985943 -1.6208303012205985 118 100 78
0.27133228812878635 0.2779999068785723 -1.6109286850734175 121 103 79
0.2774174659352357 0.27209442270189566 -1.6119289799882082 115 97 73
0.2850573448060228 0.2646181053485172 -1.6117102644137176 112 94 71
0.2914783872520576 0.2583712093453257 -1.6123982028226969 112 94 73
0.2981217904457848 0.25189862705317995 -1.6128875914244227 107 92 72
0.30535430947639125 0.2448298373031958 -1.6128918035181972 98 82 64
0.30816246370267725 0.24222909497830286 -1.616312164176034 88 74 56
0.3120340597375237 0.23855368104788044 -1.6188940626261088 85 72 53
0.31748967719479215 0.23327723584016546 -1.620220330377401 93 80 61
0.32634601672828983 0.22456341190898943 -1.6188476074365277 89 75 57
0.3317112970535154 0.21937606047365965 -1.6201928765554565 87 73 55
0.3357885526949822 0.21548968307163424 -1.6225381818627773 88 72 53
0.33887308057297133 0.21260622059668893 -1.625659162617466 87 71 54
0.3414675929315019 0.2102177869175239 -1.6291626604427918 100 84 69
0.345037462831747 0.20684292649111846 -1.6318788548312395 122 105 88
0.3480218688729796 0.20405961231980468 -1.6350542763025933 123 106 89
0.3495535954176057 0.20274508259773638 -1.6393932300463885 117 105 91
0.3525024648170936 0.19999719244863434 -1.6425850744366048 113 104 95
0.3531697979586948 0.1995568672107259 -1.6476217903107482 145 143 139
0.34848297929041044 0.20453338663908838 -1.6570262032011067 202 202 199
0.3424549520329429 0.21086837485708626 -1.6675616942108076 215 217 217
0.33906190056795227 0.21453877841738656 -1.6759772612279311 216 218 220
0.33502578683178397 0.21886112755025283 -1.6849495824445984 217 217 219
0.3310182046390798 0.2231559034673386 -1.6939293459783467 216 217 218
0.4057331163573456 0.14776441702935472 -1.6376925255110453 216 217 220
0.40877310948666173 0.1449177209432177 -1.6406528084721645 216 217 219
0.1738461483329271 0.38693762645447927 -1.935497758492104 217 217 220
0.1579134789225768 0.4038998012418744 -1.9685296010210016 217 217 219
0.16310978399685905 0.3988948537221106 -1.9702848520008862 217 217 218
0.16874792926028603 0.3934406313473502 -1.9716259282396333 217 217 218
0.16954539127039947 0.39289880728725024 -1.9772731658586198 217 217 219
0.17471325540924476 0.38792064426119827 -1.9790043334848206 217 217 219
0.1810614223719209 0.3817433160808134 -1.9796528252777152 217 217 218
0.19113909979150412 0.3717779711194644 -1.9769063057003893 216 217 216
0.2510743353215956 0.3111800503226651 -1.9289431133136574 215 215 215
0.24721573542239406 0.31535850705511664 -1.938619120905547 213 213 212
0.24359137835942768 0.31930037886716245 -1.9481135667143126 208 206 204
0.2179027840985479 0.34565798574922296 -1.9778208802216886 189 184 181
0.22495640884859536 0.3387563856881158 -1.9776430537478387 174 170 165
0.23393179764640015 0.329900710216134 -1.9756643961106328 155 151 142
0.24126238350463936 0.3227147403521653 -1.9751616283798537 146 140 128
0.25551832440147926 0.30848866227476096 -1.9682093647109267 136 129 118
0.2690029225542324 0.29504351530744477 -1.9618995586381027 135 126 116
0.2751966205796822 0.2890074579021793 -1.962317385924485 135 125 116
0.2822985653472945 0.2820468112377985 -1.9618586464986716 133 123 114
0.2905778195586587 0.273887632937425 -1.9602627523481764 130 119 109
0.2902280212655065 0.2745024378396876 -1.966749267057103 126 114 105
0.29750960414360494 0.26735574898019826 -1.9660417707174151 123 113 103
0.30447894881810933 0.2605252593973465 -1.9655962348117353 120 111 100
0.3118477613810261 0.25328701887983684 -1.9647391338854512 120 109 99
0.3185076525837236 0.24676864865626857 -1.964523278565534 120 108 98
0.3230734165379697 0.24238002019146526 -1.9662794001935044 118 106 97
0.3295868889553477 0.2360083772450895 -1.9661495714281965 119 107 97
0.32887634255422993 0.23698858761445768 -1.972940667687311 120 108 98
0.3331507907508019 0.23289468141583008 -1.9749343241891468 120 108 98
0.33441722937511176 0.2318626114183353 -1.9798239887837725 119 108 96
0.3401178254064049 0.22631555092309558 -1.9804092725105562 119 107 96
0.34400426391775263 0.22261493650207065 -1.9827370108897588 116 105 93
0.3460274489404266 0.2208114622114199 -1.986871573475338 115 102 91
0.3499524259708884 0.2170706533636596 -1.9891392422929328 115 103 90
0.35334341452538914 0.21387324971950877 -1.9919177204472929 117 104 92
0.3587464653878798 0.20862532271845408 -1.9927006736787405 112 99 85
0.36502058391948405 0.20248878662494108 -1.9925985476738552 108 95 81
0.3654808178784889 0.20227621122871026 -1.9982373834190046 108 96 81
0.37745275363665787 0.1903303980035575 -1.9924237886081158 108 95 80
0.37989195690792155 0.18809955457809863 -1.9960649764825291 108 94 78
0.3879752734056606 0.1801141617653878 -1.9940478911173594 109 93 78
0.38510893693281495 0.18329195911353374 -2.002991045081903 107 91 75
0.3952402007099536 0.17321614544286668 -1.9988637806934775 102 87 71
0.3961409384077248 0.17255245595056568 -2.0040136821388295 96 80 65
0.3769876143705213 0.19234495259227358 -2.0294993182940813 93 77 62
0.37811622561354663 0.1914517327221098 -2.0344873678381528 87 71 56
0.3808100107490953 0.18896167460099506 -2.0378816174297762 88 71 56
0.38289449032368966 0.1870930790697235 -2.041892286185998 96 79 63
0.3806529520871121 0.18963932673098238 -2.050339170669934 95 78 63
0.3831611327368784 0.18733855638517627 -2.053920717717116 87 71 55
0.38427822223576746 0.18645760168072473 -2.058932628938625 78 62 46
0.3887729626754408 0.18212833046914145 -2.060449646587848 76 59 43
0.397362124119271 0.17361752799008012 -2.0576956868134655 78 61 44
0.40178261680071364 0.16936200395108952 -2.0592407121942595 82 65 47
0.4075443645338207 0.16373583489019866 -2.059366341696257 83 66 47
0.4105254229759386 0.1609489835002646 -2.0623799283292383 86 69 48
0.4146806732727383 0.15696218366880144 -2.0641502651655403 86 69 49
0.4213185789272677 0.1504380496575377 -2.063286697366509 90 73 50
0.42244653567084606 0.14954307250177135 -2.0682177768792798 93 76 53
0.42564960784217304 0.14652741327286561 -2.0709505614457813 93 76 53
0.43209623603920067 0.14019592870347336 -2.0702224064517427 93 75 53
0.43536776188253373 0.13710897811339112 -2.0728509553576515 89 72 50
0.43464788307406593 0.13810242563793435 -2.079739873035782 84 67 45
0.4372975918692324 0.13565092128258882 -2.0830265548772102 87 70 46
0.4403411787554307 0.13279631010480192 -2.085882199546961 98 80 54
0.446106636682537 0.1271573314022379 -2.0857895649756304 100 81 53
0.44566124786260164 0.127870587840326 -2.0923954546217134 98 77 51
0.4490421581334265 0.12466976090010617 -2.0948584523596696 99 78 50
0.45249190594046307 0.1213980024934001 -2.0972346853212755 110 87 53
0.4546167475890253 0.11948157286965522 -2.1010460707360332 116 94 53
0.45547994292323524 0.11885626207011318 -2.1062360271196034 114 90 51
0.4627103183770216 0.1117135504993359 -2.1044335164711883 112 88 50
0.4666849306003366 0.10790240654091426 -2.106182525555825 113 87 50
0.468350717076591 0.10645458965519178 -2.110467793865788 114 88 52
0.4751484669597933 0.0997514578937872 -2.1090630869622906 117 92 56
0.47688419093460077 0.09823124091060736 -2.1132522370225195 121 97 59
0.47418303990037125 0.10125566348576615 -2.1223873186336513 120 97 57
0.47572101995012706 0.0999385143676989 -2.126809284591612 121 96 58
0.47679425048736784 0.09909753343564187 -2.1317524275820796 122 97 59
0.48603882257787057 0.08988340764024927 -2.1275074511938756 122 97 59
0.4854794483637907 0.09071472866945646 -2.1342715554461846 120 95 57
0.48173328242382935 0.09481304097554644 -2.1446545715112433 118 94 55
0.48525051119099677 0.09146692311546772 -2.1468310523019474 116 92 52
0.48390940838059504 0.09310132044339237 -2.154522684708157 115 92 51
0.48323239857681877 0.09405554928033572 -2.1614753203866677 113 88 48
0.4828456014738809 0.09471276458911443 -2.16811033999377 116 89 50
0.4850504731053335 0.09271229585557106 -2.1717834259223094 119 92 53
0.4872726987443036 0.09069383861960939 -2.1754321044554343 121 94 56
0.48891146203984687 0.08927379587843981 -2.179749745133613 121 93 55
0.4883266595916695 0.09013531214499887 -2.186640815246077 122 94 55
0.48857938056770317 0.09013792404908927 -2.1925735796835215 125 97 57
0.5084864061020409 0.06996823028446231 -2.1756313783881915 131 103 62
0.5040443165419692 0.07478809584164986 -2.1869975759078586 134 106 65
0.49466919124752873 0.0846741541693492 -2.2041798852023793 134 105 63
0.483594497294803 0.09630838169798217 -2.22343075515221 134 105 62
0.5084027386226604 0.07109670993933809 -2.2005087892931168 135 106 62
0.5097586913304368 0.06996576560326262 -2.2051278747882166 139 111 67
0.5147426198477565 0.06510814996974595 -2.205451328983709 138 110 68
0.5032829283957323 0.07714304948152051 -2.225281661741413 137 109 67
0.4970708542180777 0.08378969804053338 -2.238949106984516 139 109 68
0.5158815557313196 0.06472408958673642 -2.222780603519736 144 113 71
0.5107763775660632 0.07023393260218086 -2.235142263329408 156 125 82
0.5419315421518831 0.0384727021305446 -2.20399295543924 154 123 79
0.5465020816989542 0.03403385140588083 -2.2046663623882647 161 130 84
0.5491146884247122 0.03160729491684672 -2.2076841116735193 162 131 85
0.5478858472487353 0.03313079193070345 -2.2153477627444635 160 128 80
0.5463900157900816 0.03492967040483663 -2.223354347174179 167 135 84
0.5432781883481936 0.038391690256893096 -2.2333499900866065 156 126 83
0.5472712735456051 0.034545609785753995 -2.2346977755552757 131 107 72
0.552030433500456 0.02991057817360282 -2.2350901134725314 99 83 52
0.5556993669233354 0.02639653219804472 -2.2367994697441285 87 75 47
0.558564104885497 0.023709553697784602 -2.239484658151703 80 74 45
0.5610312296998065 0.02143146963883813 -2.2426516751936356 78 71 44
0.5637148880072006 0.01893018347609232 -2.245543818369925 76 69 44
0.5670597975563303 0.015747695506901194 -2.2476063916706606 76 70 44
0.5685019280281287 0.014524149276530618 -2.252026475190959 93 87 65
0.5683342316412867 0.014958650613737412 -2.2584578589218136 110 105 89
0.5680153606752748 0.015549361936842754 -2.265090171623269 135 132 121
0.5692267013718786 0.014564126954745349 -2.2698130615167527 162 158 154
0.5704020716355864 0.013616040676232788 -2.2745832885473445 179 177 176
0.5732880201012585 0.010905250997060967 -2.2771952658906423 188 188 189
0.5755439880098145 0.008843360721957405 -2.2805954850863186 195 194 197
0.6029088907059578 -0.019101605795294796 -2.252101299221864 199 199 201
0.5961029762316924 -0.011825112671331517 -2.2669436379236463 201 201 203
0.6036725190279744 -0.019368958298749184 -2.2634860516294295 203 203 203
0.6063091887516348 -0.02182750169919817 -2.2663025373468266 205 205 205
0.5898422752575617 -0.004582694857776737 -2.2936413582187316 206 206 206
0.6015808510141423 -0.01642826747790105 -2.284789286884424 207 207 207
0.6155423062955465 -0.030570252262920705 -2.272994824753466 207 207 207
0.6159562636696474 -0.0307368396635343 -2.278651673388155 209 207 208
0.6164547872914409 -0.030990383123184806 -2.2842062713476396 210 208 209
0.7588730459054731 -0.1777271861766873 -2.1050214239576044 211 209 210
0.769604174910365 -0.18856457117924844 -2.0967284252645535 212 210 211
0.7735223541928843 -0.19237068611059205 -2.0972860288063866 212 210 211
1.0147228436445968 -0.4216533314905468 -2.25090583509173 215 215 215
1.0127759326744596 -0.4193766951670464 -2.2597889316163635 215 215 215
0.11461494361387688 0.35733769547432703 0.006149916987509309 179 179 181
0.2640489449106372 0.25849965006980286 -1.1309811016767237 189 190 192
0.28226529821134855 0.24054652180758523 -1.1262276744298985 190 191 193
0.2866496895533026 0.2363792471925043 -1.1288172177281357 191 192 194
0.291384505124319 0.23186202294800387 -1.1312038913943612 192 193 195
0.29604397297615737 0.22741928173690085 -1.1336156676415508 192 193 195
0.3033949340882999 0.22029195826602943 -1.134548567133683 193 194 196
0.3092374096759029 0.21487017788901527 -1.1411892715829088 194 195 199
0.2415365489092997 0.28260384656144066 -1.1834060982145012 194 195 199
0.24612699648819053 0.2782339976179004 -1.1859541205535966 195 196 199
0.39050155178771256 0.13440236603373762 -1.1108071631958276 196 197 199
0.5472136937057113 -0.021587700068796956 -1.0324620431612928 197 198 200
0.5438351394163834 -0.018035557929514598 -1.0387440934929653 198 199 201
0.5457619408014411 -0.019777695475865747 -1.0420492079071506 198 199 201
0.5484515719242277 -0.022281409625811113 -1.0449180422299085 198 199 201
0.6428428205386519 -0.11632977960252712 -0.9954940309863745 199 200 202
0.07350349501782416 0.46584448874467893 -1.655477033116187 214 215 217
0.08900400749548232 0.4505238376442134 -1.6503609771208183 214 215 217
0.10509877100825471 0.43460324371396414 -1.6447431447217813 214 215 217
0.11672966672063823 0.4231640726426195 -1.6422826268154003 214 215 216
0.1315017062238022 0.40856668227526055 -1.6374856971242748 214 215 217
0.1544361731834496 0.3857643874247321 -1.626663481910147 214 215 217
0.16250446742265334 0.3778973879900461 -1.6266149860666452 211 212 213
0.1760405132941023 0.3645334951890616 -1.62251364328336 178 177 173
0.18943074768954482 0.3513135586409381 -1.6184564617034018 125 120 109
0.19934281565950118 0.34158760630888324 -1.6169113469103036 110 101 85
0.20901226383827687 0.332103757490998 -1.6155021337098228 115 101 83
0.21831884533258739 0.3229829976963271 -1.6143203254426517 111 96 77
0.23994062079895173 0.3014761241166926 -1.603881879949199 111 94 74
0.24728598290717912 0.29432305910407025 -1.6040572028164681 111 94 72
0.2546519999976266 0.28714794080303513 -1.604185935448281 114 96 74
0.2558289355696343 0.2861974553194617 -1.6089644684740105 116 98 76
0.26353409805506883 0.27867924798976035 -1.6087899497217641 115 97 75
0.2761778100846668 0.2661906381948977 -1.6048205239162452 114 96 74
0.2811066399206711 0.2614629300764139 -1.6066885870069791 110 92 70
0.28675029763716203 0.2560150680388447 -1.607989984525541 112 94 72
0.29501191136697913 0.24793129943826742 -1.6072538152055635 117 99 78
0.30035329840755504 0.24278558445358384 -1.608737143751429 109 92 72
0.3079664999618336 0.23535191259656518 -1.6084385849362075 103 86 66
0.3125724870095241 0.23094466928745117 -1.6104464256928233 92 75 55
0.31724573153057917 0.22646900937446401 -1.6123849718493481 85 69 49
0.3199028826888344 0.22402298173345997 -1.61588573590089 91 76 56
0.3208503816059068 0.22329862347699764 -1.6207242824303516 94 79 59
0.32445892985292085 0.21989394057334705 -1.6234667294890197 87 72 52
0.33163531672415764 0.21289453003703435 -1.6233734190954865 96 79 61
0.34007251299588137 0.20462355403645022 -1.622247554803129 92 75 57
0.3445291396699103 0.20036195392043316 -1.6242565165037166 90 73 55
0.34854766582050345 0.19654117832959112 -1.626599656762934 105 88 68
0.3538522899711961 0.19142362954829312 -1.6278967350017652 104 87 67
0.3546767219135571 0.19082111793650597 -1.6327809436700709 114 99 83
0.3572718703530859 0.18843372836540556 -1.6362379422847952 108 96 83
0.3595621882890464 0.18635341850020803 -1.6399360543264745 104 95 86
0.36027279656462025 0.1858657681693478 -1.6449150967219566 116 111 104
0.3522242947245972 0.1942112148587712 -1.6570495960526976 185 185 182
0.3739562069267331 0.17252408493915794 -1.6448411434243402 215 216 218
0.3810923210220376 0.16555444920924572 -1.6445175637033256 216 216 218
0.3881737937263545 0.15863863817822277 -1.6442075835534726 217 216 217
0.4009297834632164 0.1459966056984997 -1.6391703943338776 216 217 220
0.4061171653764234 0.14098870394721585 -1.6403547781180066 216 217 219
0.17718956572664468 0.37631788422940693 -1.9358567644440325 217 217 219
0.17722623478043353 0.37653966838169417 -1.9421100166771152 217 217 219
