ply
format ascii 1.0
element vertex 673
property float x
property float y
property float z
property uchar diffuse_red
property uchar diffuse_green
property uchar diffuse_blue
end_header
-0.6113022947152317 -0.10156724365954808 -2.2453467808540535 209 209 211
-0.6330230093423759 -0.10273839721687361 -2.2315473454857693 210 210 210
-0.5635338321498267 -0.09899796095051375 -2.301255474572709 211 211 211
-0.5243390668707347 -0.09688891867638508 -2.343472795061141 211 211 211
-0.5283389558824718 -0.09710586503327301 -2.3460876329696774 212 212 212
-2.3409457643364133 -0.19476091656146957 -0.8779700728192518 215 215 215
-2.3422526543727473 -0.19483173609607646 -0.8785673441242292 215 215 215
-2.3458898385065408 -0.1950278739313711 -0.8763593262845293 215 215 215
-0.2878634250432498 -0.07980698156716809 -0.02582897121660102 177 177 177
0.19413176649435027 -0.05264648140989864 -1.2283943833165152 187 189 191
0.21404685666223322 -0.05153819556485299 -1.2413676799515865 188 189 191
0.19033627866893021 -0.052853175903474825 -1.237850032229474 188 189 190
0.16693404816785606 -0.05415105538087987 -1.2343781762431192 188 189 190
0.15351047538237028 -0.05489466024276143 -1.2346576139407017 190 190 191
0.12735251158178307 -0.05634566642977472 -1.2300003188303035 170 163 158
0.10623037837431776 -0.05751696285788151 -1.2272083913343428 133 115 93
0.08818541857541229 -0.05851734457852441 -1.2255469304797182 143 121 91
0.07422108585669995 -0.05929106264770736 -1.225422408525808 146 124 94
0.058454328202561634 -0.06016492394806338 -1.2245525246632083 131 111 83
0.042899281110771015 -0.06102704164603633 -1.2237198704170136 131 113 87
0.028424286516265607 -0.061829176223898226 -1.2232682446740915 133 113 87
0.011732636608845715 -0.06275447031919351 -1.22189592425208 121 104 83
-0.005257907417979213 -0.06369638806012184 -1.220355189794653 113 100 81
-0.021041292263694777 -0.06457126112720749 -1.2192466526079002 108 95 79
-0.03848449403487586 -0.06553836420261017 -1.2174250642636961 117 103 86
-0.049160221850949315 -0.0661295107340033 -1.2182803225071948 120 105 88
-0.061809842940772686 -0.0668303320438707 -1.2183068764921343 117 100 87
-0.07375736493943758 -0.06749216006939451 -1.218582829866397 120 103 87
-0.07542595762883153 -0.06758292086597639 -1.2230226425259034 126 106 86
-0.07357578417002236 -0.06747818217602619 -1.228906670365692 98 81 61
-0.0687479147322615 -0.0672079988014714 -1.2360301555739839 96 82 69
-0.05809293622956507 -0.06661405077468185 -1.2455866641694142 85 73 59
-0.05762969771305221 -0.06658634866673577 -1.2509548841216245 72 62 48
-0.05390849459886343 -0.06637762566408997 -1.257690076550664 77 68 57
-0.04586263376568228 -0.06592860754423077 -1.2662556364414606 85 80 66
-0.04299382263241802 -0.06576722800064094 -1.2726796475745412 73 63 50
-0.031020132215221374 -0.06509994278554086 -1.2829638071210743 69 56 42
-0.030541771465215084 -0.0650713678020503 -1.288424398142191 71 57 42
-0.028342538869527867 -0.0649471695063245 -1.2946261228066427 69 55 39
-0.03066513527357778 -0.06507422327590337 -1.298910523070436 88 73 53
-0.03010199607472064 -0.06504092814055487 -1.3044320966348963 99 80 54
-0.025009154685303736 -0.06475592841515726 -1.3119140100828102 104 86 57
-0.02699111987031505 -0.06486404835522806 -1.3163610500073064 95 75 48
-0.04008117350643031 -0.06558942390161432 -1.3159849551638614 85 66 41
-0.041817396418270925 -0.06568389532264973 -1.320520467891747 83 67 41
-0.04029589104084785 -0.06559733610587076 -1.3264831282815301 78 62 38
-0.047240569742123206 -0.06598123898288477 -1.32873775191158 84 68 47
-0.0541829484124739 -0.06636502051019758 -1.3309763544408137 81 66 44
-0.06530776036279612 -0.06698123238837675 -1.3313452093692435 87 71 50
-0.0699534052918745 -0.06723739531371078 -1.3345637224187827 69 53 32
-0.08784836819107478 -0.06822986312918725 -1.3318576119776198 86 69 47
-0.10229582523450342 -0.06903076229645252 -1.330641095992867 95 78 54
-0.07670578532933625 -0.06760662948728605 -1.347397805640426 66 48 24
-0.07945278989147347 -0.06775728488348534 -1.3514503296760358 108 89 62
-0.0927853679424816 -0.06849623928505807 -1.3506995394575068 130 105 73
-0.08630479354749132 -0.06813407051367844 -1.3589298110226309 144 116 83
-0.09839838318532096 -0.06880418288241313 -1.3587005844118476 141 113 80
-0.10017491720672611 -0.06890091287128954 -1.3631696978630996 139 111 79
-0.10941808111707346 -0.06941262394989248 -1.3642004930655918 133 106 73
-0.11266821166090563 -0.06959125899521164 -1.367976892767582 140 115 85
-0.11126141562885761 -0.06951106602013185 -1.3739106725404835 144 119 87
-0.11290740522451204 -0.06960054273211927 -1.3784342770195197 151 123 94
-0.1141539758436611 -0.06966781884993667 -1.383146150709398 150 122 93
-0.11862643242117926 -0.06991439356352085 -1.3863462092937753 137 108 73
-0.1219744347601125 -0.07009847191621926 -1.3900675812181955 168 136 90
-0.13014226999104211 -0.07055045229421858 -1.3915039010289658 166 131 82
-0.13348677199778713 -0.070734342913761 -1.3952089428617849 140 109 63
-0.13837694598758848 -0.0710041503388876 -1.3981724486979137 174 145 89
-0.141864223090158 -0.07119598171704608 -1.401797012411653 126 98 48
-0.14362758827718758 -0.07129199035468387 -1.4062443954354593 135 113 68
-0.14613040692182022 -0.07142910210373858 -1.410336260619647 114 92 51
-0.14849808337197007 -0.07155870234023584 -1.4144918501511445 130 106 70
-0.1505649838285954 -0.07167158358753611 -1.4187923517610068 151 123 84
-0.15505842433969896 -0.07191935228584508 -1.4219096540765273 150 122 83
-0.1594439805478981 -0.07216112718063299 -1.4250708365121307 181 149 100
-0.16025735113471118 -0.07220432840480262 -1.4299781360464834 172 139 89
-0.1639099146195736 -0.07240535993080138 -1.433490102749428 163 134 92
-0.16361478018846853 -0.0723869366855851 -1.4389496756197624 153 127 86
-0.16874232999876115 -0.0726699671413074 -1.4417244638988396 152 130 92
-0.17808385478632072 -0.07318726738551737 -1.44238727451078 98 79 52
-0.1796836393428894 -0.07327418953921555 -1.446896765877665 144 122 89
-0.18980317868085267 -0.07383475760425884 -1.4471294946435345 114 90 54
-0.19303024477794756 -0.0740121525817117 -1.450806338202314 149 122 83
-0.18955183317098512 -0.07381675613765852 -1.4578706749305885 148 119 79
-0.1931296919110395 -0.0740136524605789 -1.4613729176995205 128 100 63
-0.17794709465286812 -0.07316753137428916 -1.4744284397302458 126 98 60
-0.19855036312797714 -0.07431098754796789 -1.4692474916565246 118 91 53
-0.2034823795261007 -0.07458317778557697 -1.47204075779005 120 94 58
-0.2094599824324882 -0.07491350547836456 -1.474284696671587 84 59 23
-0.21517232044216184 -0.07522909013811538 -1.4766510895657385 118 89 44
-0.21556859913851378 -0.07524910592623636 -1.4817616873246464 105 68 29
-0.21641855521656334 -0.07529434430859352 -1.4866421096711986 112 82 34
-0.21003738435492114 -0.07493751856159808 -1.4953052461211886 99 75 31
-0.2111466852573159 -0.07499716869649443 -1.500071880626817 89 65 25
-0.2173194888809855 -0.07533836373341382 -1.5021772873586225 96 72 32
-0.22517720397981522 -0.07577325207251903 -1.5033773498394254 82 59 20
-0.22842857616419532 -0.07595201544133642 -1.5069968712948432 81 58 23
-0.22673879284020831 -0.07585602670406344 -1.513239804608284 73 49 17
-0.2430587223741832 -0.07676147891342858 -1.5098840743906998 79 55 25
-0.2566758368274246 -0.07751665715334086 -1.5079222423918293 73 50 19
-0.27561038901507673 -0.07856754047993192 -1.5030585012858022 74 51 21
-0.2975763903762471 -0.0797870210027099 -1.4964957169125528 71 47 20
-0.32690260837735174 -0.08141582267829373 -1.4858734684938928 122 100 60
-0.3142183617812838 -0.08070848368495492 -1.4979668987487826 75 51 19
-0.30118253795459043 -0.0799815723590549 -1.5103074452675442 73 50 19
-0.29874651346765085 -0.0798441039732038 -1.5169071495632829 79 56 26
-0.209305763476289 -0.07486815404815154 -1.5712779529099183 79 56 27
-0.246671417028341 -0.07694407528653117 -1.5561550946722635 73 51 23
-0.2509481117676753 -0.07717986863304396 -1.5591851989044763 71 50 22
-0.2547237207624134 -0.07738779796096008 -1.5624845903776416 71 48 21
-0.2571293020302114 -0.07751953638623604 -1.5665396879076559 88 64 33
-0.26154190701832253 -0.07776289651476674 -1.5694725571558668 105 82 43
-0.26794909584730775 -0.0781171908705582 -1.5712786260924259 105 80 39
-0.27860969882769065 -0.07870805253605812 -1.570676368967084 89 63 30
-0.2888721038286793 -0.07927678006263618 -1.5702655223944977 74 49 18
-0.2816666066154672 -0.07887398684716158 -1.5797113759961698 88 62 32
-0.2827065391406132 -0.07892978192960402 -1.5845091370451205 104 82 51
-0.2809152345683985 -0.07882810321577752 -1.5909243033227114 115 92 58
-0.28375229231986115 -0.07898385015334888 -1.5947072677406358 136 111 77
-0.28664310662314485 -0.0791425883033445 -1.5984561874230705 123 97 62
-0.2899917908140025 -0.0793267953145364 -1.6019380706737034 130 109 71
-0.29588289534583484 -0.07965242027032207 -1.6039459963590097 110 92 62
-0.2978492146894878 -0.07975974139179529 -1.6082138092030946 105 88 63
-0.30082553702280146 -0.07992324291531255 -1.6118943667482568 109 93 72
-0.30690103426754883 -0.08025913684021288 -1.613762641302016 119 103 73
-0.3126663468268292 -0.08057778260805917 -1.6157966320969739 155 132 94
-0.3094975073799446 -0.08039946034699248 -1.6230642770769856 153 127 93
-0.3258456896891388 -0.0813068041650724 -1.61884866307551 152 129 99
-0.34015884526402607 -0.08210096534720618 -1.6157802374447667 113 93 68
-0.33811472672807064 -0.08198521411361931 -1.6223687432287006 143 127 101
-0.346453141341312 -0.0824470294614125 -1.6227923650312397 137 118 91
-0.35444790503312223 -0.08288973700225594 -1.6233962184084283 139 121 92
-0.3609014414500297 -0.08324671391192809 -1.624899921820956 156 136 107
-0.3644800883506808 -0.08344376311064503 -1.6281143799437072 128 104 73
-0.37048213838970795 -0.0837756340927112 -1.6298607028975693 96 75 41
-0.3732365920790748 -0.08392683759050956 -1.6335564378443628 92 72 40
-0.34696625209616666 -0.08246328394348335 -1.6548718221558845 106 87 59
-0.3572292928374427 -0.08303220448955703 -1.6540451524267492 77 60 34
-0.3406495016213401 -0.08210772942195878 -1.6695902668790705 77 59 33
-0.32513392359162196 -0.08124243486489409 -1.6845568695903625 106 86 56
-0.3153390327205504 -0.08069539439263568 -1.696074424885597 103 83 53
-0.2999394530846792 -0.07983650492520539 -1.7110979736564575 98 79 47
-0.29843818007155126 -0.07975086712139008 -1.717586424102527 102 82 45
-0.2988863383500711 -0.07977368846359442 -1.7228781861723954 102 81 43
-0.3001824079543302 -0.07984368502202183 -1.727647951939964 107 84 46
-0.30549808176564713 -0.08013733357426815 -1.7299078365271308 103 80 42
-0.30629628108488915 -0.08017962876923851 -1.7349877138651435 99 77 40
-0.3055307427192021 -0.08013491240423432 -1.7410564485824647 104 83 46
-0.26280024771169164 -0.07775514074773737 -1.7736247468567086 75 55 22
-0.24892858170802962 -0.07698111085384664 -1.7881000756176049 53 32 4
-0.2644467151266621 -0.07784243464648524 -1.7839701998545827 77 57 24
-0.3045204029331054 -0.08007017747630872 -1.7641371789170905 89 67 33
-0.295683291491367 -0.07957629074140217 -1.775418759170093 82 59 25
-0.2994062659015494 -0.07978131487877355 -1.7786893171879088 86 63 29
-0.30285998125183433 -0.07997135800603372 -1.7821263024718756 88 64 31
-0.3008452200690996 -0.07985709202201483 -1.7890870161507173 85 63 31
-0.3027432306330225 -0.07996056176522251 -1.7935309718527177 89 71 39
-0.304343809722181 -0.08004747925807043 -1.798168745016221 79 59 27
-0.306802919584144 -0.08018217380355835 -1.8022489906087042 81 59 28
-0.306348231628294 -0.08015471210295104 -1.8082320551133952 85 62 31
-0.30293129411332326 -0.07996239089529003 -1.8161676699400031 81 58 27
-0.288935353106557 -0.07918130844911964 -1.83108386498398 81 58 28
-0.3210120020556915 -0.08096431220001987 -1.815668274639032 80 57 26
-0.3105747457938041 -0.08038127241048591 -1.828266573489547 80 57 26
-0.3157367475786881 -0.08066639432829673 -1.830559896683172 81 58 28
-0.3192165751692685 -0.08085789790265105 -1.8339606707479756 75 52 27
-0.3217551662345692 -0.08099701744248891 -1.837984340753156 61 40 17
-0.32046291110175407 -0.08092292182776517 -1.8445731957847453 59 38 19
-0.32120889678754205 -0.08096226624442876 -1.849805829004502 53 33 16
-0.3140032102142902 -0.08055902459191883 -1.8604057452265823 53 35 15
-0.33161370818779645 -0.08153703777346347 -1.8542589541686747 51 34 13
-0.33287840223928555 -0.08160525475978192 -1.859137450746309 53 36 14
-0.33388701474904775 -0.08165921658255468 -1.8641935268693504 54 38 16
-0.33642664875571504 -0.08179839708856187 -1.8682088072156045 55 38 16
-0.3369404190758163 -0.08182481230091847 -1.8736092879466781 50 32 11
-0.33829061962416906 -0.0818977841113871 -1.8784417276125467 53 33 12
-0.3379047023022071 -0.08187411413820952 -1.8844732689514394 54 33 13
-0.34010271512925505 -0.08199427628612195 -1.8887294046924488 72 51 24
-0.3430080813923066 -0.08215381448113188 -1.8924946158198486 76 55 24
-0.34879684129370925 -0.08247386450436915 -1.894251402115291 75 54 25
-0.3542443749714634 -0.08277492514170498 -1.8962303596214387 71 52 21
-0.363481870170924 -0.08328697390632744 -1.8955436773228094 67 47 17
-0.36167629441799526 -0.08318427068830483 -1.9025750336878602 75 55 25
-0.3562293844548829 -0.0828788466189026 -1.9121855305408983 73 52 23
-0.35551332010500103 -0.08283678245246079 -1.9184883414113811 81 59 30
-0.3466271099194523 -0.0823398650647503 -1.9305879262208454 80 58 28
-0.3520296116962373 -0.08263842334564378 -1.9325864848329315 76 55 24
-0.35207106469747407 -0.08263851779259457 -1.9383896293269953 71 49 20
-0.3621467735698951 -0.08319726095559042 -1.9370321567898263 69 48 21
-0.3631264942638373 -0.08324959532723886 -1.9421587177950093 69 49 22
-0.3643000642740235 -0.08331272071632922 -1.9471505796264552 68 48 21
-0.36765142362687997 -0.08349709728455312 -1.95057621751712 70 49 22
-0.3691719588633802 -0.0835795398028154 -1.9553201274703709 72 51 24
-0.3690407361924698 -0.08357001392431375 -1.9612642924638073 67 46 19
-0.37083680065183794 -0.08366779462078797 -1.9658160029952623 68 47 20
-0.37128954277081433 -0.08369077841113773 -1.971348914845607 70 49 22
-0.3744781180319645 -0.08386609357391929 -1.9748868674771098 70 49 22
-0.37716458563607347 -0.08401345230733048 -1.9787884291139894 70 49 21
-0.3788500837566781 -0.0841050754055399 -1.9834240769398825 71 49 20
-0.3833090075363073 -0.08435113196548669 -1.9860138067736857 70 48 20
-0.3811309827423476 -0.08422761839310894 -1.993507450607034 71 49 20
-0.37985785837711 -0.08415448732481712 -2.000347601385819 70 49 22
-0.37906843497065457 -0.08410828608599313 -2.0068420811791206 66 45 18
-0.3858203083374129 -0.08448203103551663 -2.0077155216862916 68 47 20
-0.38634422593813567 -0.08450896346749201 -2.013234515908665 69 48 19
-0.386691177065133 -0.08452603833169557 -2.01889325925766 91 73 38
-0.3873408415713173 -0.08455996823179784 -2.024331437257674 82 65 26
-0.39046349572610284 -0.08473161698766185 -2.0279066954350093 94 71 28
-0.3966918682833015 -0.0850762281216228 -2.0291230163484966 132 108 64
-0.40562729767296807 -0.08557160726169713 -2.028262852030635 126 104 68
-0.4118217802699726 -0.08591434725054675 -2.029462117531183 107 86 51
-0.42035287221205 -0.08638722825124209 -2.028856221446881 81 58 24
-0.4159055969672771 -0.08613729804845652 -2.038174861717759 75 52 21
-0.43611797056223883 -0.08726078159717263 -2.0285555964559485 79 56 24
-0.4133161696145088 -0.0859885752738634 -2.052035402918927 79 56 24
-0.4168986660990398 -0.08618585095766629 -2.0552150629579184 78 55 23
-0.41719754394094416 -0.08620023899192941 -2.060935492764906 74 51 20
-0.41544777773021807 -0.08610051738649477 -2.068257832774342 73 50 18
-0.41225953842621 -0.08592066710019544 -2.0767197591610698 91 67 34
-0.4155618812376005 -0.08610233538942844 -2.0801258925116333 97 74 43
-0.419860516163199 -0.08633950043582295 -2.0827445408427727 82 64 27
-0.42063123358149135 -0.08638015711867297 -2.0881298945278655 122 98 48
-0.4226547768823689 -0.08649059760978199 -2.0925321783605906 163 134 84
-0.4274771030230559 -0.08675694073059088 -2.0947191153048097 191 159 112
-0.43052724614120463 -0.08692456982781635 -2.0983004456699783 143 116 74
-0.43401575534516185 -0.08711662001447701 -2.1015282949031455 91 71 33
-0.4374297048112885 -0.08730451921164523 -2.104809190752223 74 53 19
-0.4403099679541711 -0.08746269057664291 -2.1085112448601335 75 54 21
-0.44372966274406794 -0.08765091405266918 -2.1117764122285387 81 58 22
-0.44628944864576153 -0.08779123528305535 -2.1157278110466113 86 62 24
-0.44884825920319027 -0.08793150304764584 -2.1196777037477355 90 67 28
-0.45140723856417425 -0.08807178108717975 -2.1236251650785096 88 65 24
-0.4532641315216061 -0.08817294568782079 -2.1281405060503658 89 65 25
-0.4551297123611641 -0.08827459396223528 -2.1326496912661708 89 64 24
-0.4574751992842308 -0.08840297904451783 -2.136767808852804 89 65 24
-0.4589725575536948 -0.08848411185881389 -2.1415792380925174 91 67 26
-0.4634021984471867 -0.08872861591193684 -2.143984866460891 91 69 28
-0.46426553363233575 -0.08877442416254433 -2.1493169022134944 92 70 29
-0.46952159704747937 -0.08906497902450028 -2.1510262325526677 93 71 30
-0.4727647467799033 -0.08924338466191516 -2.154387981536953 94 72 31
-0.4729789839996038 -0.08925302578378252 -2.1602600348307326 95 73 33
-0.47461927613755006 -0.08934212262900354 -2.1649528398041364 96 74 33
-0.47749063242778006 -0.0894998140258279 -2.1686193156574927 99 77 36
-0.4792995037971225 -0.08959830393142981 -2.173171913161557 103 81 38
-0.4821976088811116 -0.08975748778006115 -2.1768107749956753 95 72 31
-0.4824778259930461 -0.08977079661380258 -2.1826506665402157 93 70 29
-0.48451106074518824 -0.08988178721421032 -2.187018244023601 95 72 33
-0.49200687674339727 -0.09029717880020452 -2.1867592922275985 88 66 28
-0.49162036150221344 -0.09027333205255596 -2.193169370065698 82 60 20
-0.49286104502902206 -0.09034015911314916 -2.198205086847341 83 61 20
-0.4917326803249246 -0.09027496372162208 -2.2052678923415208 81 59 18
-0.49810613482088073 -0.09062782654334063 -2.2059211763534536 83 61 19
-0.5058040177172021 -0.0910545065073031 -2.2054166400881634 88 66 22
-0.5115000764083907 -0.09136963469388695 -2.206609180851347 104 82 37
-0.5139397157362757 -0.09150328582373968 -2.2105963595971603 106 85 40
-0.5176950621098737 -0.09171026457326212 -2.2134423995170303 111 90 46
-0.5222673478164122 -0.09196277676932217 -2.2155709595546913 103 82 36
-0.5235937022434872 -0.0920343856200792 -2.2205135618041227 95 74 29
-0.5268159685325942 -0.09221166117262913 -2.223804351253856 92 74 27
-0.5285832682424235 -0.09230784548297569 -2.2283632364011265 90 72 25
-0.530888069442395 -0.09243398773407797 -2.2324515918741645 88 70 22
-0.532735482623807 -0.09253463685188983 -2.236941296520331 93 75 26
-0.5364079292617221 -0.09273700987990574 -2.239821062483484 97 79 32
-0.5423691402776583 -0.09306695982129776 -2.240667268623135 96 80 33
-0.5413807755416931 -0.09300954668122838 -2.2476621283148828 98 82 41
-0.5396239482279999 -0.0929092930810656 -2.2553554635543773 95 81 53
-0.5482827001297015 -0.0933896173810877 -2.253773210230646 86 79 61
-0.5531359507848392 -0.0936578242308797 -2.2555637981321346 118 115 102
-0.56308504061756 -0.09421009776014178 -2.252768878154104 154 153 148
-0.5698923245228091 -0.09458724677201563 -2.252761821066894 179 179 179
-0.5757346644697292 -0.09491061318722332 -2.25360188916335 192 192 193
-0.5801817614386584 -0.0951562066455881 -2.25568528822946 199 199 201
-0.5940477876186128 -0.09592688646809791 -2.2492145741822696 204 204 206
-0.6202473966506896 -0.09738516631883695 -2.231470018194331 207 207 209
-0.6258528915285071 -0.09769538228081849 -2.232385038299013 209 209 211
-0.6381770181121676 -0.09838017074124297 -2.227139570735855 210 210 210
-0.5301042372798213 -0.09235270193393394 -2.3322162294199265 211 211 211
-0.5339733005417977 -0.09256602829241214 -2.334937593110994 211 211 211
-0.5565605722881988 -0.09382295635327505 -2.3203979393931404 212 212 212
-2.342759985101059 -0.1933325340281753 -0.8759385888450901 215 215 215
-2.3448962586372426 -0.1934510435055339 -0.8755360225975395 215 215 215
-2.348478640792556 -0.19365033539310622 -0.8733859473076798 215 215 215
-0.2851435633540628 -0.07593168160757563 -0.025797151416005387 177 177 177
0.19039177054401818 -0.04774459561869531 -1.2270735853754804 188 189 191
0.19915788433663045 -0.04723847236806496 -1.2358270492988943 188 189 191
0.17993677532461994 -0.04833075352712463 -1.2339895423491338 189 189 191
0.15667280057574867 -0.04965399991706827 -1.2305532494506113 187 187 190
0.13405646462560178 -0.050940326345313536 -1.2272945585484756 184 180 175
0.1145079680513319 -0.052051491950230004 -1.2251477264857729 133 119 98
0.10027300357207863 -0.0528592074129868 -1.2249958089728212 144 121 90
0.08689112531462279 -0.05361823404406433 -1.2251343681525835 148 123 90
0.07395740431546177 -0.054351698500317625 -1.225409791950327 142 119 88
0.060304076426374476 -0.05512630717516486 -1.225367137777948 135 114 87
0.040696576244359906 -0.05624109753550599 -1.2229447725657807 125 106 80
0.02346945193659772 -0.057219960161145916 -1.221403196445929 125 106 79
0.00932861510343086 -0.05802255418703784 -1.2210342603641275 118 103 80
-0.006481862148624562 -0.05892057893946498 -1.2199596698096697 108 96 78
-0.02434623288633314 -0.05993599679101513 -1.2180171937620834 113 101 86
-0.04136468708873159 -0.06090313692991161 -1.2163608481007233 121 108 91
-0.05708712342290545 -0.061796277694313465 -1.2151763594855882 130 116 100
-0.06773784694768342 -0.06239967425550353 -1.2159993881859263 121 105 91
-0.08282310699461498 -0.06325649158140284 -1.2149895464892135 115 98 80
-0.09127215459166221 -0.06373414645497869 -1.2166454572194674 131 111 88
-0.0852187530545066 -0.0633830977316275 -1.2242270855855713 96 78 54
-0.07736227573083687 -0.06292898342625661 -1.232578870609177 89 74 60
-0.06664184852358102 -0.062311168076659214 -1.2421488411523274 90 78 63
-0.06471749760498557 -0.06219599580902619 -1.2481099549278807 65 53 38
-0.0671190099834077 -0.06232803614843328 -1.2522809312043965 71 61 49
-0.059175052755564395 -0.06186880852510261 -1.2607821921263724 85 79 64
-0.05467700715609208 -0.061606494638557247 -1.2678691428935271 79 67 53
-0.043353291562694074 -0.06095403040157036 -1.2778600081666398 69 54 40
-0.045481234267416126 -0.061070385294515715 -1.2821954437279321 71 59 43
-0.04505103633201535 -0.06104051857033212 -1.2876193661215285 68 59 44
-0.050371817328263624 -0.06133937582734705 -1.2905944127041824 76 66 51
-0.045809939975471725 -0.06107332291838425 -1.2977983482914153 75 60 40
-0.03589131316514976 -0.0605010300959599 -1.3073329019481328 94 77 49
-0.04080476769356989 -0.06077659217288801 -1.3104938492983609 98 78 50
-0.048591025282424705 -0.06121639707381975 -1.3123973499980137 89 69 43
-0.044780815274552244 -0.06099325293283822 -1.3193371065705315 86 69 43
-0.04754015148506374 -0.06114568009156811 -1.323421530362266 82 65 38
-0.05677461598491018 -0.06166831499041386 -1.3246577170798626 87 71 47
-0.06240605607780403 -0.06198497150253304 -1.3274586786443938 91 75 50
-0.07718035899470538 -0.06282440170365378 -1.326196812775184 91 75 49
-0.07993610194058831 -0.06297667084890737 -1.330235713766581 84 68 43
-0.0988763423045107 -0.06405438007864891 -1.327045499661061 101 85 61
-0.08078879508514425 -0.06301481623506869 -1.3403945600572755 90 73 49
-0.08262626465075035 -0.06311457397558495 -1.3448475343867168 74 55 31
-0.08446381959259586 -0.06321433581620331 -1.3493012470112942 77 58 33
-0.08680884475666739 -0.06334311787672121 -1.3535255644170063 139 113 82
-0.08930332995609208 -0.06348044848701406 -1.357680810747981 146 118 82
-0.09742038947840997 -0.0639393422268221 -1.3592643666971684 141 112 80
-0.10022685320752922 -0.06409452897400589 -1.3632633761834798 144 117 88
-0.10721198036627622 -0.06448871598230288 -1.3653347565829577 121 94 66
-0.11153472421233634 -0.06473064157277705 -1.3686197824711537 140 117 80
-0.11276726411165883 -0.06479582083089748 -1.3733312514682972 143 118 79
-0.11468167151026676 -0.0649000000637421 -1.37772787414593 143 115 75
-0.1143728680408449 -0.06487700688510015 -1.3831649790177551 142 113 76
-0.11975396217820383 -0.06517948853013848 -1.3859386412149974 128 98 60
-0.12577097825229255 -0.06551836044040903 -1.3884006112904486 173 141 95
-0.128930514100906 -0.06569377787249597 -1.3922004080922474 177 142 89
-0.13205643594144956 -0.06586727630811312 -1.39601216585514 170 137 81
-0.13676682078151076 -0.0661314272978373 -1.3990646177576138 186 157 98
-0.1417825655559421 -0.06641305844845324 -1.401961326480002 151 129 82
-0.14618227929610333 -0.06665945444544287 -1.4051432268822437 104 85 47
-0.14874686835906292 -0.06680085980000627 -1.4092014518477383 146 121 81
-0.14944112136910437 -0.06683524977024222 -1.4141629843940464 140 115 71
-0.15131840918407996 -0.06693732814592906 -1.4185546703711784 157 127 87
-0.15620856564067914 -0.06721180791710044 -1.4214778370162575 141 111 74
-0.15962222052061303 -0.06740180723452786 -1.4251132822549761 156 129 91
-0.15944931665377776 -0.0673865688612329 -1.4305055978775347 160 131 90
-0.1629875188092555 -0.06758369921248787 -1.4340761358132716 174 142 100
-0.16334488495332666 -0.06759879836578324 -1.4392153651449893 149 121 81
-0.17175249822994254 -0.06807461538303602 -1.4403620257645955 140 117 83
-0.18250499060089553 -0.06868466006188478 -1.4403163471641383 98 78 50
-0.1844528621244672 -0.0687908068161883 -1.4446443701896645 124 100 67
-0.20025697815201265 -0.0696900372746945 -1.4420138898271184 124 99 63
-0.19214761918245327 -0.06922054903220615 -1.4513863900204476 142 114 76
-0.19615769864225135 -0.06944474330314784 -1.4546650438115791 131 101 62
-0.19522564051221314 -0.06938604644394383 -1.4604456635153449 125 97 57
-0.20253623422617817 -0.06979918089050663 -1.4620369198915286 110 82 42
-0.21926530360619134 -0.07075150364935982 -1.4587918100012205 115 87 48
-0.1545176778291555 -0.0670395267330744 -1.4973121717745455 114 87 53
-0.21195588278483019 -0.07032238806075203 -1.4731386849783585 84 59 30
-0.2168434091607399 -0.07059685392856237 -1.4759274717646271 116 90 39
-0.2176454021133219 -0.07063742018894029 -1.480825336860959 114 78 36
-0.21928428821520318 -0.07072589837443818 -1.48529195167167 121 92 46
-0.21063262700751495 -0.0702251685937096 -1.4951374391172967 96 71 29
-0.219619851956051 -0.07073438272852853 -1.4957723974276143 94 70 29
-0.21537748365287923 -0.07048608562470537 -1.5033440398750222 94 71 30
-0.22604110205098993 -0.07109132210835255 -1.5030662504468388 84 62 23
-0.22791645039961062 -0.07119333445297049 -1.5074142401441852 84 62 27
-0.22937081164348683 -0.07127123780362103 -1.5119866990163993 78 55 23
-0.2428129729797095 -0.07203566087103071 -1.5101622286189045 64 40 12
-0.2727253345753025 -0.07374338005830473 -1.499472039289176 70 47 16
-0.2938717066947706 -0.07494915788770293 -1.4933889733822003 74 51 20
-0.31675000864311015 -0.07625420317043718 -1.4862993295497922 79 55 29
-0.33989132470864986 -0.07757439237363825 -1.4789883172550065 106 83 45
-0.3441746507227577 -0.07781451665598058 -1.4818414106307727 92 68 34
-0.3368946186908305 -0.07739230319339586 -1.4909891483911668 74 50 20
-0.31587179157906026 -0.0761828438720801 -1.5076895493083051 82 59 28
-0.2994475965747027 -0.07523672286561178 -1.5219529740024418 78 56 26
-0.2494846092100364 -0.07236924403837544 -1.554760517451904 72 51 23
-0.24902334821120342 -0.07233739322446328 -1.560404779199612 69 48 21
-0.2550713169843353 -0.07267844252104985 -1.5624482145472471 67 44 17
-0.2619813179288323 -0.07306889425167083 -1.563996489597215 77 53 21
-0.26486247129451573 -0.07322853919685252 -1.5677760207734266 97 74 33
-0.2710266883282046 -0.073576291102771 -1.5697124519847259 97 73 29
-0.27513246220594584 -0.07380611626817749 -1.5727904221943596 112 87 49
-0.2862174043796472 -0.07443584901518026 -1.571922507168282 81 57 25
-0.2905845164516861 -0.07468067886993776 -1.574822961976719 81 58 27
-0.2849413618333691 -0.07435190064013708 -1.5834009298871932 111 88 55
-0.28675819511018447 -0.07445058609449809 -1.5877561468423897 101 78 44
-0.2865764313916255 -0.07443473763887579 -1.5932551837901343 146 122 85
-0.28981345826146315 -0.07461480721303802 -1.5968007223659149 116 91 50
-0.2954175977507577 -0.0749305424347014 -1.5989784699076317 116 93 53
-0.2989414709119014 -0.07512706615831935 -1.6023441466831057 131 111 82
-0.30190255707899505 -0.07529133991700984 -1.6060301677198796 105 88 63
-0.30471859633956827 -0.07544730383848908 -1.609796828569003 110 94 71
-0.30696665175475835 -0.07557071495500939 -1.6138917968665671 116 101 72
-0.3146750354021837 -0.07600711573277033 -1.6147884814080766 141 123 87
-0.3117482007054539 -0.07583390209847188 -1.621911160029098 148 124 92
-0.32914425762340416 -0.07682566727039808 -1.6170733946675115 162 141 113
-0.3415398100422536 -0.07753083228868202 -1.6151326950887424 104 85 62
-0.35470320209030837 -0.07828005747116182 -1.6126954856137663 137 120 93
-0.3461244931396404 -0.07778284432725024 -1.6231587380557102 137 116 87
-0.3546016381309926 -0.07826344150036887 -1.6234755442836002 127 109 80
-0.3607195170486801 -0.07860879751995843 -1.6251806483112323 157 137 110
-0.35983462647143255 -0.07855265693637492 -1.6310800342934726 133 110 82
-0.3651578824312784 -0.07885246963775118 -1.6332456073304253 95 75 43
-0.3676815567266454 -0.07899176680071746 -1.6370923455036501 95 76 43
-0.36829391416939944 -0.07902146683040415 -1.6420975085788896 99 80 49
-0.3440976292004808 -0.07762852686526531 -1.6622218641071247 72 56 30
-0.3386698589512713 -0.07731178719099786 -1.670978996452154 70 52 28
-0.32444904346247644 -0.0764907513236806 -1.6851575919647164 98 79 48
-0.31573707429452724 -0.07598558442649757 -1.6960119360207704 97 77 45
-0.30055239687639307 -0.07510914935791302 -1.7109040631761947 100 80 48
-0.29880953682613054 -0.07500359178544481 -1.717541972142949 101 81 44
-0.2979188926376773 -0.0749468989884968 -1.723665622415707 108 86 50
-0.3043159028651331 -0.07530820257299482 -1.7252593008672858 110 88 50
-0.3103936456307623 -0.07565121049331636 -1.7270350580669438 105 83 44
-0.31484308920726184 -0.07590083157407436 -1.7298158506085304 103 81 44
-0.27421348892710906 -0.07356452636001519 -1.7609528142930961 105 84 47
-0.2660055906538597 -0.07308796780502858 -1.771795298666758 86 65 32
-0.2523264498605867 -0.07229749015038195 -1.7861442097230062 53 32 3
-0.26417402051714084 -0.07297143086444127 -1.7843393759889639 70 50 19
-0.26608862559271046 -0.07307553105501685 -1.788825639190026 95 73 39
-0.3051446287894447 -0.07531060651457135 -1.769565201419113 89 66 32
-0.30432844248809854 -0.07525809761611177 -1.7757287427707562 86 63 29
-0.30389882410954566 -0.07522775777270871 -1.7816552089617788 78 55 21
-0.30566082291784036 -0.07532316457874466 -1.7861771191384181 82 61 29
-0.30667502870600744 -0.07537565967408781 -1.7911844244973865 108 89 56
-0.30648317212595455 -0.07535894066702019 -1.7969794015350598 75 56 24
-0.30863751740003975 -0.07547685393608158 -1.8012547160286678 75 53 22
-0.310199982088536 -0.07556080014239282 -1.8059165120665688 84 61 30
-0.3089807500503117 -0.07548509953184462 -1.8124043844599265 82 59 27
-0.3158760522222867 -0.07587510467728306 -1.8135680137820416 82 59 28
-0.3137237648313713 -0.0757458407591402 -1.82068181145746 81 58 27
-0.3114141239098557 -0.07560752768097444 -1.8279171248050046 79 56 24
-0.32445692478881716 -0.07635041839643034 -1.8249765950360834 76 53 23
-0.31802116673944647 -0.07597525542045294 -1.8349645033687216 70 47 20
-0.3223332751384091 -0.07621702366142928 -1.8378065648474118 67 45 20
-0.32475327721791986 -0.07635018359378248 -1.8419073680930493 66 45 22
-0.32581658162511673 -0.07640545999518449 -1.8469187487615257 55 35 15
-0.323890307227796 -0.07628910074856207 -1.8539503627957885 56 37 16
-0.31970045750507314 -0.07604276833166376 -1.86252981807294 55 37 16
-0.3207727696055331 -0.07609853206464326 -1.8675647201344077 52 35 14
-0.3181832686064677 -0.07594404409896738 -1.8750961684089815 52 35 14
-0.3082979646486519 -0.07537062355051044 -1.887628280305343 53 35 15
-0.33656399492780237 -0.076987819665847 -1.8740829126716838 54 34 15
-0.3376972669337361 -0.0770470937488964 -1.8790661308735082 53 32 13
-0.3384442670370643 -0.07708418237432996 -1.8843193936763525 57 35 15
-0.33718191431170896 -0.07700587469611078 -1.8909669602326853 70 48 22
-0.33911205808742695 -0.07711089461233894 -1.8954152831747315 77 56 25
-0.34531962080925516 -0.07746157075030616 -1.8968896983518657 76 55 26
-0.3570376615569921 -0.07812874901637044 -1.8945029625762524 72 53 23
-0.3549224933351124 -0.07800145342538044 -1.9017532988773094 70 51 21
-0.3535147728909219 -0.07791477403720018 -1.9085248798875316 70 51 21
-0.3578577869971086 -0.0781583998671 -1.9112633732349351 69 48 20
-0.35565311117501924 -0.07802592460148358 -1.9186148413486046 78 57 28
-0.34796880279905296 -0.07757865945544001 -1.9298648474913662 78 57 26
-0.3513013441173062 -0.07776422713531944 -1.933331444609625 74 53 23
-0.35383466822098747 -0.07790388667008954 -1.9373619900045376 71 50 21
-0.3593548796862482 -0.07821514607054916 -1.9392561944191 71 51 23
-0.3585200331065739 -0.07816130613568066 -1.9456902978977406 68 48 21
-0.36404244670863023 -0.0784727082324921 -1.9475668564745432 67 46 19
-0.3617601754061885 -0.07833569246892028 -1.955055815229087 66 44 18
-0.3747835781733675 -0.07907810740966655 -1.9514948521370448 67 46 20
-0.3702390153419085 -0.07881109312134929 -1.9606291672767922 65 43 17
-0.36403579269684216 -0.07844873783508577 -1.970998708058472 67 45 19
-0.3785143292758475 -0.07927483599029488 -1.9663133257198007 68 47 21
-0.37693658612931175 -0.07917826971797899 -1.973324600570048 65 43 17
-0.37710617167274935 -0.07918210645520371 -1.9790691210170481 68 47 20
-0.3794873514106465 -0.07931303999381942 -1.983193727587513 69 48 21
-0.382273421147869 -0.07946724572894087 -1.987017980579791 70 49 21
-0.3750231960898644 -0.07904460306649383 -1.9982714215365105 72 51 23
-0.37678165982071243 -0.07913972758197424 -2.002874516088388 70 49 22
-0.379263148257631 -0.07927641088765269 -2.0069403633386105 66 45 18
-0.38394758792343076 -0.079539728630657 -2.0093585283322324 68 47 20
-0.38785460607871636 -0.07975836758501251 -2.0123477265878424 72 51 22
-0.3889168473723057 -0.07981347533005823 -2.0174667125893624 90 71 36
-0.3923324609390018 -0.08000387355788718 -2.020816330133197 85 67 32
-0.39325034375647117 -0.08005067817331943 -2.026048082810588 79 58 16
-0.40007517037501966 -0.08043709304331875 -2.026806629547285 109 87 40
-0.410385436443245 -0.08102392966207128 -2.024893942868302 126 105 69
-0.41970005336067173 -0.0815535545639677 -2.0237039226062485 109 88 54
-0.4273546334307017 -0.08198775822812136 -2.023751232933248 86 63 27
-0.4235267514543821 -0.08176170874431017 -2.032580795977349 77 54 21
-0.42862767868098905 -0.08204908800411402 -2.034568124195439 81 58 26
-0.4226899617261938 -0.08170167411156581 -2.045057824996916 80 57 25
-0.41496896571436714 -0.08125166803308839 -2.056962937730875 78 55 23
-0.4196750490010079 -0.08151632642226803 -2.059269088796131 76 53 21
-0.41692376072673015 -0.08135209017436437 -2.0673665890787665 72 49 17
-0.41854738756234966 -0.08143946288446302 -2.0720713701902738 88 63 31
-0.4216630008157382 -0.08161265112979815 -2.075610377433346 99 77 45
-0.42197814342094736 -0.08162475762079813 -2.081342811874819 92 73 39
-0.4237563708335166 -0.08172101794920378 -2.0859314048435005 115 91 41
-0.4246216502967067 -0.081764758940301 -2.0912420037076966 156 128 77
-0.4279545050288899 -0.08195044928941253 -2.094604427879159 180 148 101
-0.4313606942681712 -0.08214036438793773 -2.0979028757603606 160 134 91
-0.4347161537199915 -0.0823273670076178 -2.1012356197037723 96 76 37
-0.43898129104266803 -0.08256671378595207 -2.103836092430792 78 58 23
-0.44168791000200297 -0.08271639787817892 -2.107674575509355 75 55 22
-0.44444127566535296 -0.08286877472554771 -2.111472564876181 82 60 24
-0.44664820030442426 -0.08298971156755901 -2.1157074595121728 84 60 22
-0.4488806411324005 -0.08311211740154004 -2.119921065145737 89 65 25
-0.4514600546749906 -0.08325449107467006 -2.1238528468784743 90 67 26
-0.45403865078674766 -0.08339682011577706 -2.1277828989273786 89 65 24
-0.45648151640628964 -0.08353134013870094 -2.131821111269381 89 64 24
-0.45738157452413686 -0.08357706820817357 -2.1371177524529874 89 64 24
-0.4623157493065255 -0.08385497720521823 -2.1391152554448913 90 65 25
-0.4622513228715447 -0.08384519010305587 -2.1452055260929384 90 68 27
-0.46713409792895094 -0.0841201556571402 -2.147230331169168 93 71 30
-0.47083405518904725 -0.0843270482553099 -2.150219135132046 90 68 27
-0.4736651482719395 -0.08448393237858565 -2.153920063048874 92 70 29
-0.4711637148643114 -0.08433384081529838 -2.162047169388562 96 74 33
-0.4739929695290521 -0.0844906138923034 -2.165754802353026 88 66 25
-0.4741304632564208 -0.08449242047602284 -2.1717074478114395 89 67 26
-0.4790470773249828 -0.08476937289754574 -2.173665561772819 94 72 31
-0.4845001985534335 -0.08507722910798149 -2.17515961637674 90 68 27
-0.4865109322500791 -0.08518689181928088 -2.17953756756514 89 67 26
-0.4838366471127531 -0.0850267841721633 -2.1878732877676166 92 70 30
-0.49047331598090704 -0.08540281438861266 -2.188344105181292 86 64 26
-0.4952551593110436 -0.08567205398966901 -2.190368914433532 83 61 22
-0.4930761524553491 -0.08554044124600164 -2.1983100315196715 85 63 23
-0.49967300463144426 -0.08591421828893785 -2.1987752239017264 87 66 24
-0.5002125791715467 -0.08593915828481508 -2.2044070729286442 88 67 24
-0.5058597358681651 -0.08625826582502916 -2.2056592690062526 93 72 25
-0.5102462546465352 -0.08650478021128491 -2.207980136210238 101 80 33
-0.514784567309426 -0.08676004918240088 -2.210158801305803 107 86 40
-0.5194645775179814 -0.08702349227803752 -2.2122028976652266 111 90 45
-0.521176161415074 -0.08711595101922907 -2.2168121882476868 106 85 40
-0.5225568773141801 -0.08718934763387955 -2.221711171282426 99 78 33
-0.5274559255869258 -0.08746543247643392 -2.2235412208598504 94 75 30
-0.5299195095967747 -0.08760121792284345 -2.2274899976011673 99 78 33
-0.5324012282505378 -0.08773805023611704 -2.231420825714908 94 75 27
-0.5381673682005785 -0.08806412425754268 -2.2324580465470825 93 75 26
-0.5411923044834195 -0.08823226886419791 -2.2358971917332346 97 79 32
-0.5473686053226963 -0.08858200674695069 -2.2365420489777375 95 79 33
-0.5497354359236177 -0.08871224552998966 -2.240548185810071 96 81 39
-0.5504560896552955 -0.08874762163559169 -2.2460178275131044 93 79 52
-0.5510991519380036 -0.08877851978673384 -2.25156307045916 81 75 58
-0.5562270735122354 -0.08906788220281989 -2.2531017401561693 113 110 96
-0.5684687056183078 -0.08976725395995108 -2.24824232384071 152 151 146
-0.5716310266995529 -0.08994337314774775 -2.2515020856209396 178 178 178
-0.5863507251655766 -0.09078565674180039 -2.244329692302291 190 191 193
-0.5944036884916843 -0.09124372060468187 -2.2431260472720864 199 199 201
-0.5986539619921547 -0.09148261122458848 -2.2453420826650765 204 203 206
-0.619652096620085 -0.09268697113349275 -2.2323150185607923 207 207 209
-0.6275261416554563 -0.0931348325358379 -2.231163279688525 208 208 210
-0.6561191501597543 -0.09477720449856084 -2.21103707030454 209 209 209
-0.5389954973550428 -0.08801854816111972 -2.3243828238079063 210 210 210
-0.5441889579938671 -0.08831168498783884 -2.3258655581722025 211 211 211
-0.5617614620561735 -0.08931860126136226 -2.315921794260781 212 212 212
-2.346214674512853 -0.19200616094664158 -0.8719433628670683 215 215 215
-2.347521851451867 -0.19207973229115977 -0.8725253564574068 215 215 215
-2.3510500544567305 -0.19228199765778495 -0.8704325448536326 215 215 215
-0.2907424285655986 -0.07253134194568087 -0.025680063208185 177 177 177
0.19944099879297755 -0.04211147445750831 -1.2251187701819792 187 188 190
0.18459439306840353 -0.042973680634604314 -1.2249781721837918 188 189 191
0.18958175489630447 -0.04267216252418306 -1.2322943539625986 188 189 192
0.16779215182510132 -0.04394186419287031 -1.2294658001280596 189 188 190
0.14626251065896434 -0.04519641771278723 -1.2266709386997658 191 188 187
0.12375880171615578 -0.0465082401470971 -1.2234381930062344 148 137 122
0.11008047795613174 -0.047302232416922316 -1.2235330517818919 142 121 86
0.09612996079185882 -0.04811226303761456 -1.2234840538427727 155 128 93
0.08367062287902338 -0.04883483643580004 -1.2239741541958973 158 132 99
0.0702236265257627 -0.04961543811834275 -1.2240445343728101 143 118 86
0.058504900710812546 -0.050294654923370624 -1.2247533840352194 139 117 88
0.03738642532639508 -0.05152570335289488 -1.2217341574280591 134 113 87
0.02092038862131268 -0.05248373903124452 -1.2204878197607867 124 105 79
0.00463235024930625 -0.05343140435424816 -1.2192634974440322 122 106 84
-0.01059051297301461 -0.054316612110870764 -1.2184153042374304 114 102 83
-0.028629890133786917 -0.05536725720556047 -1.2163961404805517 118 106 91
-0.04550431686799339 -0.05634959052637 -1.2147906558697248 124 110 97
-0.05969589058275099 -0.057174474300100656 -1.2142168906978728 130 116 100
-0.0721853439034345 -0.057899475730561534 -1.2142912082907709 117 101 84
-0.08785083688439871 -0.058811043827507715 -1.2130381153724297 101 85 65
-0.09252189632914665 -0.05907702465744132 -1.2162290530477535 120 100 73
-0.10291810875805696 -0.059679253789085694 -1.2170627838967925 112 92 63
-0.0900581247345808 -0.05891564756964678 -1.2274460738716295 106 90 71
-0.07927567340855546 -0.05827398149232289 -1.2370211001926315 93 80 64
-0.07461932288205186 -0.05799207590981718 -1.2440959725754372 82 69 56
-0.07888583038646069 -0.05823426483159025 -1.2474729695616238 63 51 37
-0.07616477768812907 -0.05806599473556538 -1.253768130924529 75 65 50
-0.06644269175152046 -0.05748641516497665 -1.2630232010646212 65 50 36
-0.056576880486211456 -0.05689832562201126 -1.2723794990354138 64 48 33
-0.0598444481301183 -0.05708177642562108 -1.2762097740334806 76 64 47
-0.05904909070990688 -0.05702651909267808 -1.281765122532741 82 72 57
-0.05839002226273221 -0.056979253614185675 -1.2872720885190547 61 53 39
-0.0545002204458534 -0.05674213444287632 -1.2941747299753956 51 39 22
-0.04887499709571058 -0.05640300300851124 -1.3018456766338096 69 52 27
-0.04937878942517987 -0.0564240044672219 -1.3068921667397688 100 80 51
-0.049889742316211405 -0.05644541785517034 -1.3119409845720404 87 66 39
-0.04959663610566156 -0.056419566616094916 -1.3173458326000465 88 69 43
-0.05487807196554173 -0.05672134202855298 -1.3203184375220356 102 83 53
-0.07093012611610006 -0.05765620272120052 -1.318545706708166 92 73 43
-0.06766671374314487 -0.057455778877421475 -1.3252477295627378 96 78 50
-0.07842207044340427 -0.058079388989533756 -1.3257575009944096 96 79 51
-0.08239689064801214 -0.058304449670135705 -1.329252717462685 90 73 46
-0.08782078610025235 -0.05861471059911485 -1.332094095509603 102 85 59
-0.08730870550257436 -0.05857600564550891 -1.3375847964342091 94 76 50
-0.0879873834924263 -0.058607295902818504 -1.3425486008477912 75 57 32
-0.09012969839680285 -0.05872463615899072 -1.3468559253558865 60 41 18
-0.09153935149123393 -0.058798896255343173 -1.3514952809446958 142 117 85
-0.09302665167690943 -0.058877718512340055 -1.356101559346134 144 116 77
-0.08953506811347006 -0.05866374925432046 -1.362985948438113 149 122 85
-0.1060613009271475 -0.059626973550142175 -1.3607033449984294 151 124 93
-0.11389000694162699 -0.060078764651301506 -1.3623762943601245 128 101 72
-0.12185042564099297 -0.06053833601459794 -1.3639677599998123 140 116 77
-0.11361718555818984 -0.060045469310497646 -1.373056266725241 180 153 107
-0.11565441001428606 -0.06015665694714412 -1.3773949124615137 179 148 97
-0.11836836750851859 -0.06030765229962636 -1.3814169977215598 179 148 95
-0.1215812589051748 -0.060488002024711135 -1.3852023886807467 171 141 92
-0.12721530787317475 -0.06081079361201105 -1.387842232338653 163 135 87
-0.13266909648830488 -0.061123001117928344 -1.3905545039708689 183 156 105
-0.13640608177001173 -0.06133422021174143 -1.3940700163904063 183 155 110
-0.14318444111003653 -0.061724398016187725 -1.3961292844020097 141 117 80
-0.14672227735922994 -0.0619239278843029 -1.39972241921113 119 99 66
-0.14999217417703214 -0.062107699969049336 -1.4034388611316277 143 121 86
-0.15632263434217913 -0.06247158421770701 -1.4056749854998873 164 133 90
-0.1602399580407588 -0.06269348096285063 -1.4090635936366036 147 119 71
-0.15746259275990193 -0.06252138708870125 -1.4156979170147201 162 131 87
-0.15833993321328182 -0.06256436552132805 -1.4205674576037872 169 136 93
-0.15943245788124244 -0.06262000257060533 -1.4253358769290818 134 108 72
-0.15916472233156004 -0.06259556665188498 -1.4307760095953301 152 124 87
-0.16396958606004303 -0.06286971442540497 -1.4337231770651968 174 139 97
-0.16763235952748817 -0.06307664641097577 -1.437225509359531 137 108 68
-0.17326724297557694 -0.06339968769290799 -1.439742223938736 122 100 66
-0.18593012574060352 -0.06413651506230694 -1.4387416519680682 105 84 53
-0.18927599252736493 -0.06432485068904045 -1.442364596153112 123 99 63
-0.1981667930522461 -0.06483967842042776 -1.4431976934507371 138 113 77
-0.19452787465099464 -0.06461676334831057 -1.4503217550073484 126 101 64
-0.19837594802355535 -0.06483469127200715 -1.4536786880844266 112 85 47
-0.2004306787171628 -0.06494702248390863 -1.457939518376991 107 82 41
-0.20505868832939084 -0.065210898828832 -1.4608888197106569 123 98 58
-0.21303270862662949 -0.06567185348986831 -1.462117097264743 109 84 47
-0.17349673947592759 -0.0633346099600059 -1.4877112950994815 104 79 42
-0.17876252971801476 -0.06363597583151895 -1.4903787015632664 82 58 30
-0.21738926668340158 -0.06590245005244846 -1.4757855113257436 111 88 40
-0.21989375089268715 -0.06604129635972845 -1.4797998103029464 129 100 49
-0.2206965652632733 -0.06607990035465938 -1.4846984383753483 131 104 60
-0.20821432328875372 -0.06533583453977258 -1.496544534444775 95 71 31
-0.2211541858513183 -0.06608945005689516 -1.4951113782616043 87 63 25
-0.21815820646427442 -0.06590420682909318 -1.5020252348114673 91 67 29
-0.22870879652842513 -0.06651712597717704 -1.5018023069201083 81 59 22
-0.23029495620419238 -0.06660186635216553 -1.50629940170003 76 53 20
-0.23087228469234905 -0.06662715539147061 -1.5113347820278158 69 46 15
-0.22972015638614784 -0.06655051634954201 -1.5172988440013784 67 43 14
-0.2854759182068545 -0.06982769196588881 -1.4927875347055224 67 44 13
-0.3076797245882346 -0.07112772984010945 -1.4861117339486392 75 52 21
-0.3521055529546173 -0.07373767169500917 -1.4673707692663611 81 59 31
-0.3683108168986975 -0.07468445177746479 -1.463747722057826 89 64 30
-0.36462535557209175 -0.07445882594234295 -1.4708770060950103 108 80 42
-0.35699805005067486 -0.0740007940990201 -1.480176585737949 74 49 22
-0.3420447299893072 -0.0731108125642974 -1.49352035917293 73 50 20
-0.24090715433891696 -0.06713963971959741 -1.5542417260286603 74 52 22
-0.2505538520929928 -0.06769957721062415 -1.554326390583977 68 48 19
-0.2543461396808911 -0.06791437263631983 -1.55761824972093 73 52 24
-0.25394417373914785 -0.06788186315503598 -1.5632298824680255 76 55 26
-0.25910024028793965 -0.06817708770781289 -1.565757112001556 75 53 22
-0.26758550913584533 -0.06866866056094643 -1.5664128925606686 92 69 32
-0.2771720855631002 -0.06922522336396812 -1.5664266545651089 96 71 31
-0.2709554857071529 -0.06884979464821378 -1.5752984247425976 114 91 52
-0.28253412301116515 -0.06952389690089267 -1.574160255357301 71 50 18
-0.2876212033279466 -0.06981515976143382 -1.5766608291841337 73 54 26
-0.28598370019594394 -0.06970977636122644 -1.5829700084408103 109 88 54
-0.2894630181106125 -0.06990621408399401 -1.586376313454807 94 70 34
-0.2874035555779464 -0.06977590788406007 -1.5929451159486483 156 128 88
-0.2850533304568744 -0.06962842186667911 -1.5996965420334885 140 112 66
-0.29799820498668933 -0.0703833198506888 -1.5976567653415479 137 112 71
-0.30437330070356583 -0.0707506491171623 -1.5993706702812769 136 115 87
-0.3061291496643091 -0.07084544104316545 -1.603745647958781 94 78 51
-0.30926598168575525 -0.07102172264960818 -1.6073182436015547 105 87 65
