ply
format ascii 1.0
element vertex 824
property float x
property float y
property float z
property float nx
property float ny
property float nz
property uchar diffuse_red
property uchar diffuse_green
property uchar diffuse_blue
property uchar class
property uchar detection
end_header
0.2185 -0.3059 -1.6528 0.384 -0.919 0.090 216 215 219 0 0
0.0697 -0.4489 -2.1645 -0.301 -0.899 0.319 118 95 54 0 0
0.3271 -0.2106 -1.6241 0.328 -0.242 0.913 214 215 217 0 0
0.3176 -0.2182 -1.6234 0.356 -0.333 0.873 213 212 213 0 0
0.2030 -0.3121 -1.6496 0.384 -0.919 0.090 212 211 211 0 0
0.1166 -0.4007 -2.0757 -0.385 -0.651 0.654 110 89 58 0 0
0.0612 -0.4477 -2.1237 -0.924 -0.360 0.131 94 74 45 0 0
-0.0132 -0.5119 -2.2147 -0.178 -0.804 0.567 151 121 85 0 0
0.3306 -0.2012 -1.6231 0.353 -0.242 0.904 214 214 216 0 0
0.1885 -0.3173 -1.6417 0.407 -0.911 0.065 163 157 151 0 0
0.1115 -0.3985 -2.0741 -0.160 -0.812 0.562 114 93 62 0 0
0.0970 -0.4111 -2.0962 -0.045 -0.843 0.535 105 84 54 0 0
0.0681 -0.4349 -2.1041 -0.520 -0.670 0.530 101 81 50 0 0
0.0621 -0.4401 -2.1101 -0.875 -0.464 0.136 101 80 53 0 0
0.0288 -0.4690 -2.1543 0.064 -0.948 0.313 132 107 67 0 0
0.0250 -0.4722 -2.1564 -0.386 -0.878 -0.282 133 108 67 0 0
0.0258 -0.4718 -2.1632 -0.821 -0.563 0.097 133 108 65 0 0
0.0089 -0.4860 -2.1758 -0.822 -0.568 -0.045 133 106 66 0 0
0.0071 -0.4877 -2.1799 -0.712 -0.681 0.172 135 107 67 0 0
-0.0294 -0.5192 -2.2250 0.001 -0.783 0.622 119 99 70 0 0
0.3487 -0.1802 -1.6261 0.437 -0.291 0.851 212 215 217 0 0
0.3224 -0.2013 -1.6199 0.328 -0.242 0.913 182 176 172 0 0
0.3116 -0.2100 -1.6184 0.284 -0.229 0.931 136 125 113 0 0
0.0844 -0.4147 -2.0874 -0.823 -0.275 0.497 105 84 54 0 0
0.0172 -0.4718 -2.1460 -0.334 -0.940 -0.061 132 104 64 0 0
0.0070 -0.4812 -2.1713 -0.915 -0.397 0.066 143 116 75 0 0
0.0060 -0.4822 -2.1762 -0.818 -0.575 -0.008 139 111 71 0 0
0.0038 -0.4842 -2.1799 -0.712 -0.681 0.172 140 111 71 0 0
-0.0460 -0.5265 -2.2227 -0.399 -0.635 0.662 120 101 69 0 0
-0.0486 -0.5287 -2.2258 -0.373 -0.541 0.754 142 118 81 0 0
-0.0514 -0.5311 -2.2288 -0.373 -0.541 0.754 149 121 83 0 0
0.3146 -0.2011 -1.6170 0.287 -0.225 0.931 129 115 98 0 0
0.2812 -0.2281 -1.6114 0.374 -0.392 0.840 125 104 80 0 0
0.0892 -0.4043 -2.0833 -0.190 -0.745 0.640 111 89 58 0 0
0.0883 -0.4052 -2.0884 -0.532 -0.287 0.797 106 85 53 0 0
0.0823 -0.4102 -2.0887 -0.817 -0.315 0.483 105 83 52 0 0
0.0514 -0.4371 -2.1301 -0.862 -0.464 0.203 113 87 53 0 0
0.0179 -0.4647 -2.1383 -0.547 -0.820 -0.168 126 101 60 0 0
0.0143 -0.4677 -2.1406 -0.491 -0.871 -0.026 128 102 61 0 0
0.0148 -0.4676 -2.1470 -0.445 -0.892 -0.082 133 105 63 0 0
0.0120 -0.4700 -2.1502 -0.302 -0.953 -0.012 134 107 64 0 0
0.0025 -0.4788 -2.1761 -0.608 -0.791 0.062 148 120 77 0 0
0.3529 -0.1635 -1.6221 0.438 -0.319 0.840 213 213 214 0 0
0.3401 -0.1738 -1.6194 0.438 -0.319 0.840 199 198 196 0 0
0.3275 -0.1841 -1.6167 0.438 -0.319 0.840 159 151 142 0 0
0.1387 -0.3537 -1.9899 0.105 -0.804 0.586 121 101 76 0 0
0.0777 -0.4075 -2.0876 -0.189 -0.918 0.348 102 78 47 0 0
0.0290 -0.4496 -2.1410 -0.376 -0.777 0.505 120 95 55 0 0
0.0042 -0.4709 -2.1695 -0.432 -0.671 0.603 148 120 73 0 0
0.3550 -0.1551 -1.6201 0.408 -0.270 0.872 211 211 212 0 0
0.0446 -0.4286 -2.0945 -0.143 -0.990 0.015 119 95 60 0 0
0.0421 -0.4308 -2.0980 -0.194 -0.981 0.033 120 96 60 0 0
0.0497 -0.4256 -2.1233 -0.808 -0.527 0.263 117 93 56 0 0
0.0501 -0.4258 -2.1355 -0.594 -0.675 0.437 122 98 61 0 0
0.0243 -0.4470 -2.1397 -0.534 -0.682 0.500 120 95 56 0 0
-0.0313 -0.4942 -2.1777 -0.585 -0.392 0.710 154 127 80 0 0
-0.0455 -0.5066 -2.1984 -0.660 -0.252 0.707 147 120 85 0 0
-0.1237 -0.5734 -2.2665 -0.139 -0.289 0.947 205 205 207 0 0
0.3468 -0.1551 -1.6170 0.365 -0.209 0.907 176 174 172 0 0
0.0452 -0.4232 -2.1281 -0.420 -0.897 0.137 121 97 59 0 0
-0.0454 -0.5003 -2.1960 -0.653 -0.513 0.557 148 122 83 0 0
0.2254 -0.2477 -1.5938 0.076 -0.183 0.980 123 102 75 0 0
0.1256 -0.3316 -1.6376 0.320 -0.767 0.556 109 90 68 0 0
0.0913 -0.3599 -1.6392 -0.305 0.392 0.868 215 217 219 0 0
0.0637 -0.3976 -2.0250 -0.046 -0.857 0.514 118 97 66 0 0
0.0169 -0.4401 -2.1272 -0.345 -0.840 0.419 129 103 63 0 0
0.2209 -0.2450 -1.5931 0.030 0.023 0.999 126 105 78 0 0
0.1125 -0.3364 -1.6412 0.153 -0.880 0.450 108 90 71 0 0
0.1432 -0.3200 -1.8774 -0.585 -0.757 0.290 121 103 79 0 0
0.0579 -0.3969 -2.0463 -0.602 -0.450 0.659 115 92 61 0 0
0.0158 -0.4328 -2.0763 -0.972 -0.199 0.124 123 99 62 0 0
0.0056 -0.4440 -2.1490 -0.364 -0.753 0.548 135 106 64 0 0
0.1365 -0.3193 -1.8804 -0.577 -0.569 0.586 119 99 72 0 0
0.1292 -0.3254 -1.8800 -0.747 -0.663 0.035 119 99 71 0 0
0.0713 -0.3775 -1.9915 -0.310 -0.858 0.409 110 87 55 0 0
0.0634 -0.3843 -2.0018 -0.209 -0.433 0.877 113 90 59 0 0
0.0537 -0.3938 -2.0396 -0.398 -0.826 0.399 114 92 61 0 0
0.0335 -0.4113 -2.0615 -0.158 -0.783 0.602 116 93 61 0 0
0.0303 -0.4141 -2.0643 -0.543 -0.208 0.814 117 94 60 0 0
0.0164 -0.4264 -2.0861 -0.825 -0.565 -0.008 123 99 62 0 0
0.0165 -0.4266 -2.0921 -0.825 -0.565 -0.008 123 99 61 0 0
0.0093 -0.4345 -2.1442 -0.594 -0.636 0.492 129 100 56 0 0
-0.0241 -0.4624 -2.1517 -0.424 -0.542 0.725 150 121 73 0 0
-0.1044 -0.5321 -2.2378 -0.254 -0.891 0.376 103 87 51 0 0
-0.1086 -0.5359 -2.2450 -0.480 -0.794 0.374 111 95 62 0 0
0.0166 -0.4192 -2.0661 -0.504 -0.813 0.292 120 98 61 0 0
0.0141 -0.4217 -2.0754 -0.533 -0.835 0.138 121 97 61 0 0
-0.0263 -0.4580 -2.1529 -0.397 -0.875 0.276 149 121 73 0 0
0.1416 -0.2995 -1.8043 -0.183 -0.804 0.565 118 100 76 0 0
0.1392 -0.3017 -1.8081 -0.183 -0.804 0.565 116 98 74 0 0
0.0825 -0.3519 -1.8920 -0.369 -0.723 0.584 119 96 62 0 0
0.0119 -0.4154 -2.0239 -0.245 -0.747 0.619 116 93 60 0 0
0.0087 -0.4203 -2.0852 -0.135 -0.971 0.198 124 100 63 0 0
0.0078 -0.4212 -2.0902 -0.135 -0.971 0.198 120 96 58 0 0
0.0085 -0.4208 -2.0968 -0.229 -0.973 0.003 121 98 57 0 0
-0.1171 -0.5308 -2.2489 -0.447 -0.779 0.440 113 96 63 0 0
0.2178 -0.2220 -1.5892 -0.005 -0.027 1.000 116 95 67 0 0
0.1951 -0.2410 -1.5900 -0.007 -0.490 0.872 124 102 75 0 0
0.1267 -0.2981 -1.5910 0.136 -0.208 0.969 129 108 80 0 0
0.1436 -0.2914 -1.8030 -0.131 -0.889 0.440 108 89 62 0 0
0.1386 -0.2957 -1.8046 -0.682 -0.508 0.527 108 89 62 0 0
0.1369 -0.2973 -1.8089 -0.699 -0.671 0.249 111 90 65 0 0
0.0729 -0.3540 -1.9038 -0.397 -0.884 0.245 120 98 63 0 0
-0.0002 -0.4212 -2.0797 -0.051 -0.913 0.404 119 97 58 0 0
-0.0017 -0.4228 -2.0901 -0.041 -0.971 0.236 125 102 62 0 0
0.2053 -0.2261 -1.5884 -0.094 -0.114 0.989 117 97 70 0 0
0.1225 -0.2955 -1.5902 0.045 -0.177 0.983 125 104 77 0 0
0.0823 -0.3294 -1.5988 -0.669 -0.270 0.692 121 96 70 0 0
0.0708 -0.3395 -1.6117 -0.579 -0.655 0.485 118 95 63 0 0
0.1393 -0.2887 -1.8022 0.071 -0.972 0.225 111 92 60 0 0
0.1238 -0.3018 -1.8068 -0.568 -0.572 0.592 111 88 59 0 0
0.1217 -0.3037 -1.8107 -0.568 -0.572 0.592 111 90 59 0 0
0.1262 -0.3002 -1.8201 0.150 -0.722 0.675 111 90 58 0 0
0.0684 -0.3514 -1.9028 -0.727 -0.687 0.001 117 94 59 0 0
0.0120 -0.4034 -2.0421 -0.469 -0.676 0.568 117 94 62 0 0
0.0121 -0.4035 -2.0481 -0.428 -0.518 0.740 119 96 63 0 0
0.0042 -0.4107 -2.0638 -0.504 -0.813 0.292 120 98 60 0 0
-0.0842 -0.4893 -2.1973 -0.798 -0.132 0.589 156 127 84 0 0
0.3504 -0.0986 -1.6093 0.270 -0.104 0.957 123 107 84 0 0
0.2230 -0.2050 -1.5918 0.040 -0.080 0.996 112 92 65 0 0
0.1960 -0.2276 -1.5898 -0.216 -0.223 0.950 117 98 69 0 0
0.1911 -0.2318 -1.5919 -0.216 -0.223 0.950 119 100 70 0 0
0.1862 -0.2359 -1.5940 -0.216 -0.223 0.950 125 105 76 0 0
0.1244 -0.2876 -1.5886 0.078 -0.168 0.983 116 95 68 0 0
0.1180 -0.2930 -1.5894 0.063 -0.213 0.975 118 97 70 0 0
0.1051 -0.3039 -1.5909 0.063 -0.213 0.975 119 98 71 0 0
0.0690 -0.3347 -1.6074 -0.615 -0.652 0.443 135 110 79 0 0
0.1285 -0.2898 -1.7568 0.313 -0.777 0.546 120 102 72 0 0
0.1239 -0.2954 -1.8096 -0.014 -0.983 0.182 110 86 53 0 0
0.1179 -0.3005 -1.8104 -0.321 -0.715 0.621 108 84 52 0 0
0.0633 -0.3492 -1.8955 -0.516 -0.850 0.110 117 94 60 0 0
0.0647 -0.3482 -1.9025 -0.633 -0.714 0.301 116 94 59 0 0
0.0353 -0.3751 -1.9683 -0.486 -0.861 -0.150 117 93 57 0 0
0.0327 -0.3774 -1.9716 -0.501 -0.845 0.188 113 90 53 0 0
0.0339 -0.3766 -1.9786 -0.923 -0.225 0.311 114 90 54 0 0
0.0345 -0.3763 -1.9849 -0.906 -0.422 0.011 115 91 55 0 0
0.1976 -0.2197 -1.5877 -0.280 -0.091 0.956 107 87 60 0 0
0.1923 -0.2243 -1.5896 -0.232 -0.140 0.963 107 89 59 0 0
0.1658 -0.2467 -1.5930 -0.303 -0.010 0.953 130 109 82 0 0
0.1134 -0.2907 -1.5884 0.103 -0.198 0.975 116 95 68 0 0
0.1016 -0.3006 -1.5907 -0.024 -0.242 0.970 118 97 70 0 0
0.0615 -0.3348 -1.6042 -0.276 -0.726 0.630 142 116 81 0 0
0.1135 -0.2961 -1.7588 -0.360 -0.720 0.594 119 98 66 0 0
0.0278 -0.3752 -1.9703 -0.321 -0.925 0.205 116 92 56 0 0
-0.0524 -0.4481 -2.1373 -0.668 -0.419 0.615 145 114 68 0 0
0.1878 -0.2217 -1.5888 -0.100 -0.325 0.940 115 96 63 0 0
0.1610 -0.2444 -1.5920 -0.169 -0.146 0.975 126 102 75 0 0
0.1539 -0.2504 -1.5924 -0.064 -0.010 0.998 134 110 84 0 0
0.0700 -0.3213 -1.5969 -0.115 -0.479 0.871 132 106 76 0 0
0.0263 -0.3703 -1.9778 -0.331 -0.939 -0.091 116 94 56 0 0
-0.0432 -0.4336 -2.1207 -0.301 -0.938 0.172 147 116 70 0 0
-0.0485 -0.4381 -2.1212 -0.756 -0.621 0.205 146 115 69 0 0
-0.0494 -0.4389 -2.1262 -0.770 -0.527 0.359 146 115 71 0 0
-0.1133 -0.4956 -2.2121 -0.467 -0.313 0.827 168 138 88 0 0
0.1986 -0.2060 -1.5820 -0.087 -0.227 0.970 104 86 58 0 0
0.1810 -0.2210 -1.5863 -0.317 -0.088 0.944 102 86 55 0 0
0.1528 -0.2449 -1.5886 0.151 -0.497 0.855 130 106 78 0 0
0.1474 -0.2495 -1.5902 0.158 -0.319 0.935 130 106 78 0 0
0.0898 -0.2982 -1.5869 0.124 -0.235 0.964 125 104 75 0 0
0.0739 -0.3118 -1.5914 0.165 -0.603 0.780 132 109 79 0 0
0.0681 -0.3167 -1.5925 0.027 -0.531 0.847 138 113 82 0 0
0.0889 -0.3045 -1.7669 -0.182 -0.882 0.434 117 97 62 0 0
0.0892 -0.3045 -1.7728 -0.310 -0.867 0.389 116 96 61 0 0
0.0524 -0.3386 -1.8720 -0.700 -0.696 0.160 118 96 59 0 0
0.0509 -0.3401 -1.8764 -0.428 -0.855 0.292 120 97 60 0 0
0.0500 -0.3410 -1.8813 -0.610 -0.720 0.331 116 93 56 0 0
-0.0619 -0.4433 -2.1285 -0.758 -0.645 -0.099 148 117 71 0 0
-0.0610 -0.4428 -2.1354 -0.670 -0.715 0.199 149 118 71 0 0
-0.0628 -0.4444 -2.1394 -0.525 -0.851 0.035 153 122 75 0 0
-0.0789 -0.4586 -2.1580 -0.861 -0.494 0.117 162 132 80 0 0
-0.0790 -0.4589 -2.1638 -0.882 -0.364 0.300 171 141 87 0 0
-0.0861 -0.4648 -2.1622 -0.142 -0.738 0.660 169 139 85 0 0
-0.0921 -0.4710 -2.1974 -0.707 -0.249 0.661 139 114 74 0 0
-0.1110 -0.4869 -2.1945 -0.342 -0.786 0.515 156 127 83 0 0
-0.1159 -0.4914 -2.2069 -0.353 -0.818 0.453 165 136 88 0 0
-0.1667 -0.5358 -2.2505 -0.146 -0.855 0.497 113 105 88 0 0
0.1470 -0.2434 -1.5868 0.190 -0.497 0.846 130 107 77 0 0
0.1403 -0.2492 -1.5875 0.264 -0.504 0.822 136 113 83 0 0
0.0926 -0.2896 -1.5859 0.129 -0.374 0.918 128 105 74 0 0
0.0679 -0.3106 -1.5894 -0.062 -0.530 0.846 126 103 74 0 0
0.0635 -0.3144 -1.5915 0.064 -0.555 0.830 137 113 80 0 0
0.0228 -0.3504 -1.6409 -0.456 -0.817 -0.353 112 89 57 0 0
0.0798 -0.3059 -1.7679 -0.467 -0.884 -0.030 114 94 57 0 0
0.0245 -0.3573 -1.9131 -0.286 -0.939 0.190 117 94 54 0 0
-0.0202 -0.3981 -2.0098 -0.572 -0.725 0.384 112 89 55 0 0
-0.0762 -0.4498 -2.1466 -0.382 -0.718 0.582 146 115 68 0 0
-0.0795 -0.4528 -2.1550 -0.643 -0.765 -0.016 159 128 79 0 0
-0.0803 -0.4538 -2.1660 -0.606 -0.559 0.566 167 137 84 0 0
-0.0964 -0.4683 -2.1963 -0.663 -0.649 0.373 139 114 74 0 0
-0.1445 -0.5101 -2.2262 -0.674 0.040 0.738 137 112 74 0 0
0.0551 -0.3153 -1.5877 -0.046 -0.102 0.994 142 118 84 0 0
0.0178 -0.3563 -1.8987 -0.291 -0.943 0.161 123 98 59 0 0
0.0123 -0.3609 -1.8995 -0.374 -0.869 0.325 120 96 57 0 0
0.0105 -0.3633 -1.9264 -0.089 -0.986 0.140 118 95 55 0 0
0.0006 -0.3719 -1.9345 -0.686 -0.707 0.173 109 87 47 0 0
-0.0544 -0.4231 -2.0843 0.135 -0.873 0.469 141 113 68 0 0
-0.0642 -0.4322 -2.1094 -0.423 -0.851 0.312 142 112 65 0 0
-0.0655 -0.4334 -2.1141 -0.327 -0.880 0.345 145 114 68 0 0
-0.0857 -0.4517 -2.1520 -0.280 -0.960 0.005 148 119 71 0 0
-0.1191 -0.4814 -2.1928 -0.981 0.041 0.191 155 126 81 0 0
-0.1407 -0.5004 -2.2164 -0.229 -0.452 0.862 139 112 73 0 0
0.0384 -0.3236 -1.5937 -0.142 -0.425 0.894 145 121 85 0 0
0.0543 -0.3164 -1.8141 -0.696 -0.705 0.133 116 94 55 0 0
0.0151 -0.3520 -1.8878 -0.138 -0.805 0.577 122 98 60 0 0
0.0146 -0.3532 -1.9160 -0.838 -0.370 0.401 121 96 58 0 0
-0.0688 -0.4298 -2.1082 -0.327 -0.880 0.345 140 111 64 0 0
-0.0715 -0.4324 -2.1172 -0.327 -0.880 0.345 143 112 66 0 0
-0.0883 -0.4474 -2.1409 0.009 -0.910 0.415 142 114 66 0 0
-0.1425 -0.4957 -2.2121 -0.150 -0.596 0.789 149 121 82 0 0
-0.2055 -0.5509 -2.2640 0.254 0.067 0.965 205 205 207 0 0
0.0540 -0.3039 -1.5863 -0.308 -0.264 0.914 122 100 69 0 0
0.0486 -0.3086 -1.5877 -0.064 -0.257 0.964 137 114 80 0 0
0.0328 -0.3222 -1.5919 0.023 -0.405 0.914 143 118 81 0 0
0.0136 -0.3387 -1.5934 0.118 -0.699 0.706 149 121 78 0 0
0.0092 -0.3506 -1.8856 -0.243 -0.927 0.284 119 95 57 0 0
-0.0263 -0.3838 -1.9846 -0.494 -0.815 0.303 105 81 42 0 0
-0.0368 -0.3939 -2.0267 -0.261 -0.904 0.337 120 97 57 0 0
-0.0373 -0.3945 -2.0320 -0.248 -0.931 0.267 123 99 61 0 0
-0.0822 -0.4353 -2.1214 -0.015 -0.991 0.130 139 108 62 0 0
-0.1722 -0.5156 -2.2415 -0.419 -0.662 0.621 136 112 76 0 0
0.1029 -0.2557 -1.5812 -0.029 -0.358 0.933 133 108 77 0 0
0.0981 -0.2599 -1.5832 0.103 -0.264 0.959 133 108 77 0 0
0.0561 -0.2959 -1.5849 -0.517 -0.257 0.817 133 111 80 0 0
0.0508 -0.3005 -1.5863 -0.683 0.023 0.730 124 102 70 0 0
0.0455 -0.3051 -1.5878 -0.235 -0.057 0.970 125 102 69 0 0
0.0279 -0.3203 -1.5906 -0.028 -0.298 0.954 120 96 63 0 0
0.0094 -0.3362 -1.5927 0.057 -0.786 0.616 175 146 102 0 0
0.0453 -0.3096 -1.7451 -0.582 -0.741 0.336 121 99 60 0 0
0.0442 -0.3106 -1.7498 -0.562 -0.779 0.279 115 93 54 0 0
0.0394 -0.3148 -1.7515 -0.208 -0.710 0.672 116 94 55 0 0
-0.0094 -0.3602 -1.8833 -0.284 -0.787 0.548 125 100 61 0 0
-0.0097 -0.3607 -1.8944 -0.494 -0.861 0.124 124 99 59 0 0
-0.0109 -0.3619 -1.8989 -0.239 -0.878 0.414 123 98 58 0 0
-0.0395 -0.3891 -1.9983 -0.519 -0.779 0.353 111 85 48 0 0
-0.0833 -0.4296 -2.1059 -0.115 -0.723 0.681 131 103 56 0 0
-0.0921 -0.4385 -2.1558 -0.689 -0.626 0.366 133 105 58 0 0
-0.1282 -0.4703 -2.1879 -0.219 -0.966 0.136 140 112 72 0 0
0.1017 -0.2504 -1.5773 0.295 -0.438 0.849 112 93 63 0 0
0.0984 -0.2533 -1.5803 0.055 -0.475 0.878 127 104 74 0 0
0.0525 -0.2929 -1.5846 -0.622 -0.318 0.715 129 105 74 0 0
0.0430 -0.3011 -1.5883 -0.118 -0.137 0.983 121 98 63 0 0
0.0406 -0.3073 -1.7440 -0.435 -0.849 0.300 125 102 61 0 0
0.0403 -0.3077 -1.7493 -0.562 -0.779 0.279 120 98 57 0 0
-0.0475 -0.3897 -1.9995 -0.583 -0.538 0.608 111 86 49 0 0
-0.0454 -0.3883 -2.0131 -0.612 -0.597 0.518 115 90 54 0 0
-0.0538 -0.3955 -2.0107 -0.315 -0.851 0.420 117 93 55 0 0
-0.0553 -0.3968 -2.0151 -0.340 -0.853 0.396 140 113 76 0 0
-0.0556 -0.3972 -2.0206 -0.290 -0.950 0.115 139 111 75 0 0
-0.0669 -0.4077 -2.0501 -0.233 -0.953 0.194 127 99 59 0 0
-0.1025 -0.4411 -2.1542 -0.559 -0.698 0.449 136 108 61 0 0
-0.1444 -0.4781 -2.1914 -0.328 -0.815 0.477 142 115 72 0 0
0.0490 -0.2897 -1.5844 -0.632 -0.587 0.506 123 98 65 0 0
0.0457 -0.2926 -1.5874 -0.490 -0.551 0.675 140 116 82 0 0
0.0393 -0.2982 -1.5879 -0.185 -0.076 0.980 125 101 65 0 0
-0.0049 -0.3364 -1.5919 -0.516 -0.749 0.414 151 122 78 0 0
-0.0243 -0.3617 -1.9327 -0.239 -0.944 0.227 118 95 55 0 0
-0.0979 -0.4297 -2.1094 0.075 -0.932 0.354 137 109 63 0 0
-0.1164 -0.4463 -2.1369 -0.709 -0.536 0.459 132 104 57 0 0
-0.1178 -0.4477 -2.1413 -0.514 -0.517 0.685 134 106 59 0 0
-0.1194 -0.4491 -2.1455 -0.776 -0.575 0.261 140 112 66 0 0
-0.1442 -0.4714 -2.1775 -0.663 -0.651 0.370 135 108 69 0 0
-0.1450 -0.4722 -2.1825 -0.598 -0.637 0.487 135 107 67 0 0
-0.1470 -0.4740 -2.1863 -0.440 -0.782 0.441 136 109 67 0 0
0.1104 -0.2298 -1.5611 0.035 -0.770 0.637 108 89 59 0 0
0.1073 -0.2326 -1.5643 -0.031 -0.786 0.618 108 87 58 0 0
0.1037 -0.2358 -1.5671 0.085 -0.678 0.730 108 87 57 0 0
0.0507 -0.2820 -1.5827 -0.019 -0.484 0.875 138 111 76 0 0
0.0359 -0.2949 -1.5878 -0.003 -0.272 0.962 126 100 66 0 0
0.0329 -0.2976 -1.5909 -0.114 -0.099 0.988 129 104 66 0 0
-0.0042 -0.3295 -1.5897 -0.310 -0.228 0.923 163 136 95 0 0
-0.0080 -0.3329 -1.5920 -0.549 -0.436 0.713 163 135 88 0 0
-0.0308 -0.3612 -1.9354 -0.879 -0.395 0.266 113 88 50 0 0
-0.0699 -0.3973 -2.0304 -0.269 -0.908 0.322 111 88 49 0 0
-0.0705 -0.3979 -2.0356 -0.473 -0.881 -0.011 112 89 49 0 0
-0.0735 -0.4006 -2.0385 -0.541 -0.678 0.498 111 88 47 0 0
-0.0704 -0.3982 -2.0473 -0.011 -0.803 0.596 112 89 48 0 0
-0.0775 -0.4042 -2.0461 -0.341 -0.882 0.326 111 88 47 0 0
-0.1054 -0.4302 -2.1227 -0.297 -0.954 0.045 139 110 66 0 0
-0.1506 -0.4709 -2.1859 -0.339 -0.677 0.653 135 107 67 0 0
-0.1534 -0.4736 -2.2006 -0.564 -0.477 0.674 137 112 72 0 0
0.0438 -0.2817 -1.5800 -0.009 -0.554 0.833 140 111 76 0 0
0.0397 -0.2853 -1.5823 -0.177 -0.984 -0.020 139 112 75 0 0
0.0377 -0.2871 -1.5862 -0.089 -0.977 0.195 134 108 72 0 0
0.0317 -0.2923 -1.5871 -0.003 -0.272 0.962 136 110 76 0 0
-0.0178 -0.3356 -1.6028 -0.403 -0.811 0.424 176 146 96 0 0
-0.0484 -0.3627 -1.6264 -0.662 -0.560 0.499 100 80 46 0 0
-0.0779 -0.3988 -2.0666 -0.593 -0.525 0.611 113 90 48 0 0
-0.1020 -0.4197 -2.0652 -0.259 -0.441 0.859 105 82 42 0 0
-0.1187 -0.4362 -2.1535 -0.529 -0.809 0.258 131 102 57 0 0
-0.1523 -0.4659 -2.1758 -0.235 -0.774 0.587 123 98 60 0 0
-0.1777 -0.4884 -2.2006 -0.603 -0.782 0.157 129 105 69 0 0
-0.1807 -0.4914 -2.2149 -0.390 -0.812 0.434 134 110 70 0 0
0.0325 -0.2854 -1.5847 -0.052 -0.960 0.274 138 113 73 0 0
0.0278 -0.2895 -1.5866 0.123 -0.448 0.885 126 102 64 0 0
-0.0150 -0.3269 -1.5915 -0.405 -0.528 0.746 165 135 88 0 0
-0.0220 -0.3331 -1.6020 -0.403 -0.811 0.424 170 140 89 0 0
-0.0245 -0.3354 -1.6053 -0.646 -0.557 0.522 184 154 107 0 0
-0.0105 -0.3274 -1.7846 -0.820 -0.562 0.108 118 95 56 0 0
-0.0105 -0.3275 -1.7902 -0.144 -0.980 0.137 120 95 56 0 0
-0.0112 -0.3282 -1.7951 -0.769 -0.636 0.072 121 96 55 0 0
-0.0097 -0.3273 -1.8132 -0.416 -0.909 0.029 128 103 62 0 0
-0.0072 -0.3260 -1.8490 -0.783 -0.437 0.443 117 92 51 0 0
-0.0079 -0.3268 -1.8541 -0.847 -0.371 0.379 116 91 51 0 0
-0.0267 -0.3428 -1.8431 -0.948 -0.319 0.006 118 93 52 0 0
-0.0265 -0.3428 -1.8489 -0.765 -0.644 -0.003 117 92 51 0 0
-0.1061 -0.4169 -2.0644 -0.246 -0.477 0.844 106 83 42 0 0
-0.1126 -0.4235 -2.1044 -0.269 -0.538 0.799 124 97 54 0 0
-0.1802 -0.4844 -2.2015 -0.646 -0.679 0.349 125 101 65 0 0
-0.1819 -0.4860 -2.2055 -0.634 -0.756 0.159 126 102 63 0 0
-0.1824 -0.4866 -2.2108 -0.634 -0.756 0.159 130 107 68 0 0
-0.1844 -0.4884 -2.2145 -0.341 -0.718 0.606 118 94 58 0 0
0.0436 -0.2694 -1.5792 -0.782 -0.198 0.591 133 105 65 0 0
0.0411 -0.2716 -1.5828 -0.771 -0.127 0.624 141 116 74 0 0
0.0325 -0.2791 -1.5818 -0.552 -0.832 0.051 133 108 68 0 0
0.0312 -0.2804 -1.5861 -0.269 -0.521 0.810 136 111 70 0 0
-0.0291 -0.3333 -1.6043 -0.441 -0.799 0.409 173 143 92 0 0
-0.0343 -0.3378 -1.6055 -0.142 -0.663 0.735 156 126 82 0 0
-0.0118 -0.3219 -1.7697 -0.488 -0.800 0.349 118 96 55 0 0
-0.0135 -0.3244 -1.8127 -0.636 -0.772 -0.012 130 105 64 0 0
-0.0144 -0.3253 -1.8175 -0.613 -0.788 0.054 118 93 53 0 0
-0.0225 -0.3329 -1.8441 -0.366 -0.833 0.415 116 91 51 0 0
-0.0726 -0.3803 -2.0144 -0.575 -0.568 0.589 116 89 45 0 0
-0.0928 -0.3990 -2.0640 -0.244 -0.744 0.621 112 89 48 0 0
-0.1169 -0.4209 -2.1034 -0.342 -0.190 0.920 117 93 50 0 0
-0.1836 -0.4812 -2.2014 -0.646 -0.679 0.349 122 99 61 0 0
0.1061 -0.2068 -1.4974 0.224 -0.888 0.402 106 86 56 0 0
0.0444 -0.2624 -1.5769 -0.422 -0.274 0.864 133 105 62 0 0
0.0307 -0.2745 -1.5828 -0.392 -0.237 0.889 125 99 58 0 0
0.0100 -0.2927 -1.5887 -0.121 -0.141 0.983 146 119 75 0 0
-0.0338 -0.3312 -1.6031 -0.367 -0.891 0.268 171 141 91 0 0
-0.0115 -0.3152 -1.7616 -0.640 -0.672 0.373 123 102 60 0 0
-0.0166 -0.3204 -1.7961 -0.794 -0.607 0.041 125 100 59 0 0
-0.0196 -0.3231 -1.7991 -0.374 -0.904 0.206 123 98 57 0 0
-0.0204 -0.3239 -1.8040 -0.374 -0.904 0.206 126 101 60 0 0
-0.0212 -0.3247 -1.8089 -0.374 -0.904 0.206 126 101 60 0 0
-0.0220 -0.3255 -1.8138 -0.374 -0.904 0.206 119 94 54 0 0
-0.0777 -0.3783 -2.0068 -0.622 -0.656 0.427 114 90 50 0 0
-0.0760 -0.3770 -2.0143 -0.512 -0.624 0.591 110 86 47 0 0
-0.1000 -0.3985 -2.0426 -0.573 -0.599 0.559 109 86 46 0 0
-0.1856 -0.4767 -2.2028 -0.314 -0.783 0.537 112 88 52 0 0
-0.2183 -0.5063 -2.2480 -0.555 -0.694 0.458 93 75 43 0 0
-0.2194 -0.5074 -2.2527 -0.600 -0.751 0.276 92 76 52 0 0
0.1553 -0.1568 -1.4678 0.557 -0.656 0.510 115 99 79 0 0
0.1472 -0.1639 -1.4679 0.556 -0.641 0.529 113 96 76 0 0
0.0057 -0.2902 -1.5880 -0.076 -0.383 0.920 157 128 80 0 0
0.0006 -0.2947 -1.5894 0.008 -0.496 0.869 146 115 68 0 0
-0.0291 -0.3208 -1.5880 -0.070 -0.772 0.632 167 134 85 0 0
-0.0311 -0.3226 -1.5918 -0.153 -0.656 0.739 158 126 77 0 0
-0.0339 -0.3251 -1.5949 -0.499 -0.863 0.082 170 138 89 0 0
-0.0374 -0.3283 -1.6028 -0.518 -0.843 0.143 171 140 91 0 0
-0.0183 -0.3151 -1.7696 -0.446 -0.720 0.531 119 97 55 0 0
-0.0202 -0.3168 -1.7736 -0.446 -0.720 0.531 114 92 50 0 0
-0.0273 -0.3234 -1.7897 -0.181 -0.981 0.069 128 102 62 0 0
-0.0263 -0.3228 -1.8073 -0.181 -0.815 0.550 120 96 55 0 0
-0.0285 -0.3248 -1.8110 -0.181 -0.815 0.550 120 96 53 0 0
-0.0539 -0.3491 -1.9065 -0.286 -0.628 0.724 104 80 40 0 0
-0.1007 -0.3928 -2.0394 -0.684 -0.682 0.258 97 73 38 0 0
-0.1023 -0.3943 -2.0436 -0.671 -0.468 0.575 107 83 44 0 0
-0.1102 -0.4013 -2.0471 -0.494 -0.394 0.775 111 88 47 0 0
-0.1370 -0.4260 -2.1067 -0.705 -0.600 0.378 123 98 54 0 0
-0.1869 -0.4711 -2.1755 -0.271 -0.944 0.188 115 91 51 0 0
-0.1904 -0.4744 -2.1893 -0.799 -0.435 0.415 121 97 60 0 0
-0.2211 -0.5026 -2.2485 -0.703 -0.639 0.311 108 90 58 0 0
0.1431 -0.1609 -1.4620 0.537 -0.735 0.415 116 98 76 0 0
0.1014 -0.1980 -1.4879 -0.187 -0.942 -0.280 107 84 53 0 0
0.0495 -0.2450 -1.5585 -0.436 -0.894 0.098 117 93 56 0 0
0.0016 -0.2877 -1.5872 -0.076 -0.383 0.920 146 117 70 0 0
-0.0028 -0.2916 -1.5892 -0.076 -0.383 0.920 163 133 87 0 0
-0.0342 -0.3191 -1.5865 -0.070 -0.772 0.632 157 128 79 0 0
-0.0298 -0.3154 -1.5952 -0.489 -0.263 0.831 167 139 90 0 0
-0.0351 -0.3200 -1.5964 -0.758 -0.315 0.571 164 132 85 0 0
-0.0395 -0.3239 -1.5983 -0.690 -0.721 0.066 180 149 97 0 0
-0.0125 -0.3027 -1.7221 -0.316 -0.943 0.107 117 95 56 0 0
-0.0123 -0.3027 -1.7333 -0.149 -0.982 0.113 122 100 59 0 0
-0.0395 -0.3282 -1.8098 -0.685 -0.725 0.067 113 90 48 0 0
-0.0520 -0.3400 -1.8548 -0.745 -0.513 0.427 109 86 44 0 0
-0.0561 -0.3446 -1.9019 -0.491 -0.599 0.633 96 74 35 0 0
-0.0730 -0.3603 -1.9487 -0.608 -0.649 0.457 101 79 42 0 0
-0.1023 -0.3877 -2.0295 -0.190 -0.921 0.341 104 80 39 0 0
-0.1133 -0.3978 -2.0473 -0.519 -0.430 0.739 109 86 45 0 0
-0.1390 -0.4215 -2.1081 -0.378 -0.686 0.621 121 97 53 0 0
-0.1388 -0.4215 -2.1142 -0.192 -0.926 0.325 119 95 51 0 0
-0.1531 -0.4345 -2.1400 -0.645 -0.715 0.270 118 93 52 0 0
-0.1889 -0.4666 -2.1710 -0.849 -0.333 0.411 116 91 50 0 0
-0.1900 -0.4676 -2.1757 -0.625 -0.515 0.587 114 90 49 0 0
-0.1906 -0.4683 -2.1809 -0.876 -0.353 0.328 115 92 51 0 0
-0.1896 -0.4675 -2.1879 -0.764 -0.632 0.129 118 95 54 0 0
-0.1907 -0.4686 -2.1926 -0.777 -0.464 0.426 122 98 58 0 0
-0.1997 -0.4769 -2.2120 -0.389 -0.780 0.491 128 104 65 0 0
-0.2016 -0.4786 -2.2158 -0.604 -0.717 0.349 119 95 58 0 0
-0.2129 -0.4890 -2.2383 -0.528 -0.623 0.577 104 85 52 0 0
-0.2268 -0.5013 -2.2457 -0.408 -0.761 0.504 109 91 59 0 0
0.0465 -0.2408 -1.5267 -0.129 -0.990 0.051 78 60 36 0 0
0.0453 -0.2425 -1.5578 -0.341 -0.927 -0.157 115 91 53 0 0
-0.0004 -0.2832 -1.5828 -0.029 -0.502 0.865 149 116 76 0 0
-0.0010 -0.2838 -1.5877 -0.181 -0.466 0.866 143 114 66 0 0
-0.0411 -0.3193 -1.5995 -0.240 -0.785 0.571 184 156 107 0 0
-0.0615 -0.3430 -1.8999 -0.553 -0.484 0.678 92 70 33 0 0
-0.0769 -0.3575 -1.9482 -0.515 -0.735 0.441 91 72 40 0 0
-0.0900 -0.3703 -2.0161 -0.938 -0.340 0.059 111 88 45 0 0
-0.0997 -0.3789 -2.0181 -0.106 -0.690 0.716 110 89 44 0 0
-0.1095 -0.3882 -2.0546 -0.768 -0.581 0.269 103 80 39 0 0
-0.1409 -0.4171 -2.1155 -0.845 -0.051 0.532 113 88 46 0 0
-0.1506 -0.4259 -2.1345 -0.689 -0.721 0.073 111 86 46 0 0
-0.1566 -0.4313 -2.1398 -0.645 -0.715 0.270 116 91 50 0 0
-0.2067 -0.4768 -2.2137 -0.619 -0.646 0.447 118 94 58 0 0
-0.2288 -0.4968 -2.2412 -0.619 -0.502 0.604 107 87 52 0 0
0.0927 -0.1928 -1.4758 -0.402 -0.188 0.896 107 86 55 0 0
0.0741 -0.2093 -1.4792 0.072 -0.861 0.504 109 86 54 0 0
0.0508 -0.2306 -1.5214 -0.035 -0.817 0.575 107 86 52 0 0
0.0310 -0.2485 -1.5445 -0.312 -0.937 0.159 107 83 47 0 0
-0.0003 -0.2769 -1.5854 -0.531 -0.034 0.847 137 107 66 0 0
-0.0005 -0.2772 -1.5905 -0.265 -0.099 0.959 156 128 77 0 0
-0.0423 -0.3174 -1.7742 -0.633 -0.740 0.226 107 84 44 0 0
-0.1318 -0.4028 -2.1229 -0.193 -0.145 0.971 115 90 48 0 0
-0.1676 -0.4352 -2.1608 -0.637 -0.739 0.221 115 92 51 0 0
-0.1665 -0.4345 -2.1800 -0.923 -0.281 0.263 118 93 52 0 0
0.0968 -0.1826 -1.4648 -0.134 -0.735 0.665 106 85 54 0 0
0.0649 -0.2111 -1.4804 0.043 -0.879 0.475 112 89 58 0 0
0.0228 -0.2496 -1.5516 -0.538 -0.843 0.009 121 96 60 0 0
0.0040 -0.2668 -1.5803 0.134 -0.921 0.365 148 118 70 0 0
-0.0389 -0.3081 -1.7744 -0.542 -0.686 0.485 122 97 55 0 0
-0.0477 -0.3159 -1.7723 -0.510 -0.804 0.305 111 86 45 0 0
-0.0476 -0.3163 -1.8002 -0.505 -0.832 0.228 121 96 55 0 0
-0.0669 -0.3347 -1.8726 -0.108 -0.899 0.425 97 74 33 0 0
-0.0840 -0.3509 -1.9420 -0.533 -0.691 0.488 119 96 58 0 0
-0.0856 -0.3524 -1.9462 -0.596 -0.746 0.298 92 72 38 0 0
-0.2271 -0.4826 -2.2272 -0.563 -0.713 0.417 102 81 49 0 0
-0.2294 -0.4847 -2.2304 -0.727 -0.600 0.334 100 79 48 0 0
0.0666 -0.2032 -1.4732 0.040 -0.742 0.669 105 82 53 0 0
0.0488 -0.2192 -1.4875 -0.086 -0.743 0.664 107 84 51 0 0
0.0112 -0.2536 -1.5508 -0.786 -0.252 0.565 128 99 58 0 0
0.0137 -0.2517 -1.5686 -0.818 0.027 0.575 138 109 67 0 0
-0.0529 -0.3140 -1.7597 -0.636 -0.771 0.028 119 95 51 0 0
-0.0530 -0.3142 -1.7650 -0.716 -0.697 0.028 105 82 41 0 0
-0.0530 -0.3143 -1.7705 -0.354 -0.892 0.281 100 77 36 0 0
-0.0702 -0.3312 -1.8670 -0.175 -0.869 0.463 104 81 40 0 0
-0.1080 -0.3666 -1.9791 -0.558 -0.710 0.429 93 69 36 0 0
-0.2307 -0.4796 -2.2268 -0.563 -0.713 0.417 94 73 44 0 0
-0.2324 -0.4812 -2.2307 -0.727 -0.600 0.334 102 80 50 0 0
0.0136 -0.2450 -1.5336 0.118 -0.848 0.517 113 91 55 0 0
0.0144 -0.2444 -1.5448 -0.776 -0.613 0.148 121 95 59 0 0
0.0096 -0.2487 -1.5467 -0.752 -0.650 0.113 122 98 59 0 0
0.0090 -0.2494 -1.5515 -0.604 -0.691 0.398 131 103 62 0 0
0.0080 -0.2503 -1.5561 -0.625 -0.743 0.238 134 105 62 0 0
-0.0977 -0.3453 -1.6122 -0.764 -0.536 0.359 91 71 39 0 0
-0.0557 -0.3102 -1.7601 -0.277 -0.925 0.260 106 81 40 0 0
-0.0683 -0.3228 -1.8435 -0.589 -0.796 0.137 108 83 45 0 0
-0.0718 -0.3259 -1.8460 -0.607 -0.485 0.630 108 83 45 0 0
-0.0763 -0.3300 -1.8532 -0.777 -0.398 0.488 105 82 41 0 0
-0.1985 -0.4439 -2.1788 -0.748 -0.552 0.369 117 92 51 0 0
-0.1998 -0.4451 -2.1832 -0.748 -0.552 0.369 120 95 54 0 0
-0.2011 -0.4464 -2.1877 -0.748 -0.552 0.369 127 103 60 0 0
-0.2243 -0.4673 -2.2084 -0.826 -0.482 0.292 126 98 58 0 0
0.0188 -0.2339 -1.5185 0.118 -0.950 0.288 125 100 62 0 0
0.0158 -0.2366 -1.5216 0.130 -0.955 0.265 110 85 46 0 0
0.0135 -0.2387 -1.5253 0.077 -0.879 0.471 125 100 61 0 0
0.0015 -0.2496 -1.5377 -0.727 -0.610 0.315 114 88 56 0 0
0.0001 -0.2509 -1.5420 -0.736 -0.589 0.334 124 98 62 0 0
-0.0010 -0.2519 -1.5465 -0.672 -0.631 0.387 134 106 65 0 0
-0.0269 -0.2755 -1.5750 -0.215 -0.475 0.853 153 122 75 0 0
-0.0309 -0.2791 -1.5772 -0.012 -0.612 0.791 165 136 93 0 0
-0.1027 -0.3438 -1.6265 -0.492 -0.842 0.220 96 74 42 0 0
-0.0650 -0.3123 -1.7659 -0.431 -0.796 0.425 101 79 40 0 0
-0.0749 -0.3224 -1.8462 -0.607 -0.485 0.630 103 79 42 0 0
-0.0787 -0.3259 -1.8539 -0.773 -0.356 0.525 103 79 41 0 0
-0.0838 -0.3305 -1.8605 -0.694 -0.508 0.510 107 84 43 0 0
-0.0856 -0.3322 -1.8646 -0.694 -0.508 0.510 104 81 40 0 0
-0.0903 -0.3364 -1.8658 -0.439 -0.898 -0.026 104 81 40 0 0
-0.0895 -0.3361 -1.8891 -0.585 -0.810 0.048 106 82 46 0 0
-0.2007 -0.4395 -2.1741 -0.631 -0.680 0.373 122 97 54 0 0
-0.2042 -0.4429 -2.1879 -0.645 -0.610 0.460 118 94 51 0 0
-0.2268 -0.4634 -2.2092 -0.826 -0.482 0.292 133 104 61 0 0
-0.2313 -0.4674 -2.2100 -0.667 -0.666 0.333 136 107 63 0 0
-0.2332 -0.4691 -2.2137 -0.657 -0.621 0.427 127 100 56 0 0
-0.2419 -0.4771 -2.2272 -0.360 -0.615 0.701 122 95 58 0 0
0.0077 -0.2375 -1.5181 0.073 -0.981 0.179 127 102 61 0 0
0.0008 -0.2438 -1.5290 -0.007 -0.930 0.367 111 87 49 0 0
-0.0308 -0.2727 -1.5744 -0.125 -0.752 0.647 158 128 79 0 0
-0.0341 -0.2757 -1.5772 -0.113 -0.703 0.702 161 133 86 0 0
-0.0368 -0.2782 -1.5804 -0.298 -0.513 0.805 148 122 78 0 0
-0.0579 -0.2997 -1.7637 -0.642 -0.584 0.497 92 71 34 0 0
-0.0766 -0.3170 -1.8029 -0.547 -0.687 0.478 106 83 42 0 0
-0.1061 -0.3451 -1.9276 -0.472 -0.841 0.265 101 78 40 0 0
-0.1932 -0.4263 -2.1566 -0.751 -0.608 0.258 109 85 44 0 0
-0.2147 -0.4459 -2.1856 -0.343 -0.756 0.558 118 94 50 0 0
-0.2293 -0.4592 -2.2043 -0.642 -0.502 0.579 138 109 68 0 0
-0.2384 -0.4675 -2.2114 -0.612 -0.744 0.269 130 102 58 0 0
-0.2404 -0.4693 -2.2150 -0.598 -0.686 0.414 122 95 53 0 0
-0.2418 -0.4707 -2.2192 -0.598 -0.686 0.414 122 94 54 0 0
-0.2531 -0.4808 -2.2237 -0.296 -0.592 0.749 123 95 57 0 0
-0.2563 -0.4838 -2.2317 -0.484 -0.843 0.234 118 96 57 0 0
-0.2852 -0.5101 -2.2620 0.011 0.135 0.991 202 202 204 0 0
-0.0253 -0.2616 -1.5757 -0.391 -0.877 0.278 148 117 68 0 0
-0.0263 -0.2626 -1.5802 -0.391 -0.877 0.278 158 130 78 0 0
-0.0674 -0.2996 -1.5910 -0.050 -0.383 0.922 172 141 93 0 0
-0.1089 -0.3369 -1.6055 -0.639 -0.641 0.424 113 88 48 0 0
-0.0587 -0.2941 -1.7603 -0.233 -0.369 0.900 96 73 33 0 0
-0.0803 -0.3140 -1.8025 -0.582 -0.683 0.441 109 86 45 0 0
-0.0796 -0.3138 -1.8310 -0.376 -0.917 -0.130 100 76 38 0 0
-0.2090 -0.4343 -2.1661 -0.212 -0.880 0.425 114 90 45 0 0
-0.2418 -0.4643 -2.2113 -0.819 -0.486 0.305 127 100 55 0 0
-0.2440 -0.4663 -2.2146 -0.462 -0.532 0.710 119 92 49 0 0
-0.2568 -0.4781 -2.2410 -0.713 -0.543 0.444 114 91 53 0 0
0.0299 -0.2042 -1.4540 -0.105 -0.946 0.308 123 99 63 0 0
-0.0028 -0.2340 -1.4837 -0.480 -0.592 0.648 133 109 75 0 0
-0.0303 -0.2600 -1.5850 -0.426 -0.899 0.105 164 134 83 0 0
-0.0727 -0.3005 -1.7731 -0.596 -0.742 0.307 108 85 45 0 0
-0.0730 -0.3008 -1.7784 -0.440 -0.796 0.416 105 83 42 0 0
-0.0761 -0.3037 -1.7924 -0.626 -0.725 0.285 105 81 40 0 0
-0.0880 -0.3153 -1.8601 -0.166 -0.463 0.870 97 73 36 0 0
-0.1184 -0.3438 -1.9507 -0.616 -0.678 0.400 109 89 59 0 0
-0.2560 -0.4710 -2.2340 -0.413 -0.652 0.636 119 93 52 0 0
0.0071 -0.2187 -1.4772 -0.295 -0.544 0.786 114 88 55 0 0
-0.0167 -0.2407 -1.5180 0.044 -0.998 -0.043 116 88 47 0 0
-0.0166 -0.2406 -1.5233 -0.092 -0.991 0.102 142 114 74 0 0
-0.0165 -0.2406 -1.5287 -0.184 -0.983 0.022 126 97 58 0 0
-0.0181 -0.2421 -1.5328 -0.270 -0.940 0.208 132 103 63 0 0
-0.0348 -0.2577 -1.5786 -0.622 -0.514 0.591 153 124 75 0 0
-0.1012 -0.3185 -1.6593 -0.164 -0.808 -0.566 116 96 57 0 0
-0.0800 -0.3009 -1.7863 -0.596 -0.702 0.390 107 84 43 0 0
-0.0816 -0.3023 -1.7905 -0.516 -0.760 0.395 105 82 41 0 0
-0.0926 -0.3128 -1.8364 -0.573 -0.649 0.501 92 68 32 0 0
-0.0879 -0.3088 -1.8576 -0.242 -0.709 0.662 94 72 35 0 0
-0.1032 -0.3233 -1.9113 -0.749 -0.528 0.401 97 74 40 0 0
-0.2434 -0.4531 -2.2052 -0.918 -0.367 0.152 137 108 64 0 0
-0.2533 -0.4621 -2.2173 -0.384 -0.835 0.394 125 98 55 0 0
-0.2544 -0.4632 -2.2219 -0.400 -0.729 0.555 123 99 57 0 0
0.0815 -0.1444 -1.4030 -0.405 -0.624 0.668 127 101 67 0 0
0.0264 -0.1946 -1.4350 -0.612 -0.790 0.043 133 105 68 0 0
-0.0660 -0.2798 -1.5889 -0.033 -0.377 0.925 165 133 84 0 0
-0.1023 -0.3134 -1.6663 -0.121 -0.819 -0.561 116 94 57 0 0
-0.0748 -0.2894 -1.7494 -0.202 -0.918 0.340 145 116 72 0 0
-0.0823 -0.2966 -1.7871 -0.778 -0.479 0.407 107 84 43 0 0
-0.0901 -0.3039 -1.8080 -0.766 -0.592 0.251 100 76 38 0 0
-0.0943 -0.3083 -1.8604 0.160 -0.644 0.748 88 66 29 0 0
-0.0955 -0.3097 -1.8933 -0.729 -0.551 0.407 107 83 44 0 0
-0.1213 -0.3333 -1.9143 -0.578 -0.774 0.259 98 76 38 0 0
-0.1232 -0.3351 -1.9239 -0.578 -0.774 0.259 123 98 57 0 0
-0.2284 -0.4329 -2.1729 -0.306 -0.791 0.530 114 90 46 0 0
-0.2437 -0.4471 -2.2027 -0.622 -0.652 0.433 135 106 62 0 0
-0.2569 -0.4592 -2.2168 -0.505 -0.730 0.461 125 98 55 0 0
-0.2585 -0.4607 -2.2209 -0.505 -0.730 0.461 123 98 56 0 0
-0.2622 -0.4641 -2.2284 -0.599 -0.773 0.208 115 90 49 0 0
-0.2683 -0.4696 -2.2330 -0.585 -0.445 0.678 119 94 53 0 0
0.0578 -0.1594 -1.4003 -0.119 -0.693 0.711 129 103 68 0 0
0.0536 -0.1634 -1.4133 -0.529 -0.769 0.360 129 102 65 0 0
0.0461 -0.1702 -1.4136 -0.576 -0.696 0.428 125 98 61 0 0
-0.1109 -0.3150 -1.6618 -0.286 -0.726 -0.625 112 90 53 0 0
-0.1037 -0.3102 -1.8378 -0.083 -0.996 0.012 92 70 33 0 0
-0.0973 -0.3046 -1.8549 0.147 -0.902 0.407 94 72 35 0 0
-0.1263 -0.3315 -1.9126 -0.652 -0.743 0.151 98 76 39 0 0
-0.1275 -0.3326 -1.9229 -0.706 -0.700 0.110 109 86 48 0 0
-0.1452 -0.3493 -1.9914 -0.333 -0.900 0.281 79 58 30 0 0
-0.2295 -0.4275 -2.1636 -0.285 -0.634 0.719 118 92 49 0 0
-0.2461 -0.4430 -2.2037 -0.659 -0.604 0.448 133 104 60 0 0
-0.2477 -0.4444 -2.2079 -0.659 -0.604 0.448 133 104 60 0 0
-0.2614 -0.4570 -2.2213 -0.193 -0.778 0.598 122 97 55 0 0
0.0504 -0.1598 -1.4028 -0.350 -0.452 0.820 121 95 59 0 0
0.0473 -0.1626 -1.4061 -0.449 -0.412 0.793 131 104 67 0 0
0.0199 -0.1879 -1.4454 -0.568 -0.785 0.247 148 117 82 0 0
0.0176 -0.1900 -1.4491 -0.390 -0.667 0.634 150 120 82 0 0
-0.0051 -0.2110 -1.4805 -0.074 -0.569 0.819 129 102 63 0 0
-0.0685 -0.2696 -1.5920 -0.247 -0.093 0.965 155 126 79 0 0
-0.1178 -0.3150 -1.6587 -0.290 -0.743 -0.603 116 95 58 0 0
-0.0952 -0.2957 -1.7926 -0.583 -0.779 0.229 98 74 37 0 0
-0.1058 -0.3059 -1.8558 0.086 -0.837 0.540 80 58 21 0 0
-0.1439 -0.3415 -1.9672 -0.391 -0.839 0.379 81 59 32 0 0
-0.1419 -0.3398 -1.9750 -0.591 -0.637 0.495 84 63 35 0 0
-0.1508 -0.3480 -1.9833 -0.435 -0.575 0.693 78 57 29 0 0
-0.1515 -0.3487 -1.9883 -0.312 -0.842 0.441 77 56 28 0 0
-0.2489 -0.4391 -2.1924 -0.502 -0.860 0.096 130 102 57 0 0
-0.2500 -0.4401 -2.2030 -0.521 -0.809 0.272 132 103 60 0 0
-0.2499 -0.4402 -2.2091 -0.458 -0.746 0.484 135 106 64 0 0
-0.3119 -0.4970 -2.2649 -0.151 0.016 0.988 205 205 207 0 0
0.0195 -0.1816 -1.4056 -0.634 -0.689 0.351 126 99 64 0 0
0.0200 -0.1811 -1.4111 -0.511 -0.854 0.101 145 114 77 0 0
0.0197 -0.1815 -1.4161 -0.511 -0.854 0.101 141 110 71 0 0
0.0182 -0.1830 -1.4307 -0.502 -0.857 0.119 155 122 80 0 0
0.0100 -0.1908 -1.4723 0.105 -0.528 0.842 173 142 96 0 0
-0.0702 -0.2649 -1.5931 -0.530 -0.544 0.651 155 125 76 0 0
-0.0743 -0.2686 -1.5953 -0.304 -0.192 0.933 163 133 84 0 0
-0.0787 -0.2727 -1.5971 -0.346 -0.209 0.915 149 120 73 0 0
-0.1547 -0.3452 -1.9884 -0.706 -0.536 0.462 74 53 25 0 0
-0.1573 -0.3476 -1.9915 -0.535 -0.795 0.286 74 53 25 0 0
-0.1895 -0.3778 -2.0977 -0.932 -0.355 -0.071 95 72 31 0 0
-0.2483 -0.4322 -2.1910 -0.896 -0.443 0.026 127 98 54 0 0
-0.2500 -0.4338 -2.1949 -0.629 -0.754 0.186 129 100 56 0 0
-0.2503 -0.4341 -2.2006 -0.428 -0.773 0.468 132 103 59 0 0
0.0636 -0.1348 -1.3894 0.125 -0.683 0.720 130 104 67 0 0
-0.1304 -0.3141 -1.6534 -0.428 -0.615 -0.662 124 102 65 0 0
-0.1237 -0.3097 -1.8734 -0.522 -0.736 0.430 91 71 38 0 0
-0.1589 -0.3426 -1.9760 -0.563 -0.506 0.653 80 59 32 0 0
-0.1590 -0.3428 -1.9932 -0.233 -0.819 0.525 76 55 29 0 0
-0.1915 -0.3731 -2.0814 -0.577 -0.808 0.120 81 63 27 0 0
-0.2507 -0.4280 -2.1801 -0.814 -0.562 0.147 120 93 48 0 0
-0.2512 -0.4285 -2.1854 -0.814 -0.562 0.147 124 95 51 0 0
-0.2518 -0.4291 -2.1907 -0.814 -0.562 0.147 127 98 54 0 0
-0.2536 -0.4308 -2.1945 -0.629 -0.754 0.186 126 97 53 0 0
-0.2539 -0.4310 -2.2002 -0.475 -0.779 0.410 128 99 55 0 0
-0.2803 -0.4558 -2.2825 -0.413 -0.882 0.228 130 127 119 0 0
-0.0568 -0.2399 -1.5553 -0.784 -0.446 0.431 118 94 51 0 0
-0.1194 -0.2974 -1.5962 -0.526 -0.394 0.753 129 105 70 0 0
-0.1220 -0.2999 -1.5994 -0.526 -0.394 0.753 147 123 84 0 0
-0.1454 -0.3215 -1.6277 -0.745 -0.603 0.284 97 73 37 0 0
-0.1135 -0.2933 -1.7905 -0.626 -0.670 0.400 101 77 41 0 0
-0.1275 -0.3067 -1.8729 -0.522 -0.736 0.430 91 71 38 0 0
-0.1290 -0.3081 -1.8772 -0.626 -0.746 0.228 82 59 28 0 0
-0.1391 -0.3175 -1.8959 -0.455 -0.699 0.552 92 69 38 0 0
-0.1807 -0.3565 -2.0205 -0.457 -0.699 0.551 113 89 53 0 0
-0.1895 -0.3648 -2.0695 -0.651 -0.518 0.555 93 70 36 0 0
-0.1886 -0.3641 -2.0764 -0.270 -0.651 0.709 93 70 33 0 0
-0.1981 -0.3729 -2.0954 -0.400 -0.843 0.361 97 74 33 0 0
-0.1991 -0.3739 -2.1002 -0.487 -0.846 0.218 90 66 26 0 0
-0.2352 -0.4073 -2.1544 -0.895 -0.407 0.182 105 82 40 0 0
-0.2606 -0.4309 -2.2021 -0.558 -0.320 0.766 129 100 57 0 0
-0.2959 -0.4637 -2.2731 -0.670 -0.728 0.144 156 154 150 0 0
0.0474 -0.1368 -1.3884 0.276 -0.803 0.528 126 100 63 0 0
-0.0349 -0.2132 -1.5158 -0.605 -0.796 0.007 112 89 49 0 0
-0.0651 -0.2412 -1.5673 -0.151 -0.904 0.400 137 108 65 0 0
-0.1255 -0.2969 -1.5991 -0.402 -0.370 0.838 147 121 81 0 0
-0.1352 -0.3059 -1.6123 -0.373 -0.840 0.393 86 63 33 0 0
-0.1493 -0.3189 -1.6323 -0.477 -0.818 0.322 88 65 29 0 0
-0.1187 -0.2911 -1.6847 -0.326 -0.672 -0.665 113 94 59 0 0
-0.1155 -0.2888 -1.7861 -0.573 -0.749 0.333 97 75 35 0 0
-0.1305 -0.3030 -1.8675 -0.297 -0.704 0.645 88 65 33 0 0
-0.1329 -0.3054 -1.8765 -0.369 -0.868 0.332 82 62 29 0 0
-0.1429 -0.3146 -1.8954 -0.455 -0.699 0.552 91 69 36 0 0
-0.1845 -0.3536 -2.0199 -0.457 -0.699 0.551 80 59 26 0 0
-0.1857 -0.3547 -2.0245 -0.633 -0.685 0.361 107 80 43 0 0
-0.1870 -0.3559 -2.0289 -0.633 -0.685 0.361 87 65 34 0 0
-0.1883 -0.3571 -2.0334 -0.633 -0.685 0.361 101 79 45 0 0
-0.1922 -0.3609 -2.0701 -0.802 -0.273 0.531 92 70 33 0 0
-0.2060 -0.3737 -2.0904 -0.116 -0.932 0.343 96 74 32 0 0
-0.2254 -0.3918 -2.1218 -0.710 -0.685 -0.166 96 73 31 0 0
-0.2374 -0.4029 -2.1556 -0.895 -0.407 0.182 99 76 35 0 0
-0.2498 -0.4145 -2.1769 -0.270 -0.554 0.788 113 88 46 0 0
-0.2534 -0.4178 -2.1787 -0.527 -0.442 0.726 111 86 45 0 0
-0.2565 -0.4206 -2.1810 -0.459 -0.703 0.543 117 92 49 0 0
-0.2593 -0.4232 -2.1896 -0.662 -0.616 0.428 126 97 53 0 0
-0.2607 -0.4246 -2.1939 -0.662 -0.643 0.385 126 97 53 0 0
-0.2820 -0.4443 -2.2161 -0.043 -0.778 0.627 119 94 52 0 0
-0.3044 -0.4652 -2.2666 -0.900 -0.332 0.284 154 150 145 0 0
0.2051 0.0156 -1.2204 0.231 -0.820 0.523 191 192 194 0 0
0.1194 -0.0634 -1.2415 0.346 -0.687 0.639 156 153 148 0 0
0.0424 -0.1351 -1.3872 0.107 -0.822 0.560 123 97 60 0 0
0.0412 -0.1362 -1.3917 -0.104 -0.399 0.911 127 101 64 0 0
0.0365 -0.1406 -1.3938 0.016 -0.501 0.865 126 101 61 0 0
-0.0053 -0.1792 -1.4235 -0.419 -0.787 0.453 152 121 79 0 0
-0.0079 -0.1816 -1.4269 -0.452 -0.793 0.408 161 128 83 0 0
-0.0406 -0.2121 -1.5139 -0.874 -0.479 0.086 101 78 37 0 0
-0.0724 -0.2417 -1.5641 -0.097 -0.795 0.599 128 100 60 0 0
-0.0721 -0.2414 -1.5750 -0.599 -0.486 0.637 116 88 49 0 0
-0.0988 -0.2661 -1.5912 -0.065 -0.236 0.969 173 141 99 0 0
-0.1906 -0.3529 -2.0344 -0.402 -0.913 0.060 98 77 43 0 0
-0.2376 -0.3967 -2.1413 -0.865 -0.315 0.391 101 78 37 0 0
-0.2659 -0.4230 -2.1976 -0.369 -0.791 0.488 130 101 57 0 0
0.1773 -0.0034 -1.2283 0.350 -0.361 0.864 192 193 196 0 0
0.1113 -0.0644 -1.2439 0.256 -0.623 0.739 129 111 91 0 0
0.1040 -0.0711 -1.2450 0.325 -0.692 0.645 124 109 92 0 0
0.0988 -0.0759 -1.2472 -0.029 -0.374 0.927 146 135 124 0 0
0.0392 -0.1316 -1.3820 -0.242 -0.825 0.511 127 102 65 0 0
0.0348 -0.1356 -1.3844 0.111 -0.670 0.734 120 94 57 0 0
0.0272 -0.1427 -1.3899 -0.186 -0.733 0.654 132 105 65 0 0
-0.0446 -0.2094 -1.4765 -0.019 -0.962 0.274 135 109 73 0 0
-0.0463 -0.2110 -1.4806 -0.400 -0.902 0.162 154 125 85 0 0
-0.0470 -0.2115 -1.4853 -0.400 -0.902 0.162 137 109 69 0 0
-0.0550 -0.2190 -1.4900 -0.704 -0.400 0.587 126 99 59 0 0
-0.0560 -0.2199 -1.4945 -0.933 -0.263 0.248 122 97 58 0 0
-0.1220 -0.2821 -1.7694 -0.618 -0.704 0.350 83 62 28 0 0
-0.1352 -0.2944 -1.8186 -0.835 -0.368 0.408 84 61 30 0 0
-0.1358 -0.2950 -1.8349 -0.403 -0.879 0.255 85 65 32 0 0
-0.1398 -0.2988 -1.8593 -0.550 -0.766 0.332 85 64 32 0 0
-0.1425 -0.3014 -1.8850 -0.462 -0.845 0.269 86 63 33 0 0
-0.1587 -0.3165 -1.9090 -0.433 -0.791 0.432 75 55 30 0 0
-0.1698 -0.3269 -1.9437 -0.510 -0.785 0.351 68 47 25 0 0
-0.2437 -0.3960 -2.1440 -0.419 -0.425 0.802 107 84 43 0 0
-0.2648 -0.4156 -2.1789 -0.494 -0.779 0.387 118 93 50 0 0
-0.2978 -0.4463 -2.2227 -0.333 -0.345 0.877 124 99 59 0 0
-0.2992 -0.4476 -2.2331 -0.500 -0.610 0.615 118 95 55 0 0
-0.3013 -0.4495 -2.2364 -0.518 -0.727 0.451 117 93 56 0 0
0.1024 -0.0661 -1.2407 0.350 -0.708 0.614 119 97 72 0 0
0.0957 -0.0724 -1.2421 0.325 -0.692 0.645 139 115 89 0 0
0.0924 -0.0754 -1.2454 0.229 -0.696 0.680 131 110 86 0 0
0.0888 -0.0788 -1.2484 0.079 -0.654 0.752 133 120 106 0 0
0.0237 -0.1395 -1.3845 -0.622 -0.610 0.491 131 103 66 0 0
0.0178 -0.1450 -1.3962 -0.236 -0.902 0.361 126 98 60 0 0
-0.0428 -0.2013 -1.4592 -0.546 -0.804 0.234 169 137 87 0 0
-0.0599 -0.2172 -1.4887 -0.666 -0.347 0.661 134 106 67 0 0
-0.0605 -0.2178 -1.4935 -0.711 -0.433 0.553 119 93 55 0 0
-0.0622 -0.2194 -1.4975 -0.734 -0.520 0.436 105 81 42 0 0
-0.1321 -0.2844 -1.5961 -0.190 -0.344 0.920 146 121 87 0 0
-0.1501 -0.3011 -1.6025 -0.446 -0.487 0.751 135 110 75 0 0
-0.1583 -0.3087 -1.6115 -0.537 -0.680 0.498 90 70 36 0 0
-0.1604 -0.3107 -1.6203 -0.670 -0.655 0.348 97 74 40 0 0
-0.1628 -0.3129 -1.6289 -0.684 -0.638 0.354 81 58 26 0 0
-0.1264 -0.2797 -1.7684 -0.603 -0.694 0.393 85 65 30 0 0
-0.1376 -0.2903 -1.8194 -0.391 -0.689 0.611 81 59 28 0 0
-0.1626 -0.3137 -1.9084 -0.415 -0.887 0.205 74 53 29 0 0
-0.1775 -0.3277 -1.9680 -0.746 -0.658 0.101 62 43 22 0 0
-0.1882 -0.3377 -1.9974 -0.628 -0.754 0.189 84 63 33 0 0
-0.2786 -0.4221 -2.2022 -0.355 -0.371 0.858 129 100 56 0 0
-0.2812 -0.4245 -2.2050 -0.501 -0.618 0.606 130 101 57 0 0
-0.2950 -0.4373 -2.2182 -0.604 -0.422 0.676 121 95 52 0 0
-0.2972 -0.4393 -2.2216 -0.769 -0.369 0.523 125 99 58 0 0
-0.2990 -0.4410 -2.2254 -0.769 -0.369 0.523 122 96 56 0 0
-0.3405 -0.4796 -2.2693 0.007 -0.610 0.793 207 207 209 0 0
0.0800 -0.0805 -1.2401 0.385 -0.865 0.322 127 104 75 0 0
0.0199 -0.1366 -1.3841 -0.469 -0.676 0.568 130 102 65 0 0
-0.0234 -0.1768 -1.4177 -0.311 -0.664 0.680 132 105 68 0 0
-0.0360 -0.1886 -1.4402 -0.510 -0.856 0.084 160 128 88 0 0
-0.0571 -0.2083 -1.4774 -0.392 -0.918 -0.057 132 107 64 0 0
-0.0648 -0.2155 -1.4927 -0.480 -0.655 0.583 115 90 50 0 0
-0.0657 -0.2164 -1.4973 -0.664 -0.529 0.528 108 85 43 0 0
-0.1636 -0.3075 -1.6203 -0.670 -0.655 0.348 93 72 36 0 0
-0.1299 -0.2766 -1.7682 -0.603 -0.694 0.393 88 68 33 0 0
-0.1633 -0.3080 -1.9281 -0.621 -0.617 0.482 72 52 27 0 0
-0.1803 -0.3239 -1.9684 -0.820 -0.566 0.085 63 45 22 0 0
-0.1918 -0.3346 -1.9971 -0.628 -0.754 0.189 83 62 33 0 0
-0.1967 -0.3392 -2.0035 -0.680 -0.502 0.535 69 48 19 0 0
-0.2514 -0.3903 -2.1487 -0.256 -0.807 0.533 104 81 39 0 0
-0.2631 -0.4012 -2.1588 -0.391 -0.579 0.715 106 83 42 0 0
-0.2654 -0.4034 -2.1680 -0.846 -0.516 0.132 120 94 54 0 0
-0.2684 -0.4062 -2.1705 -0.889 -0.450 0.081 120 92 52 0 0
-0.2796 -0.4166 -2.1989 -0.663 -0.400 0.633 125 96 53 0 0
-0.3005 -0.4361 -2.2215 -0.509 -0.788 0.345 123 95 55 0 0
0.0707 -0.0827 -1.2469 0.243 -0.962 0.121 140 118 87 0 0
0.0696 -0.0837 -1.2514 0.113 -0.970 -0.215 136 118 100 0 0
0.0540 -0.0984 -1.3557 -0.257 -0.674 0.692 103 87 68 0 0
0.0519 -0.1004 -1.3596 -0.849 -0.486 0.208 89 71 45 0 0
0.0161 -0.1337 -1.3837 -0.469 -0.676 0.568 130 102 65 0 0
0.0150 -0.1347 -1.3882 -0.686 -0.598 0.414 135 107 69 0 0
0.0092 -0.1402 -1.3948 -0.553 -0.715 0.428 136 109 71 0 0
-0.0404 -0.1864 -1.4341 -0.203 -0.825 0.527 147 114 78 0 0
-0.0410 -0.1870 -1.4389 -0.744 -0.645 0.174 153 120 82 0 0
-0.0553 -0.2003 -1.4601 -0.783 -0.575 0.237 155 124 82 0 0
-0.0861 -0.2291 -1.5475 -0.754 -0.582 0.304 101 76 38 0 0
-0.1051 -0.2468 -1.5751 -0.385 -0.821 0.422 111 86 44 0 0
-0.1261 -0.2666 -1.7084 -0.566 -0.814 0.129 90 70 32 0 0
-0.1904 -0.3269 -1.9787 -0.602 -0.652 0.462 66 44 21 0 0
-0.2129 -0.3479 -2.0188 -0.656 -0.595 0.463 108 83 45 0 0
-0.2145 -0.3494 -2.0230 -0.656 -0.595 0.463 82 61 29 0 0
-0.2161 -0.3509 -2.0270 -0.672 -0.692 0.265 82 61 30 0 0
-0.2437 -0.3767 -2.1198 -0.370 -0.700 0.611 95 73 32 0 0
-0.2481 -0.3809 -2.1563 -0.572 -0.783 0.242 104 81 39 0 0
-0.2721 -0.4032 -2.1700 -0.592 -0.758 0.272 121 93 53 0 0
-0.2730 -0.4041 -2.1749 -0.525 -0.762 0.379 118 90 50 0 0
-0.2750 -0.4059 -2.1844 -0.458 -0.611 0.646 123 95 49 0 0
-0.2820 -0.4125 -2.2000 -0.463 -0.751 0.471 125 96 52 0 0
-0.2855 -0.4158 -2.2017 -0.699 -0.617 0.363 132 103 59 0 0
-0.2868 -0.4169 -2.2062 -0.699 -0.617 0.363 133 104 60 0 0
-0.2991 -0.4284 -2.2152 -0.507 -0.618 0.601 130 103 60 0 0
-0.3009 -0.4301 -2.2189 -0.419 -0.756 0.503 123 96 53 0 0
-0.3027 -0.4318 -2.2228 -0.419 -0.756 0.503 127 99 58 0 0
-0.3220 -0.4498 -2.2529 -0.449 -0.815 0.366 88 78 63 0 0
0.0486 -0.0970 -1.3596 -0.411 -0.704 0.578 84 66 42 0 0
0.0187 -0.1249 -1.3718 -0.200 -0.916 0.347 109 85 47 0 0
0.0176 -0.1259 -1.3763 -0.492 -0.842 0.222 112 89 54 0 0
0.0122 -0.1309 -1.3833 -0.550 -0.510 0.661 135 107 70 0 0
0.0132 -0.1300 -1.3891 -0.650 -0.638 0.414 136 108 69 0 0
-0.0236 -0.1643 -1.4115 -0.474 -0.663 0.579 162 132 87 0 0
-0.0260 -0.1666 -1.4203 -0.677 -0.588 0.443 136 107 69 0 0
-0.0447 -0.1841 -1.4333 -0.620 -0.516 0.590 144 111 72 0 0
-0.0901 -0.2266 -1.5469 -0.523 -0.827 0.207 103 77 41 0 0
-0.1742 -0.3050 -1.6325 -0.587 -0.796 0.149 76 53 23 0 0
-0.1299 -0.2638 -1.7078 -0.566 -0.814 0.129 87 66 32 0 0
-0.1519 -0.2844 -1.8320 -0.707 -0.625 0.331 78 57 26 0 0
-0.1530 -0.2855 -1.8365 -0.672 -0.648 0.358 80 59 28 0 0
-0.1925 -0.3224 -1.9742 -0.724 -0.577 0.377 66 44 21 0 0
-0.1933 -0.3232 -1.9791 -0.550 -0.667 0.503 66 44 21 0 0
-0.2179 -0.3461 -2.0228 -0.669 -0.391 0.632 79 58 28 0 0
-0.2163 -0.3447 -2.0303 -0.734 -0.651 0.194 78 57 26 0 0
-0.2260 -0.3538 -2.0724 -0.406 -0.853 0.328 102 79 47 0 0
-0.2280 -0.3556 -2.0761 -0.446 -0.708 0.548 88 66 31 0 0
-0.2385 -0.3654 -2.0939 -0.377 -0.804 0.459 91 69 30 0 0
-0.2474 -0.3738 -2.1549 -0.446 -0.553 0.703 100 77 35 0 0
-0.2806 -0.4048 -2.1876 -0.637 -0.394 0.662 125 97 51 0 0
-0.2857 -0.4095 -2.1935 -0.592 -0.689 0.418 124 95 53 0 0
-0.2965 -0.4196 -2.1984 -0.422 -0.844 0.329 130 101 57 0 0
-0.2977 -0.4208 -2.2029 -0.422 -0.844 0.329 134 105 61 0 0
0.0860 -0.0555 -1.2285 -0.006 -0.251 0.968 140 117 82 0 0
0.0557 -0.0838 -1.2267 -0.218 -0.419 0.881 105 87 60 0 0
0.0083 -0.1281 -1.3828 -0.556 -0.693 0.458 133 105 68 0 0
-0.1106 -0.2394 -1.5758 -0.712 -0.617 0.336 103 79 39 0 0
-0.1118 -0.2406 -1.5801 -0.742 -0.597 0.306 98 77 42 0 0
-0.1458 -0.2723 -1.5952 -0.256 -0.220 0.941 155 126 82 0 0
-0.1779 -0.3023 -1.6320 -0.543 -0.805 0.238 74 50 22 0 0
-0.1915 -0.3150 -1.9671 -0.699 -0.556 0.450 76 56 30 0 0
-0.1969 -0.3201 -1.9788 -0.577 -0.693 0.433 67 45 22 0 0
-0.1989 -0.3219 -1.9825 -0.529 -0.679 0.508 66 44 21 0 0
-0.2245 -0.3459 -2.0601 -0.480 -0.594 0.645 84 59 28 0 0
-0.2264 -0.3476 -2.0639 -0.586 -0.572 0.574 94 71 37 0 0
-0.2303 -0.3513 -2.0713 -0.406 -0.853 0.328 89 66 35 0 0
-0.2315 -0.3524 -2.0759 -0.550 -0.766 0.333 85 62 30 0 0
-0.2338 -0.3546 -2.0851 -0.585 -0.736 0.341 146 121 69 0 0
-0.2360 -0.3567 -2.0885 -0.650 -0.666 0.365 100 78 39 0 0
-0.2373 -0.3579 -2.0930 -0.650 -0.666 0.365 83 64 27 0 0
-0.2477 -0.3676 -2.1049 -0.675 -0.662 0.326 96 74 34 0 0
-0.2488 -0.3687 -2.1095 -0.675 -0.662 0.326 94 72 33 0 0
-0.2504 -0.3702 -2.1136 -0.555 -0.610 0.567 94 72 33 0 0
-0.2518 -0.3714 -2.1180 -0.316 -0.714 0.625 98 76 37 0 0
-0.2892 -0.4064 -2.1932 -0.592 -0.689 0.418 123 95 51 0 0
-0.3293 -0.4440 -2.2518 -0.766 -0.417 0.489 79 69 53 0 0
-0.3315 -0.4460 -2.2551 -0.840 -0.373 0.395 98 90 76 0 0
0.2017 0.0594 -1.1054 -0.951 -0.302 -0.071 181 179 179 0 0
0.1862 0.0449 -1.2016 -0.012 -0.786 0.618 134 127 113 0 0
0.1815 0.0406 -1.2044 0.042 -0.717 0.696 137 130 114 0 0
0.0461 -0.0864 -1.2281 -0.187 -0.677 0.712 110 90 62 0 0
0.0061 -0.1238 -1.3678 -0.276 -0.736 0.618 111 88 54 0 0
-0.1479 -0.2681 -1.5960 -0.265 -0.265 0.927 162 135 88 0 0
-0.1817 -0.2997 -1.6314 -0.543 -0.694 0.472 75 52 23 0 0
-0.1870 -0.3044 -1.9233 -0.521 -0.772 0.365 70 50 26 0 0
-0.2023 -0.3187 -1.9824 -0.660 -0.581 0.476 66 44 21 0 0
-0.2300 -0.3446 -2.0635 -0.800 -0.291 0.524 91 68 36 0 0
-0.2323 -0.3468 -2.0669 -0.442 -0.492 0.750 86 63 31 0 0
-0.2346 -0.3490 -2.0702 -0.494 -0.803 0.333 91 68 37 0 0
-0.2361 -0.3504 -2.0803 -0.561 -0.714 0.420 90 67 27 0 0
-0.2376 -0.3517 -2.0845 -0.561 -0.714 0.420 128 105 59 0 0
-0.2395 -0.3535 -2.0883 -0.581 -0.698 0.419 108 85 50 0 0
-0.2407 -0.3546 -2.0929 -0.650 -0.666 0.365 90 69 35 0 0
-0.2444 -0.3581 -2.1006 -0.607 -0.625 0.491 90 66 28 0 0
-0.2487 -0.3621 -2.1075 -0.700 -0.610 0.372 98 76 37 0 0
-0.2573 -0.3702 -2.1213 -0.455 -0.742 0.492 92 70 31 0 0
-0.3280 -0.4364 -2.2456 -0.864 -0.438 0.248 112 92 57 0 0
