ply
format ascii 1.0
element vertex 700
property float x
property float y
property float z
property uchar diffuse_red
property uchar diffuse_green
property uchar diffuse_blue
end_header
0.13484777720626492 0.4009979012897741 -2.049612846302354 111 87 51
0.13262276519717225 0.4084434306069198 -2.049786784454127 86 68 37
0.1328770676448573 0.40838578972167294 -2.0558888396192843 65 47 25
0.13225534023933405 0.4109787142675141 -2.059891873566056 61 42 25
0.1311610052366622 0.4150002804207982 -2.0627524276434146 60 41 24
0.12999253023213653 0.41924488694388373 -2.0654254462951918 61 42 25
0.12903755851688278 0.42284315233115444 -2.0686073038939576 59 40 23
0.12966122446663722 0.42167162892476384 -2.075622809604464 50 33 16
0.13043287116634525 0.42005501501047104 -2.083013323461466 46 30 14
0.13171888983737562 0.41688745862227006 -2.0916777464977123 48 31 13
0.13281914265285555 0.4142835672541526 -2.0999094204115027 71 54 33
0.13155873117438216 0.4188057833509161 -2.102357842911284 63 44 22
0.1324824789227834 0.4167376490356045 -2.1101798213802834 85 61 36
0.13288659817877968 0.4162389993666551 -2.1167356506101136 102 80 53
0.1333478668789038 0.4155695140346686 -2.1234444560060695 96 77 51
0.12435355957391497 0.44411809491996457 -2.112194639935959 55 40 21
0.12866316770419095 0.43185182233954533 -2.128486728629738 52 36 19
0.12937034544955014 0.4304428920161183 -2.1358201772990015 53 37 21
0.12622253696814606 0.44064252070355636 -2.1334900651074524 53 37 21
0.12156637475369231 0.4553776399862696 -2.1273276939979535 51 35 19
0.12100286338862361 0.4577904627248962 -2.1314396582123694 48 32 17
0.12043946339135136 0.460202777537155 -2.135550569967217 68 52 37
0.11987617476187552 0.4626145844230464 -2.1396604292624968 54 38 23
0.11909933667679563 0.4656682604358637 -2.1432257516002835 50 34 19
0.11948842018900112 0.4652170206127728 -2.149760346164908 50 34 19
0.12027946298783422 0.46355942615087875 -2.1573339627479933 51 35 20
0.11873212047812204 0.46892838946119186 -2.1589296838154524 51 35 20
0.11855127004025037 0.4701917813125253 -2.1640231136897627 57 41 25
0.11856317241364497 0.4708769675165976 -2.1696169607254037 53 36 18
0.11852410480481326 0.47171595059026106 -2.1750854334248344 59 42 20
0.11847844694039318 0.47257543807754354 -2.1805424720804765 68 51 25
0.11745577144599609 0.47636635933889027 -2.1834680204451735 75 55 28
0.11741548669119514 0.4772103316654982 -2.188943659428848 77 58 29
0.11752172393402359 0.4776157729121112 -2.1948073695264805 78 57 28
0.11594019148107182 0.4830805456266877 -2.196262231596531 78 57 26
0.11470718213531882 0.4874991385400272 -2.1986164679946576 77 56 25
0.11400541597960946 0.49032514924185894 -2.2023576280156774 71 51 25
0.11345404715641473 0.49270038600675997 -2.2064921518404663 55 38 19
0.1126967962169518 0.4956917941663748 -2.210081225924576 48 34 18
0.11198460550862557 0.4985478363885126 -2.213785758871709 46 33 17
0.11009219873194952 0.5049344678427172 -2.2143511332320913 47 34 18
0.10959276334525304 0.5071522628250267 -2.2186077079444457 42 29 14
0.10774730117729062 0.5133947467678692 -2.2192692878544413 42 30 14
0.10740470811643052 0.5151423941683675 -2.223935646616619 54 40 21
0.10959407426608989 0.5093238636996954 -2.23539921253808 60 45 25
0.10852111108980449 0.5132561048658125 -2.2381206700279503 60 45 24
0.10522891293787824 0.5238152375611129 -2.2348475479957592 61 46 25
0.1065935953222977 0.5204652569962556 -2.244129392603744 68 56 32
0.10540103013227363 0.5247514622755015 -2.2465032327981826 68 58 31
0.10475669523547489 0.527400482146207 -2.2503571260816218 71 58 31
0.10425805339240199 0.529614564282604 -2.254605478879314 73 61 33
0.10463527533206167 0.5292165798709552 -2.261245664740852 88 80 59
0.10912756979417529 0.5165517468913953 -2.2791652973949628 129 124 112
0.09728661987145223 0.5554736117755883 -2.274678754285129 204 205 207
0.179909401178574 0.13735352326234007 -1.051830958714041 102 92 78
0.17911766634391427 0.14046909045339517 -1.0555391463848984 102 91 76
0.179065876192342 0.1412408824961478 -1.0601088557956486 103 92 77
0.17808481112146296 0.14495544077799238 -1.0635911769627158 102 91 76
0.17801046413175742 0.14579904771499663 -1.0681374123748595 95 83 69
0.1799000877443936 0.14042753364602417 -1.0750141672477422 102 90 76
0.17844142406799485 0.14565362687775207 -1.077930827220008 112 99 86
0.17881701631770533 0.14507573535904966 -1.083028997638187 100 87 74
0.17869850602285825 0.14606168669668362 -1.0875425325158827 94 80 68
0.17881096229958293 0.14631773226616684 -1.092337789166607 88 77 64
0.17860844568949164 0.14757028821492907 -1.0967574351508178 88 79 66
0.17891408140748055 0.14721702876630294 -1.1017973504491596 99 90 76
0.18170687442521588 0.13900523122071495 -1.1098818922417317 102 92 79
0.18303398266857937 0.13542849120038997 -1.116202793774415 103 93 83
0.18473693588973067 0.13066699104278906 -1.1230049391908277 107 100 92
0.21002810136254435 0.08406334853762398 -1.4077120577056799 101 93 80
0.20609201199506777 0.09702212870825822 -1.406871481112775 102 92 77
0.20522819299112616 0.10038594306377113 -1.4106475016996667 99 88 74
0.20203143095130754 0.11102968078064529 -1.4108717254957828 94 83 69
0.20143966979520805 0.11354183042812144 -1.4150412870096951 107 96 81
0.19965553452512938 0.11977315511410624 -1.4173832079154343 108 95 79
0.19108128754346754 0.1471779907075877 -1.409273539908706 101 87 68
0.17953619461899895 0.18775684749687654 -1.4263792291816795 108 90 62
0.17887571846070022 0.19046891018403217 -1.430333622999502 105 87 59
0.17740768849378014 0.19569379559974664 -1.4330041579565886 101 84 56
0.1772114684015474 0.19696022602075208 -1.4376887766597208 85 69 42
0.17586047960075646 0.20181900857664353 -1.440530818730125 74 57 32
0.1747377421600529 0.20596665288538862 -1.443728877362766 75 59 36
0.17360373637785056 0.21014834829666373 -1.4469013116842986 77 60 38
0.17303905978599976 0.21255936221083116 -1.4509855020234292 81 65 44
0.17203931596192606 0.2163222359312385 -1.4543634202869884 112 96 72
0.17195572835707035 0.21723790643399032 -1.4592249145231784 112 95 66
0.17098165251752445 0.22092011180540572 -1.4626375558335782 119 98 65
0.17053048741068955 0.22297769083421176 -1.466900477492696 126 102 68
0.17021778572950125 0.22460538519551254 -1.4713908793385968 104 81 50
0.16989205932926948 0.22627371189837753 -1.475861366694852 87 69 40
0.16912731125749747 0.2293045970040814 -1.4796070584288858 74 56 22
0.16799817086496327 0.2334655315904327 -1.482744401818256 123 101 62
0.16706543406388677 0.2370162725303166 -1.486201189969468 142 114 75
0.16607274631811686 0.2407522054629163 -1.4895523505754775 150 119 79
0.17022614273776437 0.22853324758769306 -1.5015259855826493 137 108 72
0.17007411879684986 0.22966575930072786 -1.5063083252988645 120 97 65
0.16939494636673216 0.23243222017368348 -1.51020421338901 81 62 31
0.16819587841372183 0.23680898391717925 -1.5132169710877341 84 65 35
0.16387449713417251 0.25085525750359516 -1.5109151781971337 83 64 34
0.16250473425587103 0.2557560251385692 -1.5136021793985464 83 63 34
0.16200618739667674 0.2579583357191212 -1.5177691748936917 89 67 40
0.16679261517870136 0.24380346095838362 -1.5310071178267504 88 67 40
0.16523125740963576 0.2492982077108074 -1.5333727845047205 74 53 22
0.1635673243406635 0.2551086125634581 -1.5355485587230517 108 89 49
0.15882115273216246 0.2704498702973211 -1.5323671545276736 193 170 123
0.1689678435350659 0.24241100939571542 -1.575422113028242 105 82 41
0.16539113666309732 0.2541273818910157 -1.5742071788663956 110 87 45
0.16226122547487198 0.2644595563394962 -1.5737488288603951 100 78 37
0.15810472502601647 0.27795650884497436 -1.5714328485255002 109 86 48
0.15694650677740235 0.28219517856485854 -1.5744268688397751 106 84 46
0.15719614893334283 0.28208919553418316 -1.5799342389480067 106 85 45
0.15751948554744685 0.28308969599067185 -1.5957352806544947 120 99 60
0.15288013382474253 0.29805648962366993 -1.5924031342193814 122 100 65
0.1522896093548961 0.3005407026975341 -1.5963911483708535 117 93 59
0.15107833264271148 0.3049370357902443 -1.5992441669434108 130 106 70
0.15070724600053492 0.3067444951035756 -1.6036272083985375 135 111 78
0.14809800572980847 0.3154436783164476 -1.603898755425793 110 89 58
0.1463847460006863 0.32138138686597095 -1.605796635403311 130 109 77
0.14477140444089553 0.32700964839432706 -1.6078645128122417 126 104 70
0.14316549539831241 0.3326132541707626 -1.6099325628477574 125 106 68
0.1407841249379959 0.340600466659413 -1.6105441329323151 147 125 89
0.13845748048090123 0.3484164076102969 -1.611235214381919 134 111 73
0.1360087295969487 0.35660487848912353 -1.6116756246971589 123 104 70
0.13371577282984848 0.3643113880406525 -1.6123851642316156 105 85 54
0.1315117022668849 0.3717419000247684 -1.6132404725519807 134 111 77
0.1300838531873142 0.3767849576551555 -1.6155421743766303 113 90 50
0.1289009715159834 0.38107408290811867 -1.6182967114729616 133 113 72
0.1286455353091936 0.3825141595434377 -1.6228063309723684 113 93 60
0.12834184669864523 0.384102652748437 -1.6272260745323148 68 46 23
0.12891531169346312 0.38299924375612704 -1.633325942637872 76 55 27
0.12971156275616288 0.38121381509279484 -1.6398654155239798 98 78 45
0.13022467421396505 0.3802988634862937 -1.6458743491851304 94 74 42
0.13116659428945632 0.3780703152667651 -1.6527227424034825 97 76 48
0.13247622226602226 0.37471651007522633 -1.6602998635564954 115 96 70
0.15394664659868001 0.31297782020161957 -1.7330564077173833 76 62 36
0.1528801256160741 0.3169262424104464 -1.7361587429465863 83 66 37
0.1553612939734622 0.31001850448984414 -1.7462953771844962 94 76 43
0.15425549247703552 0.31408795449237065 -1.7493261270025642 103 83 48
0.15437811403581664 0.31439959136973933 -1.7548020302771488 108 88 55
0.1575385735026023 0.3054241354861425 -1.766369025592041 102 83 50
0.15511773528608952 0.3135144589324464 -1.7667677777146147 106 86 52
0.15648606697385475 0.31002250308686685 -1.774777353194353 108 88 54
0.1563189418946871 0.31122436450427327 -1.7797060327562395 102 82 48
0.15598067931114284 0.31294938982915504 -1.7842913613661895 100 80 46
0.1561507226195714 0.3131224967166031 -1.789911448032591 105 84 53
0.15427670060962306 0.31953652625922874 -1.7913715575318514 96 76 44
0.15557210871429 0.3162754930836319 -1.799295749127305 96 76 42
0.15650270074606076 0.3141303391591681 -1.8064929200806599 114 93 62
0.15497076361038753 0.3194989080523781 -1.8086415283124726 101 80 52
0.15548196771082318 0.31863515187790314 -1.814992237911297 88 67 36
0.1557827501210895 0.31841446075206514 -1.8209193350636366 98 78 45
0.1555396359813165 0.3198527456583846 -1.8257269954502842 95 75 43
0.15350627467208205 0.3267465157221718 -1.826811380329805 88 67 39
0.1518978049808368 0.3323434104297697 -1.8287635308210424 93 72 43
0.15191096943630183 0.3329997098612237 -1.8340964293044177 90 69 40
0.15104751310286324 0.33632585305905166 -1.8375946328276858 87 66 37
0.1509405402274123 0.3373486555460105 -1.8426807544812016 88 67 38
0.15321945795643777 0.3311114134511883 -1.8528094424843347 89 68 39
0.1531977023137347 0.3318780008852432 -1.8580992345790328 89 68 39
0.15263103714919735 0.33430265788257874 -1.8622370606738796 88 67 38
0.15191065746429427 0.33719455099945517 -1.8660461803001274 89 68 39
0.15171098963291874 0.33850309934866446 -1.8709644551334295 89 68 39
0.1512777951715273 0.340521785892401 -1.8753856549467394 90 69 40
0.15050261079655575 0.3435795924237417 -1.8790724528992535 92 72 43
0.1513711619412795 0.3416440264990955 -1.8862969870993258 88 69 39
0.14966231711916553 0.34753739757619506 -1.8879687665866287 87 66 37
0.14902359584346705 0.35017996896248643 -1.8919440505447833 91 70 41
0.14850365832893464 0.35246173423913674 -1.8961752734852402 83 62 33
0.14887424352530781 0.3520413142061075 -1.9023464569757096 83 62 33
0.14870924128094004 0.35324692874238206 -1.9073574268225517 81 60 31
0.1483091682348427 0.355165912800984 -1.9118568785931285 81 60 32
0.14824773256894352 0.35605830389401916 -1.9171013636222554 80 59 32
0.14897135573344533 0.35457181558740236 -1.9240811125815693 81 60 33
0.14808511066104676 0.35796549546789125 -1.9275173833111705 80 59 32
0.14779811614347088 0.3595431193000179 -1.9322766032369199 80 59 32
0.14799337517874286 0.3596604884892486 -1.9381099026162443 78 56 31
0.1444387988549828 0.37113252658061197 -1.9355933504621212 75 53 29
0.14461291319985592 0.37131298333982127 -1.941372409047672 71 49 25
0.14487668529117453 0.37122316616129264 -1.9473603572855744 76 56 32
0.14421682207776546 0.3739288125630989 -1.9512813744362139 76 56 32
0.14422122263717685 0.3746250823812482 -1.9566970944043192 69 49 25
0.14531107861256892 0.3720400741898008 -1.9645719500811036 70 50 26
0.1458429264852362 0.3711443858751816 -1.971201581615656 77 57 30
0.1461918476492381 0.3708031428236269 -1.9774279616680384 72 52 27
0.14652213678901715 0.37051953041968655 -1.9836220870861307 67 47 27
0.14697522198140867 0.36986634097349125 -1.9901068239835629 58 40 18
0.14706246559962913 0.3710366128339414 -2.0012291864119076 56 38 16
0.1463643931608313 0.37386135487848127 -2.0050909970101047 57 40 18
0.1458760547791218 0.3760529331468154 -2.009434457205941 55 39 16
0.14521766536405076 0.37875738427929806 -2.0133836486396692 55 39 16
0.14307549572602718 0.38593568798201416 -2.0138833583779294 54 38 15
0.14403381287264927 0.38376460921125277 -2.0215843417106036 53 37 14
0.14305515693938847 0.38743340148893546 -2.0247789427604177 54 38 15
0.14111431718837164 0.3940002918682951 -2.0257134176834706 60 42 20
0.14016146483967062 0.3975888454685772 -2.0289494452045016 60 42 20
0.13930973683681086 0.40087207453045215 -2.0324173871928095 74 56 30
0.14010110036738085 0.3992083174171285 -2.039760161112199 87 66 33
0.13945975973455904 0.4018584521381744 -2.0437268074510673 110 85 50
0.13884826195412792 0.4044185013822218 -2.047762038835924 112 88 53
0.13768642772948586 0.40863364386101486 -2.0504853537607377 75 57 27
0.13676573770794254 0.41212248615430735 -2.0537753055725707 62 44 22
0.13675056140280104 0.4128884137966644 -2.059226497731539 57 39 21
0.13592146055028326 0.4161012223837969 -2.062730315423683 53 36 18
0.13472406199734305 0.42041996745676835 -2.065343296359655 58 41 23
0.13682799288784844 0.4148213965553307 -2.0759112346763864 57 40 22
0.1345432496332727 0.42240554848434164 -2.0758963782564503 50 33 17
0.1349270557914659 0.4219757115595918 -2.0823302495519966 48 32 16
0.1354902855109329 0.4210088357798175 -2.0892113666194736 56 39 21
0.13538527381930393 0.422048610756684 -2.094476398941492 66 49 28
0.13552122730972044 0.42236623694317443 -2.10033516640924 71 50 26
0.13456665715586463 0.4259549071632994 -2.103528629915245 100 76 47
0.1333417172300556 0.4303532411229516 -2.106051276123362 104 81 54
0.13219242162584954 0.4345235842777394 -2.108750464103201 102 83 58
0.13031157530597384 0.4408845076980549 -2.1096333709375936 71 55 33
0.13006294491004064 0.44235423984969047 -2.114541070939326 53 38 19
0.13011115713251958 0.4429354955293785 -2.120188807221492 48 32 16
0.13325106192191122 0.43426274173089774 -2.133541946390791 48 32 17
0.13065778146136836 0.4427533567130355 -2.132628262675757 51 35 20
0.12754505790224074 0.452794374181709 -2.1303865524975185 51 35 20
0.12728662122554635 0.4542939666336204 -2.1352736846360165 47 31 16
0.12619666798719703 0.45828017830320755 -2.138071185239266 47 31 16
0.12524350897500738 0.46185640973860365 -2.141205581407587 50 34 19
0.12482011718456396 0.4638486826447192 -2.1456735155519646 49 33 18
0.12476428878591074 0.46474294169929464 -2.1510740690312202 49 33 18
0.1273094464043377 0.45786980209331396 -2.163092914301503 48 32 17
0.12431010551510085 0.467556257077282 -2.161018086608384 54 38 23
0.1236747523743965 0.47018213310352885 -2.164951378083744 60 45 29
0.12380032244992617 0.4705371112328509 -2.170832052616213 52 38 20
0.12362478010787803 0.4717913687579761 -2.175946984986023 54 39 18
0.12311958614645109 0.4740292360314806 -2.1802167220498316 61 45 22
0.12246470177393871 0.4767133183299579 -2.1840993984235064 64 48 21
0.12209191103284929 0.47855627714151106 -2.188709780660118 68 50 23
0.12190571459735422 0.47984340412218174 -2.1938056241660804 74 53 26
0.12090250158856038 0.4835647395538536 -2.196779336250202 78 58 28
0.11995640749838798 0.48711503798338984 -2.199894876071136 73 54 26
0.11925643167586503 0.48993178640395707 -2.2036476419483817 64 45 24
0.11840470879430617 0.49319974677964107 -2.20699939174328 56 39 26
0.11710509286858416 0.49779964477785615 -2.2091686626401907 42 28 14
0.11648896434088123 0.5003650921936338 -2.2131278827068246 42 29 14
0.11671361301185564 0.5004301741767743 -2.219306262188601 42 28 14
0.11593932766295864 0.5034659671674884 -2.22284809511134 41 28 14
0.1158727245107279 0.5043981242998457 -2.228264817241646 50 37 21
0.11496065690190901 0.5078427820351605 -2.2314362637944325 57 43 24
0.11558127355900583 0.5067345186630002 -2.2386918669235296 58 43 22
0.1138465732621543 0.5126214667032307 -2.2396606906829137 57 42 22
0.11265170606710234 0.5169037978135206 -2.242060289949999 59 44 25
0.11152510393334711 0.5209822651268146 -2.244633577372128 66 54 32
0.11063662677177426 0.5243531570981805 -2.247839781065803 74 64 37
0.11006526322279471 0.5267828537637844 -2.2518971537432138 72 61 34
0.10985549878952645 0.5281403092051147 -2.2569326214986596 73 63 39
0.10982886765595161 0.5289554309757131 -2.262468836513137 98 91 74
0.10498554114426832 0.5469819043710402 -2.277286698551715 201 202 204
0.1893935856986517 0.12758714543648414 -1.0949217471512112 129 124 119
0.18993641380025117 0.12650311850490537 -1.1002618977764493 113 109 104
0.19003294816000257 0.12682382362349964 -1.1050746023278986 107 103 99
0.21603309376355356 0.08204800308503823 -1.4146187312743312 100 91 77
0.2120645644902015 0.09504663451347695 -1.4137464850426698 101 91 79
0.2086553191624732 0.10630440448288025 -1.4136820202682174 98 89 77
0.20809791425125668 0.10870909456468025 -1.4179150570662264 91 81 70
0.20831941221987518 0.10869740498104818 -1.423333869812237 94 81 67
0.20659484086319357 0.11472221605589805 -1.4257843080299002 95 82 65
0.2049720852338851 0.12042949256751467 -1.42837716058705 99 86 66
0.20483565198079495 0.12152759174306443 -1.4332464338945456 102 87 63
0.1833772086282382 0.1926814465249596 -1.4350622262466661 86 69 43
0.18251726429217713 0.19600687085150148 -1.4387005514238933 89 72 47
0.18168856986964937 0.19923502999504422 -1.4423840504865324 94 76 53
0.18133650612640537 0.20098861548580077 -1.4468237841743166 105 88 65
0.18016413234963335 0.2052786205530271 -1.449951382940706 118 99 75
0.1792470198136037 0.2087785230291752 -1.453481055755246 103 87 62
0.17866479833767318 0.21124280235170034 -1.45754541797328 104 88 59
0.1777983204640189 0.21458513510540794 -1.4611485152373362 107 90 57
0.1767575783849491 0.21846513588028338 -1.4644641294209824 112 94 58
0.17728620315064347 0.2174978341528236 -1.470329309665772 110 91 58
0.17718672554381915 0.2184711917034196 -1.4751788992752441 94 77 48
0.17795417997484297 0.21676915163632277 -1.4814541564299286 84 64 34
0.17450462844641784 0.22808224044892772 -1.4808037956470002 124 101 62
0.17322538131104825 0.23269511142492322 -1.4837033488205702 149 123 79
0.17242525211341908 0.23582894584512293 -1.4873873981876278 137 110 68
0.17175518820622845 0.2385611799441567 -1.4912837444469884 138 112 73
0.17109078885059936 0.24127562312221623 -1.4951870752261367 135 107 75
0.17603583566961384 0.22670041465842533 -1.5084760670715507 95 70 40
0.17543303484226458 0.2292286054739529 -1.5125096149645554 84 64 34
0.17239099725639712 0.23927108952902187 -1.5124316429813303 84 65 35
0.16993148999955265 0.24751553531805992 -1.5133092392622367 82 63 33
0.16973628481962091 0.24878476623673929 -1.518004813647214 84 64 34
0.17173054721130315 0.2433142560436623 -1.5264293852087891 92 72 41
0.1723597447396616 0.24204865681327392 -1.5325508018001492 84 63 33
0.17076382952326274 0.2476311935725709 -1.5348725056108488 87 67 28
0.16710220672406087 0.25956647871155736 -1.5336306458750346 166 145 97
0.1651217758758462 0.26632655317728715 -1.535251571455716 172 146 94
0.1651463032199717 0.2669197478288763 -1.5403240668728735 162 131 84
0.16566180260887925 0.2660044581928782 -1.54625422788976 128 100 59
0.17500443422671347 0.23864168029660915 -1.5726702561961838 102 79 40
0.1725948165860738 0.24672197209211894 -1.5735532193534403 102 78 40
0.16844822387586716 0.26013332738350387 -1.5713590582282737 102 79 39
0.1648714711318931 0.2717895976692835 -1.5701281099839728 102 80 39
0.16511694904210392 0.2717093416936721 -1.5756272609328674 109 87 48
0.16411608752877876 0.27545465290401455 -1.5789210689423863 110 88 50
0.1616625496149172 0.2836556888477781 -1.5796204914922454 113 92 52
0.1592122901881236 0.2918436136553155 -1.5803027844604198 109 84 48
0.15774483647710652 0.29701490445620804 -1.5827243469048655 120 96 58
0.15795842473926264 0.29703134241379947 -1.5881581216396605 129 107 65
0.15700306230998728 0.3006313609905623 -1.5914900390523186 125 102 63
0.1594126802173756 0.29392028769025147 -1.6009079608807761 139 116 79
0.15697225506145662 0.30207043516316706 -1.6015505421371394 132 110 72
0.1560394766668911 0.3056004036602585 -1.604916931464677 129 108 73
0.15321187876115838 0.3149310004703982 -1.6048145794706377 125 105 72
0.15125851818922625 0.3215819562585884 -1.6062875912068988 136 116 81
0.14910565706866605 0.32884109696013264 -1.6073762196883772 138 115 79
0.14763554523167066 0.33400881066223875 -1.609704786166547 122 100 62
0.14532583733286536 0.34174294831531227 -1.6104674678727673 119 99 68
0.14293208967560234 0.3497311864623235 -1.6110524452197013 109 90 61
0.1409749977481276 0.3563815216317961 -1.612428021105342 137 117 84
0.1392138733326196 0.36243057840950327 -1.6141521029233095 110 87 59
0.1370823546953529 0.3696093404718048 -1.6151666329581393 127 104 73
0.13630985769722864 0.3726340131928692 -1.6187164150347533 109 87 48
0.13450129185535048 0.3788222962810802 -1.6203084600020439 103 84 42
0.13409135317540516 0.38073817367042917 -1.6245302914731992 104 84 50
0.1339588830836502 0.38180714930838083 -1.629278992987118 70 49 23
0.133733685356498 0.38315957609445533 -1.6338548074019585 91 71 39
0.13485877537726026 0.3803928043983701 -1.6410112271012312 94 74 40
0.13564840245836046 0.37865166509259135 -1.6475435773357543 94 73 41
0.1365056836598744 0.3767061527749128 -1.654220370424262 101 80 53
0.15882899164868935 0.3134626988014453 -1.7334177229984342 79 65 39
0.1589255627563294 0.3138612531568643 -1.7388170150420175 92 75 45
0.1592915816128482 0.31344095866497906 -1.744754814687294 99 81 48
0.15999570828218984 0.3119936297281378 -1.7513718912078908 102 82 50
0.16079712687055686 0.3102523058778676 -1.758196006779041 104 84 53
0.16177163837297615 0.30798679692066 -1.765379919857826 103 84 51
0.16029231791803664 0.31318090593021797 -1.7676781236237546 93 74 38
0.16159313316197477 0.3099265951820251 -1.775535478689716 110 90 55
0.16141477425380668 0.3111680327604986 -1.7804407811072824 103 82 51
0.16123783930201296 0.31240559267095913 -1.7853523127147213 94 73 43
0.15855605101764453 0.3212480512688448 -1.7852026439439084 97 76 50
0.15959201266035197 0.3188032662133459 -1.792565568696807 86 65 39
0.16113108187550723 0.3148342875103545 -1.8009696812302076 97 76 48
0.16344748209020435 0.30851046767262197 -1.8109834560195481 110 89 58
0.16270619994668545 0.3114641053299121 -1.8147748742970782 94 73 42
0.16234528912302248 0.31326404934485963 -1.819343420501189 100 80 48
0.16121222182213607 0.31740463531403196 -1.822324127455854 101 81 48
0.1606926918557947 0.3196849460530515 -1.8265630611455006 90 69 38
0.15956570936312459 0.32380543673293966 -1.8295438646206086 91 70 42
0.15773589037051328 0.3300535326447516 -1.8310575086192122 93 72 43
0.15754902682658428 0.3313247450500677 -1.8359753750618 89 68 39
0.1563693549892824 0.3356017095943747 -1.8388234274162008 87 66 37
0.15604924162138528 0.33727625352195567 -1.8434628490572644 87 66 37
0.15898741282863768 0.32909317867697824 -1.8549472263913374 88 67 38
0.1586710349932015 0.3307595048786068 -1.8596176952618615 89 68 39
0.1556593807719414 0.3405761926586713 -1.8585963908719096 89 68 39
0.15614029602502733 0.3398305549720855 -1.8649430632134727 89 68 39
0.15657625288568727 0.33922231667392994 -1.8712056862065787 90 69 40
0.15670875391801614 0.3395324019124379 -1.8768326782876004 97 76 47
0.15695018057830604 0.33951442860879716 -1.8826996731866255 95 75 46
0.15736658415880828 0.3389692017943917 -1.8889502205181796 87 68 38
0.1559357927008969 0.344002067202798 -1.8912418596341753 86 65 36
0.1550469456333633 0.34739767299190527 -1.8946896094949175 90 69 40
0.15447313589732525 0.34984200195369225 -1.8988130093992677 83 62 33
0.1536627188638838 0.35299988513 -1.9024222116276202 82 61 32
0.15235651191329186 0.35765236728120187 -1.904949507355155 81 60 31
0.1524963805937155 0.3579436781869575 -1.9106184269816036 81 60 31
0.15190294020632528 0.3604462349948972 -1.9146918394953554 81 60 31
0.15172741719368452 0.36168927591670325 -1.919679708564661 79 58 29
0.1517051314347827 0.3624711654965155 -1.9250079495033072 74 53 25
0.15459878474500688 0.3544720356059089 -1.9367693995431816 73 52 26
0.1538462137603434 0.3574565164579956 -1.940512200051904 74 52 27
0.15145974959490766 0.3653585233647424 -1.9406295221849819 67 45 21
0.1512988446720055 0.36656028590205325 -1.945670273075041 65 44 20
0.15145399937327014 0.3668117302273628 -1.951419301499825 70 50 26
0.15137963721142558 0.36775446990051996 -1.9566629530845017 68 48 24
0.15202069969198123 0.3665467910989043 -1.9635150951800573 68 48 24
0.15219406654647086 0.36674676781184457 -1.969329703568968 70 50 26
0.1530056457849302 0.3650299483601185 -1.976590778423301 71 51 25
0.15460919818714144 0.3609359919093079 -1.9856578048120168 68 48 23
0.15172104750713616 0.3703357467442704 -1.9845703127627667 65 45 25
0.1550199442787678 0.3611545779763232 -1.9975140013340638 60 42 20
0.15339423844577915 0.36821642404763966 -2.01022417938055 54 38 15
0.1516237909307543 0.37425479511437565 -2.011636085103535 53 37 14
0.1513617933440114 0.3757680808368711 -2.0165071733612194 53 37 14
0.15061030683461252 0.3787489724275367 -2.0202499328098975 52 36 13
0.14767085270070468 0.3882860875320643 -2.0189203498306045 50 34 11
0.1464252791609939 0.3927444107829433 -2.021494386162507 49 33 10
0.1464793129455145 0.39330905779450986 -2.027085684737716 56 38 16
0.14642168537565514 0.39420891010938963 -2.0324227328087017 64 46 23
0.14597551492452598 0.39627249172650636 -2.0368549963590663 73 55 27
0.14515502142390924 0.39945627019303753 -2.0404084981847523 100 79 47
0.14484081625254147 0.4011248017216361 -2.0451495736582213 111 85 55
0.1443449004906565 0.4033370511391048 -2.0494635525397875 100 78 51
0.14447938032541993 0.40366437550638623 -2.055269433556614 63 48 22
0.14395137479335807 0.40597297167502633 -2.0595104489893217 57 42 19
0.14321136508303262 0.40891499109811724 -2.0632460956949523 55 39 20
0.1420565438689564 0.41309577090539684 -2.065988354835785 50 33 15
0.14217900961795488 0.413460638200307 -2.0717779907692537 50 33 15
0.14273704027464057 0.4125260133274382 -2.0786200773154695 52 35 17
0.14188418058821517 0.41580449176210543 -2.0820813545586367 49 32 14
0.14246645955841036 0.4147997857603488 -2.088999055776898 49 33 16
0.1420595360122218 0.4167478495884226 -2.0935379921753587 64 48 29
0.14257169022638544 0.41595500497851545 -2.100306163448939 63 45 24
0.14147292092347774 0.4199667854686673 -2.103170540667394 79 57 31
0.14018108623726772 0.4245529432581754 -2.1055561812306296 109 84 53
0.13888677368188032 0.4291450717732589 -2.107925137278241 108 85 58
0.13767141150139967 0.43350059345628755 -2.110476876329013 98 80 55
0.13575758086790182 0.43993491781120364 -2.111302901298621 61 45 23
0.1347423268701873 0.44369150078273933 -2.1143236911047154 50 34 17
0.13719961508678513 0.4371116171081826 -2.1259137281293694 49 33 17
0.13637483920353338 0.4403025215085118 -2.1294143735000426 47 31 16
0.13595182226355929 0.4422977200514646 -2.133907808146308 44 28 13
0.1334358039186498 0.4505171027542947 -2.133191904001395 45 29 14
0.1333516568405657 0.4515032095849011 -2.1385185475725583 48 32 17
0.13194246352872083 0.456428072443282 -2.1405346247068664 48 32 17
0.1311106870574995 0.4596356894268431 -2.143986957256159 51 35 20
0.13027675236558955 0.46284907918202844 -2.1474290629640507 51 35 20
0.13041179703615294 0.4631844881313276 -2.153309808377504 49 33 18
0.13210672990952915 0.4588902723638819 -2.163142096632961 47 31 16
0.1290870281445738 0.4685915063297522 -2.1610521388988855 47 31 16
0.12883611199116068 0.4700737318193393 -2.165965055654146 46 32 16
0.12869149217854603 0.47124105340644107 -2.171151572129439 46 33 17
0.12873790259878648 0.4718425042879699 -2.1768302251588807 47 32 16
0.128357625730946 0.47370964543750493 -2.18142284006331 51 34 18
0.12747667621161665 0.4770606066162084 -2.1847310647651677 55 39 17
0.12665166510332954 0.48024512135110975 -2.18817779149723 61 44 21
0.1262499973276917 0.482175223405265 -2.1927122641785832 62 44 21
0.12518423640176296 0.48607163951661225 -2.195529369670028 61 44 21
0.12433083182841108 0.4893384534347171 -2.198889345979046 58 42 22
0.12354065781164093 0.4924174834686535 -2.2024085920403222 52 37 20
0.12255449611467861 0.4960756902681925 -2.2054125562278375 44 31 17
0.12098913614397494 0.501445796474484 -2.2068957535846474 43 29 16
0.12178152461519734 0.49984363858594005 -2.214542338254139 43 29 16
0.12160268025372876 0.5011141357653851 -2.2196541922432274 43 29 16
0.12115478104142326 0.5031800777448379 -2.2240612337563572 42 29 15
0.11880920675843117 0.5108512068122106 -2.2234582009821575 51 38 22
0.11899878383693767 0.5110331720602792 -2.2295403151661053 55 41 23
0.11937305743457644 0.5106710785925146 -2.2361211962856418 58 43 23
0.1187965576032075 0.5131162405356735 -2.2401839832505575 60 44 26
0.11765890169845401 0.5172166975596171 -2.242748713652707 63 47 31
0.11667859142515083 0.5208518999620898 -2.2457250863435725 59 46 26
0.11587550301528628 0.5239636628364053 -2.2491695172402073 72 62 35
0.11544337744377924 0.5259814086323016 -2.2536061253691364 73 63 37
0.11531964058448761 0.5270905088772302 -2.2588738121797833 79 69 48
0.11534608575635247 0.527757819300857 -2.2645515738878683 111 105 92
0.11625838909213641 0.5258173153464523 -2.272633974578575 154 153 147
0.10942984306166159 0.5488974066700973 -2.276502276220498 202 203 205
0.22048499602202026 0.08488758181468703 -1.4191888014789176 102 91 81
0.21586947328048842 0.09982122933105808 -1.4173515259966831 99 89 77
0.21411674315501644 0.105914695819331 -1.4197932170591123 101 91 78
0.21256155906579058 0.1113968247738576 -1.4225203391119066 103 91 77
0.20995032000640035 0.12013461755487309 -1.4236289495734047 102 90 75
0.20809554907719158 0.12653658448057015 -1.4258690969810572 105 92 76
0.20047748569465193 0.15138108864167854 -1.424293546313305 98 83 56
0.20206325190068997 0.14717225545970802 -1.4317760152720789 95 79 50
0.1997345394724313 0.15502574167812133 -1.4332186574147059 93 75 51
0.19765358458499405 0.16211338746997278 -1.4350258537282305 91 70 50
0.19022662545409758 0.18633286860623888 -1.433476585151804 80 62 39
0.1888695326163336 0.19118304069756192 -1.436349238072035 85 68 43
0.18837029859103221 0.19339224576016367 -1.440564044736041 95 78 52
0.1879293273194083 0.1954221520128792 -1.4448704990680419 110 93 67
0.18682571568095824 0.19949003684945216 -1.448125383627072 111 94 68
0.1856653906524925 0.20373133672455834 -1.451282766451734 110 93 65
0.1851406948190943 0.20601764328109867 -1.455448194523628 107 90 62
0.1849063762850294 0.20741143119526045 -1.460078513880108 97 80 52
0.1840070927855756 0.21084867526305334 -1.4636411507632852 88 70 41
0.18278905474879706 0.21526440153252868 -1.4666841148754945 88 71 43
0.18319596563184903 0.214688691931818 -1.4723515759994137 88 72 46
0.18299003708860548 0.21599586683949062 -1.4770321623782852 85 69 41
0.18390814304170305 0.21385312995268568 -1.483549314203998 103 83 48
0.180600213884124 0.22468131194236424 -1.4831635886352335 144 118 76
0.18014393312772156 0.22675620777928085 -1.4874301765309963 146 119 78
0.17865770885542911 0.23199024563529563 -1.4899991939135655 130 104 68
0.17758326718446643 0.23595997781208056 -1.4932376562089418 134 109 74
0.17693264469564862 0.23862942894876293 -1.4971724203331667 112 88 56
0.18263377339368775 0.2218301644896159 -1.5116801956565735 92 70 41
0.18072772639885784 0.228350789506216 -1.513548830369109 90 71 43
0.17988459484433436 0.23161294163903962 -1.5171827848681971 82 65 37
0.17727282530290595 0.2402914632057384 -1.5178379735277208 80 63 35
0.17701064632904145 0.2417722082751444 -1.5224335265242084 80 62 32
0.18026305356274114 0.23249413378426498 -1.5329813391024887 88 71 38
0.17838803738184666 0.2389142291258951 -1.5348613700934253 71 51 20
0.1755892142241614 0.24815879661673657 -1.535151011632725 132 109 65
0.17340190540919076 0.25552918382012707 -1.536459823116556 181 156 103
0.17270423966201187 0.25834125033977573 -1.5403045636014505 165 135 85
0.17248536027711447 0.2596890631068734 -1.5449705947289896 148 117 74
0.17242185539986465 0.26056229359188054 -1.5499075597143677 106 82 41
0.17240373295016848 0.2612974284452167 -1.5549275416419892 103 81 39
0.17889439869135892 0.24214761127848766 -1.5712656824939353 106 84 43
0.17757428957523919 0.2468658661310656 -1.5740619849577628 108 86 45
0.17615324919619163 0.25189101018317517 -1.5766718896193972 103 80 40
0.1722965271585449 0.2643505746289848 -1.574995747569254 110 87 47
0.17187724408292365 0.2663133961258076 -1.5793337826013387 106 82 44
0.1698322619363301 0.2732368788545779 -1.5808002932423801 121 97 60
0.16807321161470593 0.27928565418170365 -1.5827553981458162 123 99 62
0.16631927272224795 0.2853168330430593 -1.5847046732981618 118 96 64
0.16580308425889723 0.28757202586982944 -1.588846825430406 113 90 54
0.16476155178637497 0.29142852244509193 -1.5920481750779216 131 107 66
0.1640289731890253 0.2943425635230451 -1.5957973721969068 132 109 68
0.16411673539338195 0.29475679136412763 -1.6010206530882314 141 117 80
0.16206160347296691 0.30169907048344025 -1.6023787636978952 132 108 73
0.16085411452545467 0.30605761809941323 -1.605254661869637 129 105 74
0.15864162473296745 0.31347465597048607 -1.606294672830862 129 106 72
0.15609108420137877 0.32191787631766705 -1.606697845356926 134 111 75
0.15450484825321548 0.32742356690618374 -1.6088410924018086 144 122 88
0.15238287794146563 0.3345572546407081 -1.6099879408678637 125 104 69
0.15030808454990296 0.34154485951428626 -1.6112023124232984 117 93 60
0.1477380854010183 0.350035633954674 -1.6114832632424532 119 98 71
0.1445957652067753 0.3602628315442404 -1.6106793024431496 115 95 66
0.14343965316428584 0.36444973542647746 -1.6135354314892243 135 111 81
0.14182725620534742 0.3700218212577598 -1.6155326498922364 145 120 88
0.1407209700607629 0.3740547983543757 -1.618462758327494 104 83 46
0.13975276289628685 0.37766743779378265 -1.6216441675414548 106 85 52
0.139440905283142 0.3792866559299063 -1.6260545008632972 88 67 37
0.138853433293383 0.38174259199359756 -1.629946110732599 81 60 30
0.13892744510129415 0.38219115102272333 -1.6350884276532838 95 77 44
0.14025438966197018 0.3788397136898595 -1.6426162808337663 98 77 46
0.141361792287157 0.3761568676226882 -1.649746545241611 101 79 47
0.14128053107898442 0.3770804329771654 -1.6546235600970902 87 68 45
0.1649381620750252 0.3095409745905491 -1.7309619874339568 66 50 26
0.16468704425893227 0.3110017230488191 -1.7356792973354715 84 67 41
0.16473800041993955 0.31154883162547864 -1.74099043140684 100 80 51
0.1659000064332666 0.3087359955576421 -1.7484893249475557 98 79 48
0.1657808129689871 0.30980014031101627 -1.7534838764684508 104 85 53
0.16504789133431375 0.31272027909179634 -1.7572700023128422 108 89 58
0.16601401445925335 0.3105046911464281 -1.7644194142052763 92 72 40
0.1660465509328053 0.3111123539858716 -1.7697303267425515 104 81 49
0.16665964695797042 0.30996701007209304 -1.77620427958528 108 88 56
0.1664934164404078 0.31117699397066106 -1.7811329155292326 100 79 48
0.16629050677360535 0.31249819073438584 -1.785991488062729 94 75 47
0.16482540790906158 0.3176296713249871 -1.7883147274816116 69 52 34
0.16604897069249208 0.3146460659087788 -1.7960491647429873 65 49 28
0.16758967278613027 0.3107083937110083 -1.8044452312689294 97 80 51
0.16982321818360474 0.3046842772349812 -1.8142709264475048 100 80 48
0.1687623037249052 0.30859812878059806 -1.8174247596047506 95 72 40
0.16800536175296693 0.3115947076342148 -1.8211918239776597 99 78 47
0.16656692625445996 0.3166445921375533 -1.8235604101435752 94 73 43
0.1652358241215237 0.3213695245745099 -1.826137644940564 81 60 31
0.1640125254929847 0.32576834620885203 -1.8289264086567543 92 71 43
0.16214871585135104 0.3320946597540052 -1.830383438014657 89 68 39
0.16219345557804427 0.3326731752187405 -1.8357760213357144 90 69 40
0.16176684765998284 0.33467107916981514 -1.8401957278712364 87 66 37
0.16490288568759484 0.32594975798001347 -1.8520365984785385 86 65 38
0.16612770249242692 0.32298319765810235 -1.8599283517718814 85 65 38
0.16513677734086957 0.3266824991746303 -1.8631984930957939 88 68 41
0.16249350841431354 0.335348485631108 -1.8629906264977452 88 68 41
0.1629886679316282 0.33457822645879626 -1.8693693154682816 90 71 41
0.163932792783748 0.33246050457653453 -1.8767083096255868 90 71 41
0.1645547145371261 0.3313129475466845 -1.8833815338348998 94 75 45
0.1634164880130684 0.33545306634937 -1.8863271497706613 94 74 44
0.16346885985342463 0.3360175667513686 -1.8918021277246202 87 66 37
0.16185718366485963 0.3415774960313802 -1.893726625440272 90 69 40
0.16103236142185007 0.3447744728422434 -1.8973237636955185 85 64 35
0.1603639817671827 0.3475015551597904 -1.9012527775791683 82 61 30
0.1585873605312015 0.3535519256991013 -1.9027902704945971 79 58 29
0.1576803462829614 0.3569928930243074 -1.9061916215269081 77 56 27
0.15699466633757792 0.3597697085128123 -1.9100673604265879 79 58 29
0.15718686653168712 0.3599155503520905 -1.9158488748284177 80 59 29
0.15699220679722695 0.36122139251513163 -1.9207949882849462 79 58 30
0.15725780970426348 0.3611492377838054 -1.9267506290202583 75 53 28
0.1592218231596107 0.3559931283205805 -1.9364387821516655 69 48 25
0.15930607793649065 0.3564676005982095 -1.942024022915652 66 45 22
0.15773082336002114 0.36190891796982116 -1.9439573056310928 63 43 20
0.15860394738440636 0.36002386044700596 -1.951289879229758 64 43 20
0.15866514681152166 0.36056928766064156 -1.9568388835292987 65 43 20
0.15862177819530146 0.3614282374241162 -1.9621618939528336 65 43 20
0.15859558352204578 0.36223655205343575 -1.967528388520376 62 40 17
0.15870196878169945 0.36264941199133105 -1.9731966868874973 70 49 25
0.15956067961463596 0.3608157022555889 -1.980558550182163 68 48 24
0.16184398579492343 0.35472950645354706 -1.9911391693922544 69 49 25
0.16076383962977114 0.35869036993386916 -1.9941722980876238 63 43 22
0.15768697333716866 0.36861027458371 -1.9926846011352544 60 42 20
0.15845605475775396 0.36704915434025265 -1.9998814174548278 57 40 18
0.15755922165822198 0.3704599477830771 -2.003307387044838 54 38 15
0.15703914508190459 0.37274637450584813 -2.007586611458449 53 37 14
0.15663525695530942 0.3746862854274797 -2.012130675206526 53 37 14
0.15770683444145686 0.3722283242362633 -2.0200564684506244 53 37 14
0.15585439929816458 0.3784862050031549 -2.0212829748534773 51 35 12
0.15419333793711457 0.38417164031960493 -2.0229330652752644 48 33 10
0.15195151360685172 0.39158469799562645 -2.0232265071587885 48 32 11
0.15234935458150667 0.39113549934830116 -2.0296124098818917 50 33 14
0.1524086986875617 0.3916953011528985 -2.0352228869887212 67 48 27
0.15243963155989182 0.39234053173316996 -2.0407737776090196 81 60 33
0.15190682464347527 0.394663634231313 -2.045014393235174 106 81 50
0.15035080339550258 0.40002964918265604 -2.04685818800643 110 86 55
0.14992222089364185 0.4020417818269144 -2.051335368148241 79 60 32
0.14984262320701688 0.4030166915022425 -2.056634592156817 57 43 17
0.15151436271688012 0.3987882601427818 -2.0660727731266015 46 32 11
0.14994061246587753 0.404204485326511 -2.067856359511054 48 32 14
0.14798756200439073 0.4107452469900621 -2.0687257800706234 47 32 14
0.14777055687901147 0.4121293506738448 -2.0737073064368357 47 32 13
0.14744866114506094 0.413825196000993 -2.0784417205644217 45 30 12
0.14969847954816543 0.40789054872158115 -2.089330021568138 46 30 14
0.14967008067258702 0.4087184753716353 -2.0947883819765765 51 36 16
0.14968920877232827 0.40940621222705975 -2.100366613994497 64 49 30
0.149181180675973 0.4116575947927561 -2.104679906116699 59 43 21
0.14755786186160086 0.41721435323981415 -2.106296273007736 92 71 44
0.14606739584005723 0.42237549655641504 -2.1082199206564995 111 85 55
0.14451361796386802 0.4277224106743127 -2.1099766056937126 105 83 57
0.14280151185118756 0.4335362893124107 -2.1113335531069852 86 69 45
0.14033296594057615 0.441587317244017 -2.110826371514738 57 41 22
0.14440324707748453 0.4302835574246393 -2.1263113080955454 47 31 15
0.14295349782598138 0.4353191135318315 -2.1282968877062243 45 29 14
0.141618044368775 0.44001491346327926 -2.130551278659202 44 28 13
0.14013035833923992 0.4451593373481848 -2.13241862924073 43 27 12
0.1393422249880793 0.44823411810459934 -2.136004450837294 44 28 13
0.13936077691369092 0.4489244827756239 -2.1415881278760813 47 31 16
0.13769474790829772 0.4545923672134482 -2.1429863757297825 50 34 18
0.1368693243115452 0.4577755307253185 -2.1464661664766593 53 37 21
0.13630158493603164 0.46019724805713613 -2.15058579269634 50 34 18
0.1360712773004824 0.46162280511174425 -2.1555502285912294 50 34 18
0.1378007347025408 0.45726594669317033 -2.1654447775725174 47 31 15
0.13521997309586656 0.4656276329647572 -2.164503394538761 45 29 13
0.1349298114266328 0.46723058143784946 -2.169323114685059 44 28 12
0.13455659781222828 0.4690786831146697 -2.1739346692218455 45 29 14
0.13488577990818504 0.4688567892196466 -2.180331564768008 46 30 15
0.13360159838139302 0.4733898992572555 -2.1826301585280583 47 31 16
0.13255154709872946 0.4772319343179846 -2.1855158260716085 50 35 15
0.13203884675592165 0.4794906323475505 -2.189769282292483 59 43 24
0.13160932646208495 0.48150438129618767 -2.1942355520974584 49 34 15
0.1309994148276722 0.48404906058225006 -2.1982381626826406 48 32 15
0.1303274466079124 0.48677605222493414 -2.2020787914385496 46 31 16
0.12979655875876767 0.489087741460678 -2.20628149853858 43 31 15
0.12921885978156863 0.4915369469381252 -2.210361963000489 43 29 16
0.12714664975556877 0.49837884375465674 -2.210556692226569 42 28 15
0.12681991763801753 0.5000888630778898 -2.2152782257061077 44 30 17
0.12648289880260133 0.5018293406687426 -2.219974673639985 43 29 16
0.12568137563641513 0.5049341472947768 -2.2234563509053613 43 29 15
0.1250958149687995 0.5074043277295127 -2.227500529763214 45 32 16
0.12461627750525839 0.509563119629342 -2.2318221276489325 50 37 21
0.12458067711234493 0.510419357789698 -2.237314857669443 51 39 22
0.12372585736510806 0.5136792367425722 -2.240646238235224 50 37 20
0.12266445600050759 0.5175441628975912 -2.2434245964840107 52 39 23
0.12165106643166981 0.5212672793724393 -2.2463226385874195 55 42 22
0.12081967926058604 0.5244560596922869 -2.2496984079024536 68 56 29
0.11999226229984968 0.527632546965744 -2.25307986465584 75 63 38
0.12049015126126698 0.5269270019121797 -2.260006169484479 82 76 56
0.12087359623385102 0.5265582426684337 -2.266637967454781 121 120 111
0.1215974236751734 0.5251947461094143 -2.274197270786371 164 163 160
0.11376602307075974 0.5511191627733942 -2.2754323936653735 203 204 206
0.23237102939982923 0.06421041005506511 -1.429745831825655 102 96 86
0.228748830011907 0.07603022544364113 -1.4294660529007182 100 93 81
0.22601449132535512 0.08512054788420109 -1.4304864215176882 104 96 84
0.22252413141053476 0.09652720650371305 -1.4303420581344923 96 86 73
0.2210116738750783 0.10186212588136578 -1.4331586566597758 97 86 72
0.2179859015567971 0.11183652223767615 -1.4336651704263912 99 88 72
0.21657183475594435 0.11686555681723065 -1.4366008224797013 101 88 72
0.21110454165505063 0.13431759510026675 -1.4333252553904132 101 87 67
0.21227037411224786 0.1314345231408987 -1.440179128933307 99 84 60
0.20954987243646 0.14046093629274575 -1.4410628492908457 89 73 47
0.20609737695881453 0.1517261587071107 -1.4407901430303374 96 79 53
0.20339776208946347 0.1606813543364854 -1.4416530056160743 91 74 49
0.2033708421795946 0.16145048794147748 -1.4466530923603114 93 76 50
0.19609270423841352 0.18441521246991316 -1.4403272814177734 95 78 52
0.1951605190466057 0.18795044126495186 -1.4438776248590395 100 83 57
0.19526047060167023 0.1883272729694262 -1.4490468366661742 103 86 60
0.19328390013499608 0.19505622518545174 -1.450943278951982 101 84 58
0.19056036156713407 0.20406703626523964 -1.4516394509548325 101 84 58
0.1914238625016391 0.20210842465386297 -1.4580140530826111 104 87 60
0.1914559443929298 0.20269291398275646 -1.4630766126303143 106 89 63
0.19075255761751395 0.20552544890360325 -1.4669670386413087 112 94 69
0.18975358962712927 0.20926057332491727 -1.4703798635773284 89 73 49
0.18948050782059644 0.21077793191789607 -1.474956817457052 86 70 47
0.1908297303299375 0.20734206218527906 -1.4821599047433045 83 65 39
0.19167830947700684 0.2054371802294176 -1.488570340497272 127 105 71
0.18706819732493754 0.22019345968848963 -1.48610518461622 142 116 78
0.18646678677390396 0.2227124727101279 -1.490144771913865 132 106 69
0.18446561390667654 0.2295010374158507 -1.491887557391577 120 97 63
0.18346731945593484 0.2332288824235756 -1.495263124614575 119 96 64
0.18812914282154936 0.21969907656829601 -1.5079762289177205 93 71 40
0.1876356630673139 0.22189083410500093 -1.5122072669527127 89 69 39
0.1859297207550925 0.22777730662760376 -1.5144228764406007 90 71 43
0.18452784058939842 0.23273553312502415 -1.5171315594430197 81 62 35
0.18327496581211167 0.23723847727817815 -1.5200789637586558 84 65 38
0.18446196373280535 0.23431066658049143 -1.5271130899139158 86 67 39
0.18535632519149978 0.23227622248396096 -1.5336726787409187 82 62 31
0.18385463649079786 0.23753628125198722 -1.5361984754645326 85 62 28
0.1815134492376283 0.2453491413875153 -1.5372892528737154 165 139 94
0.17976298065645835 0.25136215233277925 -1.5393636988048818 164 136 88
0.17903330402140993 0.2542687079258626 -1.5431656959956646 155 125 81
0.17924150248935677 0.254323253882059 -1.5485704455216924 120 93 52
0.1787193714211468 0.25659880042091193 -1.552728015827587 106 86 46
0.179784399247701 0.2540509553827806 -1.5596202511849002 106 84 43
0.17954971984403045 0.25545417748695537 -1.5642822327681423 107 85 44
0.18180063893171244 0.24930795938061723 -1.5732585903118999 109 87 46
0.1817078138934839 0.25028300366890815 -1.5781864180107812 106 85 42
0.18158499543159173 0.2513496611038558 -1.5830659654563477 110 89 46
0.17633816915356382 0.267968702923565 -1.578973514694084 115 93 52
0.17944649390141093 0.2592280844386123 -1.5895098787771933 116 94 54
0.17331435085551353 0.2785244441895959 -1.5837953469996024 114 90 57
0.17249739579935047 0.2816922142910625 -1.587417408144516 99 79 46
0.17537131053137045 0.2736686629804699 -1.5975843408244785 132 110 72
0.17344609351350893 0.2801975634938649 -1.599246295544086 133 110 67
0.1692457890585914 0.29361874756535505 -1.596828744984082 136 112 73
0.16961662007807712 0.29318501259144764 -1.602557476282382 135 111 76
0.1674342183906566 0.300486063594998 -1.6037070204370698 134 110 77
0.1662043385515385 0.3049000609277641 -1.60655406598896 130 109 78
0.16432450273239924 0.31128049156849585 -1.6082167082397927 129 107 73
0.1614372250041649 0.3207077930296745 -1.6080351993008046 128 104 71
0.15724037303059663 0.33409379622401597 -1.6054423275429546 150 127 96
0.15514936911140048 0.3411037252870819 -1.606651234041033 137 116 82
0.1531163682517684 0.3479356689024338 -1.6079474980338038 119 95 64
0.15193432667671725 0.3521922943015797 -1.6107889284551027 124 101 72
0.14947211405276617 0.3603172976851414 -1.6112625566183156 118 98 67
0.148940010867682 0.36260656820742865 -1.6152812012009827 137 116 81
0.14695810807798249 0.36927568942313765 -1.6166101843936134 138 116 78
