ply
format ascii 1.0
element vertex 678
property float x
property float y
property float z
property uchar diffuse_red
property uchar diffuse_green
property uchar diffuse_blue
end_header
-0.35097773552861333 1.1087899651508646 -1.2087913421617795 198 198 200
-0.5797920562130257 1.0859482556546969 -1.30581147912778 199 199 201
0.261678390990184 1.3617214311654957 -2.5849666475785633 216 216 216
0.2601442782210596 1.3623883400110368 -2.592612754849174 216 216 216
0.2566196598800268 1.3630062204806341 -2.602379706213325 216 216 216
0.5211134580568757 1.0883857518277988 0.053984178957308504 178 178 180
0.4716301093891654 1.0811830110710656 0.0517688174617959 178 178 180
-0.560852410677144 1.0769824251873767 -1.2461546157726646 193 193 195
-0.5569894662639616 1.0786167747326985 -1.2551673413857958 194 194 196
-0.549437550082205 1.0800246751547669 -1.257473838844665 195 195 197
-0.45105706472402307 1.09215281105852 -1.234287691831235 196 196 198
-0.4167470219425402 1.096330704662648 -1.2257579385784676 197 197 199
-0.3781525873435239 1.1009427935027172 -1.2154132456902556 198 198 200
-0.5076807016683058 1.0886675671332782 -1.2775802440648703 199 199 201
0.27634067828385256 1.357902378655933 -2.5715254236659573 216 216 216
0.27429346410613153 1.3585460158628984 -2.579685140416834 216 216 215
0.272346336667446 1.3591945151533715 -2.5877572095499377 216 216 215
0.5275003796783165 1.0865738320221632 0.0539718883220584 178 178 180
0.587865103476028 1.0961119352883615 0.0508708077693541 178 178 180
-0.5511428131164847 1.0726911604200702 -1.237914620731252 193 193 195
-0.5822567570013693 1.0699677638831684 -1.2551881488882497 193 193 195
-0.5557591814790199 1.0734157409372063 -1.2501907762109612 194 194 196
-0.5794612931045379 1.0714970873497736 -1.2646919179538345 194 194 196
-0.5461579955425957 1.0756612050757135 -1.2569527094745965 195 195 197
-0.29254608004389837 1.1038085350691613 -1.1673504498394132 196 196 198
-0.31811074930572975 1.1016639359144296 -1.1823441630625013 196 196 198
-0.3356518249767119 1.1003783498541246 -1.194232078938904 197 197 199
-0.3570924589113742 1.0986881018740462 -1.207739849336848 198 198 200
-0.46589075371522615 1.0883965737084504 -1.2615281392553306 199 199 201
-0.513521848624898 1.0839932603609872 -1.2859561648008278 200 200 202
-0.5674488447699331 1.078948223071098 -1.3130993840899363 200 200 202
0.2655723122676218 1.3533755428195366 -2.584875212951693 216 216 216
0.28613073509965087 1.3546775856314037 -2.5691808453156186 216 216 216
0.2875372959048046 1.355414195490336 -2.5736797601579355 216 216 216
0.5338575549277832 1.0847702720541024 0.05395965626312571 178 178 180
0.5892477075583917 1.093614776780934 0.050903934222704506 178 178 180
-0.5876762968900995 1.0646206264255247 -1.2580458460980206 193 193 195
-0.5923855203087833 1.0647242942344968 -1.2651823600235315 194 194 196
-0.6352931256931613 1.060699069317313 -1.2872452528137823 194 194 196
-0.26803093792723054 1.102090826270429 -1.1583785530394994 196 196 198
-0.2893391302139332 1.100360180691687 -1.1716544757876386 196 196 198
-0.3109752147945847 1.098602898653596 -1.1851346451742484 197 197 199
-0.33186585643471134 1.0969340719506198 -1.1983916419638425 198 198 200
-0.3538878073452061 1.0951527519458835 -1.212175343940296 199 199 201
-0.4070080356585792 1.0900629083120783 -1.2385683946330215 199 199 201
-0.47116292487860995 1.0838184338730095 -1.2696028176203396 200 200 202
-0.5128872645393331 1.0799829137229975 -1.2917376013813633 200 200 202
-0.747062229941392 1.056394523773895 -1.398144559025078 201 201 203
-0.7486119669508936 1.056884079255628 -1.4044300798968008 202 202 204
-0.7507396018716177 1.0573139565354017 -1.4109655137408714 202 202 204
0.2796511707465421 1.3495815126723485 -2.572029052884899 216 216 216
0.30678685861853167 1.3511158839026587 -2.5493342250461 216 216 216
0.3087058983510238 1.3518624251519404 -2.553244622921715 216 216 216
0.5401852938581995 1.0829750295139253 0.05394748141443362 178 178 180
0.5608266471611709 1.0864838557067589 0.05118051690462189 178 178 180
-0.03545630962127208 1.119547005745595 -1.0361096388509097 192 192 194
-0.6806851507648848 1.0496212069502586 -1.294826523499252 193 193 195
-0.7129506957511677 1.04670804326468 -1.3128311859457262 194 194 196
-0.802839787874926 1.0394523043409305 -1.3704588598011695 196 196 198
-0.27582833337803503 1.0980303699061118 -1.1718547495531226 197 197 199
-0.30425323923963604 1.095505612138987 -1.1880778879656688 198 198 200
-0.3299819172802568 1.093283990697983 -1.203314882496405 198 198 200
-0.3690268818114354 1.0896329034058096 -1.2240099826994502 199 199 201
-0.4303152768531069 1.0835963083016522 -1.2538419032864363 200 200 202
-0.47711406958308566 1.0791442209282736 -1.2779873846799799 200 200 202
-0.5122516208137081 1.0759644037022618 -1.2975308642885977 200 200 202
-0.7483020362068369 1.0518779649124055 -1.4051627346294862 202 202 204
-0.6873185198624331 1.0590548746133157 -1.3856413601492703 202 202 204
0.3257351681946902 1.346883289862298 -2.5253684308739346 216 216 216
0.32184500484287293 1.3474352691145772 -2.5353818233562078 216 216 216
0.31549353447134365 1.3479106697302183 -2.54803331097872 216 216 216
0.4880565406490203 1.0720217004387793 0.054482626070171514 178 178 180
0.5657002309738826 1.0844974334561845 0.051185651279819 178 178 180
-0.021828563831676466 1.1170857417636273 -1.031503085431446 192 192 194
-0.01924945630357034 1.1178782896833228 -1.034910765267582 193 193 195
-0.018435434083842447 1.1184738605642972 -1.0389991388737858 193 193 195
-0.5003550341681913 1.065982472871472 -1.236091721352072 194 194 196
-0.8058071344162565 1.0327218136563143 -1.3610976824218675 195 195 197
-0.8542937381026225 1.028007893544992 -1.3858755906727898 195 195 197
-0.7961989421175778 1.0350865539724354 -1.3686656691346366 196 196 198
-0.7919810263735524 1.0362027336170692 -1.3726689601455073 196 196 198
-0.253681103167799 1.096121930015568 -1.163741726570732 197 197 199
-0.265789216751509 1.0953436465924038 -1.1734083606721983 198 198 200
-0.30776230919679903 1.0912932371058952 -1.1951216270365088 198 198 200
-0.3342312074811936 1.0889574237252448 -1.2107196050567126 199 199 201
-0.39169235234666283 1.0832425524729994 -1.2389634998345447 200 200 202
-0.4373604369695682 1.0788371434592736 -1.26260191129439 200 200 202
-0.7775720449283101 1.0436531457771516 -1.4180704166415896 202 202 204
-0.7105759383642819 1.106156486753012 -1.8721831635327177 215 215 215
-0.6960236739124626 1.1082087160759588 -1.8703064157159242 218 218 218
-0.680317557807161 1.110362279593418 -1.8677454329594072 218 218 218
-0.6650934389305976 1.112465884089258 -1.8654037358291506 218 218 218
-0.6620747198670206 1.1134431142261425 -1.8698248010970455 219 219 219
0.34015988989055057 1.343238871278439 -2.512091495874676 216 216 216
0.33610001136080825 1.343771982251565 -2.5222587080567562 216 216 216
0.3307865146701706 1.3442655574434572 -2.533784749490285 216 216 216
0.4921921688066276 1.0698319770790272 0.05449183803073898 178 178 180
0.5507453233194509 1.0793871876720018 0.05135342893441053 178 178 180
-0.012146521469013204 1.114211852884662 -1.0284084062056031 192 192 194
0.0016849585548105034 1.116275958300648 -1.0274584767025987 193 193 195
0.02783624283655204 1.1197255130326718 -1.021692886531141 193 193 195
-0.5091543216242862 1.06032864124034 -1.2402832059742916 194 194 196
-0.7736330705295325 1.031228848139414 -1.3492959066367105 195 195 197
-0.820176701863414 1.0266547107917727 -1.3732720736813393 195 195 197
-0.7817883743609206 1.0316028478264179 -1.3637959375329571 196 196 198
-0.7648059127112713 1.0341461116193091 -1.3627078405754134 196 196 198
-0.7657745883015036 1.034681586721801 -1.3687325092376978 197 197 199
-0.24747676988048936 1.0930427470650415 -1.1667924486294186 198 198 200
-0.2635332236825275 1.09180769462695 -1.1780681434239024 198 198 200
-0.31011181174168273 1.087191487016155 -1.2017238167848077 199 199 201
-0.3540854155550737 1.0828816957957623 -1.22447922937863 200 200 202
-0.7309819455460389 1.0436870958549338 -1.3997535651302746 202 202 204
-0.004914164718905947 1.16572349473913 -1.469777071086868 209 209 211
-0.00020798525708430604 1.1667270890822785 -1.4720935332020568 211 211 213
0.0026976547170016046 1.1675595231254168 -1.4753882432591086 213 213 215
-0.718108936560694 1.1009487229059296 -1.8837384160295412 218 218 218
-0.7082672560440856 1.102577986897852 -1.8844693084886996 218 218 218
-0.6793631997933215 1.1059874338679925 -1.874563986099902 218 218 218
0.35300039532063987 1.3395797002147884 -2.500469602665331 216 216 216
0.3522997767276246 1.340221172252056 -2.5070540723046673 216 216 216
0.34698335519762125 1.340698666353815 -2.5185540445448056 216 216 216
0.4963170567771483 1.0676478284673299 0.054501027958867465 178 178 180
0.548338510807975 1.0762347483234664 0.05141859276165922 178 178 180
-0.031043803723940375 1.1080849900722267 -1.0363062914789516 192 192 194
-0.015961127113790642 1.110814113895249 -1.0393079427821832 193 193 195
-0.5058457087350477 1.0560225382883264 -1.2397439015967668 194 194 196
-0.8139400546423254 1.0215799821058735 -1.3659459838998504 195 195 197
-0.8406614857857144 1.0191941594121594 -1.382185048091917 195 195 197
-0.8633858174012259 1.0172718570202737 -1.3969335828679896 196 196 198
-0.8658682061010736 1.017649252675528 -1.403714525740916 196 196 198
-0.7549430755933909 1.0308413532015166 -1.365243793046541 197 197 199
-0.21901912101142118 1.0919334390248308 -1.1561029896264268 198 198 200
-0.22069381227109308 1.0922875630041131 -1.161553542503429 198 198 200
-0.27117458023663665 1.0871554616784762 -1.1867313275605154 199 199 201
-0.7028529152351524 1.041790554996105 -1.389021873042022 202 202 204
-0.08581482644914248 1.1543653818233812 -1.519964725662814 212 212 214
-0.07231616144735423 1.1562330173356599 -1.5175914720680146 215 215 217
-0.7128695309155747 1.096926612465042 -1.8882550747271034 218 218 218
0.36941091948516047 1.3360940186010002 -2.4850515524607455 216 216 216
0.3654617935808232 1.3366045827220479 -2.4950485358029955 216 216 218
0.3643534871430026 1.3372248745526625 -2.5020524531763986 216 216 217
0.5004316217510161 1.0654692930445975 0.05451019240316707 178 178 180
0.5293755355678997 1.0704154442876872 0.0516205178831064 178 178 180
-0.04430319513692038 1.102553068893554 -1.0420430598806043 192 192 194
-0.0376606063625486 1.103825869030256 -1.0439234252725582 193 193 195
-0.0565888672173176 1.102138472130289 -1.0557135498838948 193 193 195
-0.08886847435703173 1.09942908882994 -1.0773075944257744 194 194 196
-0.835062161365542 1.0140176984981628 -1.3750768795735946 195 195 197
-0.8240360687299231 1.0159345462185363 -1.3764661690108078 195 195 197
-0.8343580264728234 1.0153976212779328 -1.3862840926829578 196 196 198
-0.844617264728921 1.0148723652778622 -1.39611668622306 197 197 199
-0.8494916079493934 1.0149677419453522 -1.4038381218270972 197 197 199
-0.3542525184505446 1.1257773456626914 -1.6847513340385694 218 218 218
0.37166035810327125 1.332094577855024 -2.4846088588792137 216 216 217
0.3810552638873125 1.3331228375984394 -2.480443307695957 216 216 218
0.37908865838705946 1.3337008825797003 -2.488329248165358 216 216 218
0.5045356058705527 1.0632963019879949 0.05451933425808525 178 178 180
0.5521107765255082 1.0712916188083774 0.05147834541612584 179 179 181
-0.021035121150359097 1.1012695696067039 -1.0337157747589316 193 193 195
-0.019204282579038334 1.1019813329430383 -1.0374219688590538 193 193 195
-0.047207061231930206 1.0991985087308043 -1.0527147795162806 193 193 195
-0.07615785817832799 1.0968240359398331 -1.072989249949897 194 194 196
-0.8276635400491574 1.0097132298723817 -1.3730043349057794 195 195 197
-0.8225698467362983 1.0109515389111954 -1.3767254700382816 195 195 197
-0.817138533688214 1.0122279799579976 -1.3803029103568334 196 196 198
-0.8274463590432477 1.0116766498452527 -1.3901337889287633 197 197 199
-0.6839796359273318 1.0289475771181413 -1.338552576089476 197 197 199
-0.7647965551686423 1.0214961458215466 -1.38783888942016 199 199 201
-0.5654973197474497 1.0976192077580993 -1.7792280429802156 213 213 214
-0.5159932962866124 1.1031893188680626 -1.7579715530697864 215 215 217
-0.5121738073580985 1.1042225453032133 -1.76169167756575 218 218 219
-0.46720446054307574 1.109316106373257 -1.742681523989244 218 218 218
-0.30411889641780476 1.1260254914334933 -1.658080797702966 218 218 218
0.38580806202915896 1.3285904558340942 -2.471553544436758 216 216 218
0.39520923554939263 1.3296289207639562 -2.467345001586466 216 216 218
0.3923848011264573 1.3301621965992607 -2.476117335044232 216 216 219
0.5086288866292361 1.0611288071995983 0.0545284551589027 178 178 180
0.5202015503426578 1.0633120965806333 0.05178843807818828 179 179 181
-0.056251886190638145 1.0920912383885428 -1.0389888872282378 191 191 193
-0.02622790242020799 1.0961676200760215 -1.0319278556927725 192 192 194
-0.01756064759950525 1.0976938524697595 -1.03300798491458 194 194 196
-0.02822766070351206 1.096921542577003 -1.041548534623665 193 193 195
-0.058841232982980475 1.0937884623099396 -1.0578800318859478 193 193 195
-0.8304003672059894 1.004870462560944 -1.3806577277875962 195 195 197
-0.8043709761307904 1.0085775643829655 -1.3760805176413033 196 196 198
-0.8104829084296981 1.0084995305891644 -1.3842264597257845 197 197 199
-0.8238438715206562 1.0075739997725752 -1.3952971505314435 197 197 199
-0.6590865829302623 1.0275179786568436 -1.3349079372429538 198 198 200
-0.6893004067362674 1.0246003460748523 -1.3525836439646934 198 198 200
-0.7206586853923638 1.0215607057674223 -1.3708263309157978 199 199 201
-0.5857044728187053 1.0905769374176424 -1.791447260402374 214 214 214
-0.4828828407623539 1.1015872552572792 -1.7409427786828704 217 217 217
-0.4949177886522579 1.1010253014121365 -1.753339450666067 218 218 218
-0.44725888201368225 1.106450423416162 -1.7328009781095792 218 218 218
-0.25551454472308854 1.1262660696111275 -1.6322238159644729 218 218 218
0.40043693537433334 1.3251494279252816 -2.4579677421910127 216 216 217
0.4089388378139702 1.3261591191533297 -2.4546777658650365 216 216 218
0.40692615852205805 1.3267160843723933 -2.4625596012303586 216 216 218
0.5127121499151572 1.0589668928422307 0.05453754907719621 178 178 180
0.5202512392519361 1.0605002748204415 0.051834212159423854 178 178 180
-0.02869686478902765 1.0918703795114981 -1.033506350237554 192 192 194
-0.016465718242131524 1.0938366080325033 -1.033217138155996 193 193 195
-0.058143427691340975 1.089319428117507 -1.053770974076436 193 193 195
-0.3484071237596899 1.0566428023109407 -1.1860092077915612 195 195 197
-0.7614164431541304 1.0085534354563324 -1.3598725594344303 196 196 198
-0.7734041820378694 1.0077574536952816 -1.3702964507538056 197 197 199
-0.5898339901280159 1.030191778578016 -1.302522757624384 197 197 199
-0.6175848051542701 1.027501423507585 -1.3190536713757148 198 198 200
-0.8172575405185274 1.0044654443772438 -1.4050208318457313 198 198 200
-0.7081916365507595 1.0180024764466737 -1.3666183250603636 199 199 201
-0.5117070199633974 1.09310530610604 -1.7520989204994266 215 215 215
-0.4132255288866252 1.1038107102179484 -1.7038151824693915 218 218 218
-0.3204107877926955 1.1139001098423886 -1.658309734538012 218 218 218
-0.4275321083603797 1.1036162969882752 -1.723028794672916 218 218 218
0.414295705423875 1.3217178123491284 -2.4451786047855477 216 216 216
0.42308089200208043 1.322748740844074 -2.441552156940166 216 216 216
0.4208793286604832 1.3232876447851079 -2.449608301952883 216 216 216
0.5196350730876755 1.0572827774302096 0.05451949953389684 179 179 181
0.48857435730347476 1.052431944802211 0.05214445307510185 179 179 181
-0.11384331216465345 1.076968197089904 -1.0622981750872003 192 192 194
-0.01376756879318718 1.0896833799261363 -1.0284005610717253 192 192 194
-0.014631002395189555 1.0900675281328085 -1.0331411179084347 193 193 195
0.22153030571277157 1.119732926391475 -0.9500843497459811 194 194 196
-0.3925121777831971 1.046826516410993 -1.2041080976570475 195 195 197
-0.7197733523637583 1.0084890200855774 -1.3441661470119428 196 196 198
-0.7377941534334517 1.0069394016693236 -1.3569355029679298 197 197 199
-0.5738115607882271 1.027871578380684 -1.3022675038208937 198 198 200
-0.5940643039763123 1.0260400708030208 -1.3158080981044424 198 198 200
-0.6345307206018597 1.0217974155071383 -1.3376105616481442 199 199 201
-0.8638503533331905 0.9950026814801489 -1.436376318582516 200 200 202
-0.5716589041716542 1.0819430892656408 -1.786093440515224 216 216 216
-0.5160719249704708 1.088361872890449 -1.7614659010717588 218 218 218
-0.4564482844288944 1.0951769004313567 -1.7344205282686977 218 218 218
-0.3991333453940675 1.1017306715456436 -1.708446073400669 218 218 218
0.44430836328170253 1.3190821280409646 -2.415207154913753 216 216 216
0.44035299391534233 1.31952620563959 -2.425073144708162 216 216 216
0.4345817115608225 1.3198895011775515 -2.4369047180677654 216 216 216
0.5208470550941926 1.0546594390018673 0.05455567269372008 179 179 181
0.4872146149152089 1.0493387413497344 0.052202759870790705 179 179 181
-0.11253620867143392 1.0729953209679002 -1.0624461356013417 192 192 194
-0.12716433044625755 1.071693875732392 -1.0726341745823038 192 192 194
-0.12472229730824985 1.0725022818424728 -1.076282814818877 193 193 195
0.16573080875882382 1.1087606689070555 -0.9682594322464126 193 193 195
0.15137853910219984 1.10745338890591 -0.9779804570651989 194 194 196
-0.46906874458442327 1.0329052800098986 -1.2350189706453032 195 195 197
-0.4682042603925949 1.0335824996772742 -1.2398492722666086 195 195 197
-0.6901562053920913 1.0076836642100693 -1.3387599578597524 197 197 199
-0.48468229019042347 1.0332958498226077 -1.261998321352777 197 197 199
-0.6597172221625993 1.013217079814021 -1.343127225949037 198 198 200
-0.5944018830441751 1.0217383353281058 -1.3221629197313847 199 199 201
-0.8016083526992741 0.9972750075402055 -1.4119225276279848 200 200 202
-0.5380938202378667 1.0804439532717236 -1.7688591518971297 217 217 217
-0.4851003087473553 1.086665179153838 -1.7455832740752315 218 218 218
-0.43054402439567685 1.0930302414713438 -1.7212623964064635 218 218 218
0.45461983059612454 1.3155897530444132 -2.4061370630856196 216 216 216
0.45340012215020764 1.3161536404032879 -2.4130713590900923 216 216 216
0.4499114916958491 1.3166103997600271 -2.4224431798581922 216 216 216
0.5248989904090284 1.0525138925516921 0.05456470053888218 179 179 181
0.45965506082650137 1.0418340741696341 0.05248062039645379 178 178 180
-0.11964781628993075 1.0674651539225555 -1.0612475332758695 191 191 193
-0.11893252292377048 1.0680575184271681 -1.0655460034069322 192 192 194
-0.1166181798128653 1.068849899548581 -1.0692321084044105 192 192 194
-0.11652593640828542 1.0693649171115973 -1.0737745167038966 193 193 195
0.08062996460116378 1.0944217299468482 -1.0018697069667168 193 193 195
0.07823045138163524 1.094593246209202 -1.007077027143139 194 194 196
-0.5121843611771093 1.023473897926691 -1.2580241114513873 195 195 197
-0.5087093511722296 1.0244805562584058 -1.2618939630645953 196 196 198
-0.6500596333029033 1.0076300146905202 -1.323573307747806 196 196 198
-0.4941353182579119 1.0274308127703158 -1.2665621011899888 197 197 199
-0.6051177642406811 1.0149594506493753 -1.3218911008364724 198 198 200
-0.5527576036043742 1.0219755211832704 -1.3060820543460934 199 199 201
-0.7561305565782213 0.9976697965208132 -1.3942673805370007 200 200 202
-0.8257612415180469 0.9904235242570767 -1.4342389055367597 201 201 203
-0.529277292143653 1.0763951823933764 -1.7651804089406402 218 218 218
-0.45402368981043184 1.085067057518208 -1.7296225052763947 218 218 218
0.46819740064349413 1.3122906630627806 -2.3935775835900266 216 216 216
0.46544509767397096 1.3127699899170424 -2.4021199071229677 216 216 216
0.4630018063406211 1.313267008827338 -2.4103533153193215 216 216 216
0.5289409551748506 1.0503738265340292 0.054573702775531696 178 178 180
0.47403643285631075 1.0413608044736713 0.05240751691986795 178 178 180
-0.1343914572879842 1.06144591212457 -1.0675247690899674 191 191 193
-0.13778593101202308 1.0615199380907363 -1.073425542285491 192 192 194
-0.12229396399516244 1.0639817374421938 -1.072071313001194 192 192 194
-0.1270076745975 1.06388953841399 -1.07848400215926 192 192 194
0.08085848748238243 1.090581376692024 -1.0023962443476178 193 193 195
0.05662214926260404 1.0880002066559324 -1.0161186130890705 194 194 196
-0.5033585157352946 1.0198377410457808 -1.2552981013595998 195 195 197
-0.4983701831820905 1.0210346348929293 -1.2585546865797808 196 196 198
-0.49698949836554984 1.021780355049886 -1.2632421788345087 197 197 199
-0.5026872593364364 1.021644435337611 -1.2707700305184129 197 197 199
-0.547776802361836 1.017195082109681 -1.2995212126221076 198 198 200
-0.5853938860604868 1.0131137540552226 -1.320133468118328 199 199 201
-0.6934022243523579 1.0003273239165882 -1.3695608815177869 200 200 202
-0.8627563758286987 0.9799921853528701 -1.444445663820313 200 200 202
-0.7781855999860072 0.9910805246903419 -1.4155785855473564 201 201 203
-0.7500202362222419 0.9958071113657828 -1.4154084442590618 202 202 204
-0.48129993725256015 1.076610861189233 -1.7399986926589044 218 218 218
-0.4083696708774716 1.0851339115575889 -1.7056125512527374 218 218 218
0.45495025513662374 1.3076399975830495 -2.40956476638169 216 216 216
0.46132185963383154 1.3085869644342143 -2.408409117051571 216 216 216
0.46674210549521333 1.3094824914806251 -2.408247795584496 216 216 216
0.5329725578162472 1.0482391479201703 0.05458268360511298 179 179 181
0.4627128517422251 1.036533892367786 0.052550237953393586 179 179 181
-0.17588978006450107 1.0519504422293793 -1.0840303768243535 191 191 193
-0.18274141644477748 1.0515823476483865 -1.0913277190850248 192 192 194
-0.17259156019396335 1.0533897575278766 -1.0921029945417842 192 192 194
-0.16709010391921827 1.054601019414061 -1.094649171661241 193 193 195
0.07133275191585703 1.0854936592355338 -1.0067121956296032 193 193 195
0.06467760427391572 1.0851144694102766 -1.0136015236097562 194 194 196
-0.5095896874018686 1.0143155258072383 -1.258538320565177 196 196 198
-0.5919886834117978 1.0044739674245835 -1.2965935636104353 196 196 198
-0.4006219718011757 1.0292139093749004 -1.2255018726703057 197 197 199
-0.593653048735691 1.005440117968325 -1.308055543432618 197 197 199
-0.4613073509686376 1.022686037096002 -1.2601403350609603 198 198 200
-0.49514302667926696 1.0190001136010753 -1.2790287779293839 199 199 201
-0.5212311326817762 1.0162991442156966 -1.294886170221782 199 199 201
-0.552092891130131 1.0130097898191504 -1.3127808906409266 200 200 202
-0.8545795864559174 0.9757381472979965 -1.4419871469915808 200 200 202
-0.7868441340008199 0.9848421194652535 -1.4200100540330558 201 201 203
-0.7705513808123072 0.9881283840483803 -1.4247883280901426 202 202 204
-0.43820895149874284 1.0764288098247785 -1.7174688689665376 218 218 218
0.4684119262244941 1.3043697898164255 -2.3971121533216375 216 216 216
0.4756154567616973 1.305366336348584 -2.395035232249166 216 216 216
0.4822285829621702 1.306328514247218 -2.3935627969269073 216 216 216
0.5369938103611407 1.0461098310775845 0.05459164337982508 179 179 181
0.44998740291446276 1.031433891083718 0.052705313358403505 179 179 181
-0.18799851216024963 1.0466462748571523 -1.0940131557930952 192 192 194
-0.17255596636507486 1.049151272114626 -1.0927578656709889 192 192 194
0.05236387015790562 1.079156126802744 -1.0147034134064534 193 193 195
0.06604768499627525 1.0813866101857992 -1.0136904879496904 194 194 196
0.04950758096543788 1.0797278080169033 -1.02448205886903 194 194 196
-0.5593592513412168 1.0031953159012224 -1.2790537716525485 196 196 198
-0.5510163231339542 1.0048407629332587 -1.2810698548631336 196 196 198
-0.34502525919542776 1.0317173659955947 -1.2040215175584992 197 197 199
-0.37190052654587785 1.0288335447899137 -1.2198175379867024 197 197 199
-0.40501854759906136 1.0251649673133765 -1.238223115548322 198 198 200
-0.4327563220259038 1.022192710445861 -1.2545640293908762 199 199 201
-0.4610186574287205 1.01916424677755 -1.2712139993502292 199 199 201
-0.49298342816357354 1.0156769501283782 -1.2894724041587498 200 200 202
-0.7809650805015699 0.9797864678786983 -1.4127189654066163 200 200 202
-0.7780365385200381 0.9807800318062647 -1.4172634375968673 201 201 203
-0.8426451976351919 0.973246038769896 -1.4496918944677546 202 202 204
-0.7609563473832065 0.9841812316703515 -1.4216909605491737 202 202 204
-0.6799471224181133 0.9950026358032861 -1.3937125834105175 202 202 204
-0.510070735323875 1.0635621033427083 -1.758097619684322 218 218 218
0.48331133333628523 1.3012197817903373 -2.383106855091584 216 216 216
0.4890223213018806 1.30214032775265 -2.3825886059196213 216 216 216
0.49496614294746083 1.3030714403540473 -2.3818005293319526 216 216 216
0.541005127327093 1.0439859201433 0.05460057857001144 179 179 181
-0.003130078141091964 1.067997455829801 -1.0369080950301146 193 193 195
0.04273682882049883 1.0744449222099408 -1.0234171880691427 194 194 196
0.04374966386097731 1.0750460170055245 -1.0273708335274672 194 194 196
-0.03991375256073315 1.0646541403742282 -1.06466350995957 195 195 197
-0.5285932156925686 1.00349418714463 -1.2782196587554575 197 197 199
-0.3242470724935399 1.0304179490687466 -1.2014230784841964 198 198 200
-0.35136855438579634 1.027462603844322 -1.2173441460145544 198 198 200
-0.26950662841517636 1.0385331245765743 -1.189218234279674 199 199 201
-0.39669640729685596 1.0227272165374415 -1.2458422037394326 199 199 201
-0.435881257995225 1.0182535108870976 -1.2669554527290623 200 200 202
-0.7790767755961375 0.9748570762837436 -1.4128161872244263 200 200 202
-0.7355450122335061 0.9810452946002135 -1.4006516373371865 201 201 203
-0.8027549919728973 0.973074267343365 -1.4341058644739575 202 202 204
-0.7368171836436088 0.982110633972711 -1.412557093081159 202 202 204
-0.6303660577851198 0.9962847716610972 -1.3739282942991828 203 203 205
0.49535362711538655 1.2979522038945912 -2.3721295572805583 216 216 216
0.5032080593953793 1.2989991207697773 -2.369289425988582 216 216 216
0.5090700537608249 1.2999299118986765 -2.3685548590289347 216 216 216
0.5450061178069096 1.0418673206645797 0.054609493396682696 179 179 181
0.03903810086372363 1.0690771134959438 -1.0167877755234638 193 193 195
-0.007700205181881019 1.063383900427443 -1.039324222661097 193 193 195
0.0549621941205546 1.0721078795110441 -1.0192708653305722 194 194 196
0.008388058645793733 1.0664506976660115 -1.04187748008625 194 194 196
0.0056412280004789865 1.0665640387257596 -1.0473737773419787 195 195 197
-0.7106698225149486 0.9731218695574113 -1.3351353294633999 195 195 197
-0.7527220616800827 0.9682152754229753 -1.3574221466205145 196 196 198
-0.17187282719381144 1.0457933526677123 -1.1409067473118004 198 198 200
-0.2535502534948367 1.035663990966747 -1.178611983603888 198 198 200
-0.2577196892837501 1.0356450923575784 -1.1851765418494116 199 199 201
-0.25182624551958777 1.0369353616891037 -1.1876657279438374 199 199 201
-0.3037168656819721 1.030728423629089 -1.2137471611505828 200 200 202
-0.729994280201516 0.9760402829221844 -1.3935570319331725 200 200 202
-0.7114800877476377 0.9790447151678724 -1.39160754680251 201 201 203
-0.7980969286580334 0.9684609914309787 -1.4330664581154102 202 202 204
-0.7125724240753266 0.9801178857237508 -1.4033684361721228 202 202 204
-0.5974434908071734 0.9955597683896598 -1.361061453576021 203 203 205
0.5237423734151578 1.2956830048226438 -2.3436735809468927 216 216 216
0.5162916856971774 1.2958366358049287 -2.357149666322839 216 216 216
0.522411908884457 1.2967869932897171 -2.356106465162662 216 216 216
0.5489973298873932 1.039754101300775 0.05461838301883776 179 179 181
-0.02931225744606904 1.0555276071871698 -1.039457614091226 192 192 194
0.021454246907910892 1.0627779318548571 -1.0242314134311337 193 193 195
-0.03678253370067195 1.0554852611715304 -1.0512869802139104 193 193 195
-0.014951124882776917 1.0588695085376598 -1.0472319805422217 194 194 196
-0.016793747493256336 1.0591000560875212 -1.0524053140735297 194 194 196
-0.5836645171888977 0.9843260162384161 -1.2803093356809603 195 195 197
-0.6578045294934105 0.9750715479480823 -1.3150309513509129 195 195 197
-0.7023975568753913 0.969755407159702 -1.3382561644425401 196 196 198
-0.7779301046000267 0.9603642444424341 -1.3739774242961145 196 196 198
-0.16887539931481274 1.0419091963798006 -1.1404063337835244 198 198 200
-0.1796578685765614 1.040995007905264 -1.1494966253680101 198 198 200
-0.2564438756807561 1.0314033089751333 -1.1853924133606457 199 199 201
-0.25787845788954444 1.031737200603284 -1.1908651735165134 199 199 201
-0.2738379025024752 1.0301667003191213 -1.2022854442403392 200 200 202
-0.599642943550762 0.988008293547982 -1.3409224018573036 200 200 202
-0.5654311587066766 0.9930685351831339 -1.3322918946661577 201 201 203
-0.620126250188661 0.9865004951633414 -1.360333164873568 202 202 204
-0.5763977554814939 0.9927955386058372 -1.3476845604865066 202 202 204
-0.5765163441022554 0.993362017474327 -1.353180421963415 203 203 205
0.5330945237626853 1.2923526107994734 -2.335524610868614 216 216 216
0.5311201686158238 1.292819064084181 -2.343121420984495 216 216 216
0.5362423450325738 1.2937139534738844 -2.3431140168830766 216 216 216
0.5689266650744383 1.0404718406781575 0.05447240421056443 179 179 181
-0.05501402801829031 1.0484790565158506 -1.0545293247000722 193 193 195
-0.06199740650517456 1.0480174737959962 -1.0617574084586288 193 193 195
-0.019128539021151157 1.0542666064153408 -1.0495115912222819 194 194 196
-0.023911591398316657 1.0540980422851158 -1.055850323194182 194 194 196
-0.6360237735362231 0.9724217665238453 -1.301746477419322 195 195 197
-0.6588474380656786 0.9699437050119278 -1.3162515790802298 195 195 197
-0.6923431953069783 0.9660455133771635 -1.335080383419631 196 196 198
-0.13282178533763309 1.0419392724201937 -1.1219251616154806 197 197 199
-0.1479360596961094 1.0404208393188077 -1.1326837055417736 197 197 199
-0.15996413800134177 1.0393192050638096 -1.14224946827391 198 198 200
-0.2217283255917929 1.0316071804741922 -1.1720403236583004 199 199 201
-0.2376362676163123 1.0300082561685922 -1.183356695142013 200 200 202
-0.24044362720036785 1.0301533306189916 -1.1893721675306574 200 200 202
-0.5668034396435797 0.9874342656319794 -1.3282668117475047 200 200 202
-0.5797522707462808 0.9862968405509878 -1.3390213705715983 201 201 203
-0.5999584112911971 0.9842056190948587 -1.3528283717349299 202 202 204
-0.5805708679291219 0.9873469953511664 -1.350254677301081 202 202 204
0.5456730590687512 1.2892500927738302 -2.323911160800121 216 216 216
0.5441156617126712 1.2897334013463764 -2.331037031780221 216 216 216
0.5516618344936002 1.2907815454027496 -2.3283934034882185 216 216 216
0.5656168290778377 1.0370902852661477 0.05455175581292959 179 179 181
-0.08028886972240401 1.0414135228120367 -1.0695415963352688 193 193 195
0.02044213345906462 1.0555967411206064 -1.0346701173320179 194 194 196
-0.37269789328187525 1.0026554673698085 -1.1935862661037164 194 194 196
-0.5944700090542145 0.9730994783463844 -1.2861469178655005 195 195 197
-0.6154123777465486 0.9708333249794722 -1.2998487890475312 195 195 197
-0.6599939190974407 0.96537581818977 -1.3230301565746831 196 196 198
-0.14075470608390792 1.0366372875158467 -1.1258015137307358 197 197 199
-0.1297247496749467 1.0386206573848773 -1.1260505547542263 197 197 199
-0.13651968582499194 1.0382007333451433 -1.1334769693796583 198 198 200
-0.20261817188968378 1.0298088803263958 -1.1650079707306051 199 199 201
-0.21210292867774364 1.0290437437660485 -1.1736824132807355 200 200 202
-0.23797615778085301 1.0260842780397377 -1.1891004117465973 200 200 202
-0.5575723268531647 0.984359862906959 -1.330701448190296 201 201 203
-0.5799079044774116 0.9819480636475024 -1.345363166275297 202 202 204
0.5568207050338959 1.2860937609421428 -2.3138117792460506 216 216 216
0.5567621667382913 1.2866648981640019 -2.319308412145604 216 216 216
0.564041525877826 1.2877037487741747 -2.316919756779237 216 216 216
0.5622931403434801 1.0336946582816484 0.054631438153604106 179 179 181
-0.3789977561572284 0.997212494847775 -1.1967983684372383 194 194 196
-0.5560779332733603 0.9734591050169895 -1.2717772359844477 195 195 197
-0.5232422934723733 0.9785193679562014 -1.2641029461026956 195 195 197
-0.6043532004312291 0.9679809274340607 -1.3016927632831476 196 196 198
-0.10756962468021158 1.0369174847669353 -1.1131793399338896 197 197 199
-0.11116931197026153 1.03691542544813 -1.1192708053113491 197 197 199
-0.1251027054304986 1.0355085480374795 -1.1295604552248548 198 198 200
-0.15414308357634585 1.0320532561191451 -1.1460379109020133 199 199 201
-0.18205769436144056 1.028761347670744 -1.1621562416349427 200 200 202
-0.2081828912806547 1.0257222534756436 -1.1776383404977868 200 200 202
-0.24737394302809249 1.0209231928291673 -1.1985831849364232 201 201 203
0.5599860646320448 1.282444352851371 -2.312250204105973 216 216 216
0.5713009368035238 1.2837589400195732 -2.3055292012738176 216 216 216
0.5760364910994945 1.2846382165924672 -2.305842435430826 216 216 216
0.5589556302776084 1.0302848927952726 0.054711452152219175 178 178 180
-0.3835019786027814 0.9919942953022649 -1.19930780020881 194 194 196
-0.5274551567950494 0.9725710407555131 -1.2612504399585718 195 195 197
-0.5473054921989443 0.9703783241184253 -1.2744284672447561 195 195 197
-0.5620882968003611 0.968893681864388 -1.2856581818634223 196 196 198
-0.524145438732423 0.9752530348476013 -1.2811681663142065 197 197 199
-0.05972489876223387 1.0397902211236079 -1.0992211111483645 197 197 199
-0.11384617422995391 1.0328224131737556 -1.1257042438832856 198 198 200
-0.1253932128801991 1.0317242421777908 -1.1350630879970982 199 199 201
-0.15687823922186664 1.0278940776299246 -1.1526020341934693 200 200 202
-0.17769189873599028 1.0255380744560523 -1.1658765852652868 200 200 202
-0.21405682924275218 1.021060674837056 -1.1856222549262014 201 201 203
-0.23094595171662172 1.0192593799389016 -1.1974484857435588 202 202 204
-0.2470696489920828 1.017568997561047 -1.2090182539458334 202 202 204
0.5724678686605147 1.2794303779667358 -2.300695376823995 216 216 216
0.5839633574920258 1.2807715821913774 -2.293745392146333 216 216 216
0.5883456281140936 1.2816299341160278 -2.2944093994077703 216 216 216
0.5556041966429781 1.026860897513535 0.0547918000375765 178 178 180
-0.3872662422613687 0.9868606805217585 -1.2015289613508664 194 194 196
-0.4959150623643872 0.9721695612413739 -1.2495577028905354 195 195 197
-0.47576015316205467 0.9755372248009163 -1.2468121124071576 195 195 197
-0.5152997894631186 0.9705566613522637 -1.2678012979313706 196 196 198
-0.5135559159129128 0.9713522977330572 -1.272402287801727 196 196 198
-0.4658981260774339 0.97854869179154 -1.2585533175618826 197 197 199
-0.035569822823240185 1.039011577945486 -1.0901578413661726 197 197 199
-0.08944344292071812 1.031992196860788 -1.116517885227747 198 198 200
-0.09975571692439152 1.0310422368049195 -1.125340984278706 199 199 201
-0.12082030748283251 1.0286046974061362 -1.1385939445523054 200 200 202
-0.1547343768276708 1.0243945036733286 -1.157189395903984 200 200 202
-0.17755375673364907 1.0217317946602391 -1.1713342411147885 201 201 203
-0.19786909937781647 1.0194235441866473 -1.1845244561930592 201 201 203
-0.2191310087411212 1.0169921442604715 -1.1981795672689377 202 202 204
0.5812695829632649 1.2761987450781842 -2.29307216618717 216 216 216
0.5925272005087174 1.2775392577548232 -2.286352153188973 216 216 216
0.6003227618971015 1.2786361207891188 -2.283316523752008 216 216 216
0.5556004081669332 1.0240397583577163 0.05483948012965206 178 178 180
-0.4216004136503698 0.9773775199781618 -1.2157966515163716 194 194 196
-0.41094599152746936 0.9794179473651385 -1.2167147931550262 195 195 197
-0.4000064790661 0.9814957101539682 -1.2174910201514484 195 195 197
-0.4251411242793388 0.9784760107534574 -1.2326253417161703 196 196 198
-0.45679417241326753 0.9745459549819504 -1.250457548436982 196 196 198
-0.4257317735489965 0.9794627145392211 -1.2431814374182006 197 197 199
-0.027406149266873993 1.036048669570595 -1.0875397043755028 197 197 199
-0.07895575164859626 1.0292728981005312 -1.1129609226204913 198 198 200
-0.07228396301187587 1.030687980830943 -1.1148606922516937 199 199 201
-0.09609006024429904 1.027828160049335 -1.1291976172808342 200 200 202
-0.09184830749586038 1.028904691753596 -1.1321111180975425 200 200 202
-0.1398534481178924 1.022672725998691 -1.1565358570172029 201 201 203
-0.15410058091471143 1.021173525301233 -1.1671635401776164 201 201 203
-0.2003911179585343 1.0152088278828675 -1.1911468131852088 202 202 204
0.5925510422431777 1.2731686403437452 -2.282773696739127 216 216 216
0.6027322305030045 1.2744475284327534 -2.2771805906706657 216 216 216
0.6124574168712976 1.275689707664446 -2.272036383946064 216 216 216
0.5537419976342006 1.0208725896805984 0.0549054618597396 179 179 181
-0.4295072379380552 0.9721027159568013 -1.224813110402617 194 194 196
-0.3412240211366617 0.9852470183560427 -1.1948800099768582 195 195 197
-0.37133067330582953 0.9814685639840486 -1.211912880377968 195 195 197
-0.43478548235169573 0.9729477372450269 -1.2424121164894761 196 196 198
-0.3852286580941921 0.9805372236471123 -1.2276555995717036 197 197 199
-0.032308680539115404 1.0321832532997626 -1.09927603798873 199 199 201
-0.04575987659261342 1.0307465089513912 -1.109323183028045 200 200 202
-0.06404404733958384 1.0286308924485976 -1.1214035126797564 200 200 202
-0.10271058300912533 1.0236409706106888 -1.1419493388072708 201 201 203
-0.11701784691471515 1.0221037242082072 -1.1525480450547811 201 201 203
-0.1845225874146573 1.0130704819122829 -1.1852984040391794 202 202 204
0.6055788297644593 1.2702997782050052 -2.2705820458452135 216 216 216
0.6176831394991419 1.2717309540003452 -2.2628815243885056 216 216 216
0.6248522304939192 1.2727990578605446 -2.260457700699006 216 216 216
0.5518786049490556 1.0176965606992698 0.054971626720446365 179 179 181
-0.41066856205319296 0.9701311922239888 -1.2181082464040778 194 194 196
-0.5730601697734126 0.9472177349679256 -1.287818944537503 195 195 197
-0.3192006782360536 0.9843718375165479 -1.1918465730424321 195 195 197
-0.36236158170204075 0.9786686302529515 -1.2141433116468874 196 196 198
-0.8021504312965659 0.9165236220597262 -1.4020490745160588 197 197 199
-0.008439203069729048 1.0314829952598406 -1.0902352476698651 199 199 201
-0.03510492148306492 1.0281283166551978 -1.1056561935392715 200 200 202
-0.03882515039569977 1.0280643796681932 -1.1117449193416071 200 200 202
-0.06709702265010725 1.0244954401645585 -1.1279758517852119 201 201 203
-0.08025170051357593 1.0230932608550933 -1.1380459428058074 201 201 203
0.3879623905069394 1.221628601488457 -2.2278047077284553 217 217 217
0.3857322954399891 1.2219999114232072 -2.2354459820871866 215 215 215
0.6233436226237066 1.2678250937223543 -2.2532755377903153 216 216 216
0.6302369497495502 1.2688827599506136 -2.251144790354384 216 216 216
0.6377115616679485 1.2699808184761274 -2.248358910711909 216 216 216
0.5500097107580668 1.01451154152111 0.05503798039413821 179 179 181
-0.5747314707836293 0.9420593382813253 -1.2892797410841759 195 195 197
-0.7165916676894479 0.9225246769193804 -1.35700861562806 196 196 198
-0.730955129043259 0.9210140874587144 -1.3684431843258582 197 197 199
-0.6904223777841441 0.9297761774035245 -1.3802429286186193 200 200 202
-0.6799729356321 0.9330117414790555 -1.3928507468194335 202 202 204
-0.5485039842183886 0.9524956038052638 -1.3436001876237036 203 203 205
0.38343786644339245 1.216588494660603 -2.228338992723864 217 217 217
0.38315722127065754 1.2171260769729781 -2.234116709265678 217 217 217
0.37990466784568977 1.2174019820576985 -2.2427586079568775 216 216 216
0.37880977858583653 1.2178703370691892 -2.2493452170241204 213 213 213
0.3866291631883325 1.2191233564250972 -2.2473383313690465 216 216 216
0.6313493071956158 1.2646605661261703 -2.2464485928898763 216 216 216
0.640306200266893 1.2658836021165234 -2.2420707943449547 216 216 216
0.6474138993576729 1.266962258394224 -2.2396557881748924 216 216 216
0.5481358630737904 1.011317600963696 0.05510451803763988 179 179 181
-0.595451235366548 0.9335315242369726 -1.2928904034085473 194 194 196
-0.5891827082717398 0.9350070834650075 -1.2958309971948334 195 195 197
-0.776503717037989 0.9079970597106886 -1.3761545546483318 195 195 197
-0.8206572032343811 0.9020911858609757 -1.399623084649373 196 196 198
-0.7191718360957209 0.9175812149150148 -1.3645409531782389 197 197 199
-0.7118443807998067 0.9192309633272624 -1.3672391642177621 198 198 200
-0.7246257024116404 0.9179335322867854 -1.3780906958980053 198 198 200
-0.7607480540480291 0.9132260454285207 -1.3985129090777946 199 199 201
-0.7149610030818316 0.92050156920333 -1.3855096128245616 200 200 202
-0.6925034184821154 0.9243570019240472 -1.3819568226758658 200 200 202
-0.8358246873883728 0.9040338003001042 -1.4467847844431603 201 201 203
-0.5343944331499675 0.949081982311249 -1.3331322060818398 202 202 204
-0.6423046508536767 0.9339516302244096 -1.3836313255654382 203 203 205
0.37763671295389145 1.2119745152390597 -2.2355967301395476 217 217 217
0.37733248372340145 1.2125084889375728 -2.2414162571198464 217 217 217
0.37828541096531365 1.2131566290897284 -2.246036044505567 217 217 217
0.38237081293127734 1.21408653552823 -2.24763980269403 214 214 214
0.3833430293702654 1.2147363002059897 -2.252239929634015 216 216 216
0.3856011397704623 1.2155012990403673 -2.255597709977724 217 217 217
0.6431414651067808 1.261814960355181 -2.235531321090247 215 215 215
0.652371379457732 1.2630700230663285 -2.23082715018422 215 215 215
0.6595080177325052 1.2641582943694027 -2.2283501058442776 216 216 216
0.5462564099387572 1.0081145825551516 0.05517124667292461 179 179 181
-0.5538353262897919 0.9347719850522773 -1.2771769718054848 194 194 196
-0.8248176859329192 0.8949966359135446 -1.3905126896430255 195 195 197
-0.8242360933675961 0.89567115669574 -1.3961003745131721 195 195 197
-0.8267339490530523 0.8958889979551939 -1.4029297713905584 197 197 199
-0.726701839874554 0.9113126264379744 -1.3684232211723817 198 198 200
-0.7157887710734827 0.9135030470229836 -1.3696841708204377 198 198 200
-0.7210813439299132 0.9132927208811314 -1.377504746984763 199 199 201
-0.7605795569562803 0.9080293756728619 -1.399312366846887 199 199 201
-0.6723814276645537 0.9216315302056917 -1.3689193707195744 200 200 202
-0.6835558918821752 0.9205512492987575 -1.3791346828053945 201 201 203
-0.6563584499914219 0.9268279562998465 -1.3903707141668207 202 202 204
0.37440446290214413 1.2075711634469732 -2.2404056548203535 217 217 217
0.3724440618624035 1.2079505335290173 -2.2478281668984375 217 217 217
0.3779214719229142 1.2090145270066006 -2.2481106271657882 215 215 215
0.38164952132639673 1.2099164919823147 -2.2500624568026244 214 214 214
0.3802036354887269 1.2103448482968215 -2.2570071538396212 217 217 217
0.3826109144214761 1.2111257168998268 -2.26023158769728 217 217 217
0.6572083241740202 1.2591875017255636 -2.2221442111447645 216 216 216
0.6643185052878742 1.2602839985746301 -2.2196935092090953 216 216 216
0.6713903679035793 1.2613745979645512 -2.2172561317812605 215 215 215
0.5443718989942917 1.0049025559041824 0.05523816144594712 179 179 181
-0.597035472941631 0.9233703059155771 -1.2951187940625322 194 194 196
-0.8156423929383674 0.8910675845336208 -1.3877143121171798 195 195 197
-0.821496192099032 0.8907728074209833 -1.3958671685673913 196 196 198
-0.829313075600808 0.8901862705798892 -1.4048347938261976 197 197 199
-0.7302215169006128 0.9056155737304945 -1.3706919068377696 197 197 199
-0.7299624683421453 0.9062262231959509 -1.3762769712661609 198 198 200
-0.7284947568678832 0.907018079638156 -1.3813760236740085 199 199 201
-0.7290151787809876 0.9075133131265773 -1.3872888954152844 200 200 202
-0.6655446558740079 0.917551706886504 -1.3669672429149553 200 200 202
-0.6845396529175962 0.9152861602002 -1.3803983475820454 201 201 203
-0.6258583825240105 0.9245849591240667 -1.3617878445272151 202 202 204
0.37181840431271174 1.2032109582786712 -2.244602702437472 217 217 217
0.3736960172350772 1.2039451077025753 -2.248351342241328 217 217 217
0.3750146168091187 1.204626843584128 -2.2526371360436332 214 214 214
0.3814924317774526 1.2057901795330406 -2.2519442440045263 215 215 215
0.38765633080338524 1.206922010641939 -2.2515323791080366 217 217 217
0.3975236617238707 1.2083955538079931 -2.24750693136838 217 217 217
0.39314602921330355 1.2085459635830873 -2.2572936477047847 217 217 217
0.6327797102662802 1.2534523163666027 -2.2502778614054493 216 216 216
0.6779035432054665 1.257668316916527 -2.20677081189843 216 216 216
0.6834194777771887 1.258639298052879 -2.205985668056982 216 216 216
0.5424818122976445 1.0016813881118825 0.05530526808038039 179 179 181
-0.6809008101481033 0.9050979262553753 -1.3236558369877574 194 194 196
-0.7527655444542103 0.894738187318355 -1.3577865458068432 195 195 197
-0.7143460218466584 0.9011389962665826 -1.3481660757198701 195 195 197
-0.7206032154072615 0.9007551752829286 -1.3563209812218164 196 196 198
-0.7521647789159414 0.8965421679075108 -1.3746791718947962 197 197 199
-0.7320652142012032 0.9001548067562619 -1.3722866720439852 197 197 199
-0.6954972154567236 0.9062499794246539 -1.3631581732045637 198 198 200
-0.7289419297451785 0.901766065773119 -1.382416343524178 199 199 201
-0.7091181821407704 0.9053254097543595 -1.3800194629820288 200 200 202
-0.6360619612670189 0.9180098834643418 -1.3668578713793105 202 202 204
0.36776001156265076 1.1981385225796892 -2.244658491853294 217 217 217
0.36964719994210915 1.1988750719293986 -2.248408337337919 217 217 217
0.3606539956360123 1.198572132046249 -2.2626167504510644 217 217 217
0.3661731107608326 1.199657089198825 -2.262889693466371 214 214 214
0.3741835698316827 1.2009770524269834 -2.2607377573519507 216 216 216
0.37888900096687134 1.2019806295357702 -2.261756405223403 217 217 217
0.3866926734072821 1.2032758222396376 -2.259753080799468 217 217 217
0.39689352206831446 1.2047942920048345 -2.2553880631720884 216 216 216
0.4040697456145983 1.206024050221453 -2.253932954788083 217 217 217
0.6825074517581955 1.2538280544130225 -2.1983683752513836 216 216 216
0.6892167523301468 1.2549057295528983 -2.1962870832369954 216 216 216
0.6948060321037732 1.255887628952969 -2.1953947032537813 216 216 216
0.713844830184759 1.0320514044740037 0.05364130373551379 179 179 181
-0.7600528211600788 0.8855737209489474 -1.3330168676453067 193 193 195
-0.7499540545255359 0.8876951478475608 -1.3347564605350324 193 193 195
-0.6580796384784722 0.9023987715987978 -1.304362632171994 194 194 196
-0.6924960165309786 0.8976583229258221 -1.3234668768874558 194 194 196
-0.6900613977959338 0.8985888842447591 -1.3281009998342044 194 194 196
-0.6756477815643823 0.9013569827037733 -1.327971909581441 195 195 197
-0.6880529436833211 0.9000111519599869 -1.3385065732666586 196 196 198
-0.6808373308579996 0.9016736250135171 -1.3412247814097884 196 196 198
-0.7316768533822453 0.8944564812333221 -1.367287340760584 197 197 199
-0.7508378040333484 0.8920957208746928 -1.380723360978602 198 198 200
-0.7897065838362555 0.8867345077752091 -1.4022236888069228 198 198 200
-0.6464216125146001 0.9113739809292314 -1.3719987525808301 202 202 204
0.35794140810407327 1.1930398614920819 -2.2557822835558587 217 217 218
0.35902860473267073 1.1937015637171284 -2.2603270079863895 218 218 219
0.36313055105296244 1.1946567612664778 -2.26197394168362 217 217 218
0.3697145478744432 1.1958516567864514 -2.2612156347354917 215 215 216
0.3750778614838617 1.1969260823123666 -2.2616142358198825 215 215 215
0.3801770521900674 1.1979732612103628 -2.2622512927397125 216 216 216
0.38779591138091707 1.1992615466804244 -2.260424287919028 216 216 217
0.39449239933767466 1.200458388068642 -2.2594672945283305 216 216 217
0.4013158459548326 1.2016650220112894 -2.2583624514008194 216 216 217
0.4077853479961983 1.2028353657117712 -2.257579392405092 217 217 218
0.6923174015534868 1.2509645770870776 -2.189521651584246 216 216 216
0.700425027767964 1.2521687589146404 -2.1859005979714987 216 216 216
