ply
format ascii 1.0
element vertex 695
property float x
property float y
property float z
property uchar diffuse_red
property uchar diffuse_green
property uchar diffuse_blue
end_header
0.5553558362913185 0.04291772013487194 -2.23184942230322 121 99 58
0.5576611932705404 0.0416548145697091 -2.2355451311925663 114 93 56
0.5606425406476155 0.03999119163069434 -2.2385379031604686 100 84 50
0.5621946103586837 0.03917465139955234 -2.2430067887806078 82 69 44
0.5651092592880169 0.03755039296968177 -2.246058729190561 72 60 39
0.5680642585763258 0.03590209795778199 -2.24906180719982 78 68 45
0.5695307811893296 0.03513619070292012 -2.2536150594968825 98 90 68
0.5677609204646261 0.03628928947141444 -2.2615645339033223 120 113 99
0.5614097413897611 0.04015939086419784 -2.2743521778989515 146 145 137
0.5621090010591203 0.039849098643714304 -2.2797498587015985 170 169 166
0.5696487290224883 0.03548192755580326 -2.277919926847435 185 184 185
0.5712844536701962 0.03461605358620451 -2.2823168502306226 192 192 194
0.576562211640991 0.03158980180409668 -2.2828423505791293 198 198 200
0.580821645616538 0.029167305155609696 -2.2844330754590576 202 202 204
0.14682195429655653 0.2605396087634375 -1.5474403909281174 116 100 77
0.16339974076208114 0.25096269100574975 -1.5429952756856906 116 99 76
0.15299701715041703 0.2571203255969269 -1.5548583820428228 120 102 78
0.16193682515899654 0.2519971706748852 -1.5549950608987557 124 106 80
0.18609212409345466 0.2379984464271023 -1.5458020249119147 125 106 78
0.19021292751252528 0.235684795907719 -1.5487992282160783 122 102 76
0.191279664940587 0.23515260477621291 -1.5536658956946072 122 100 76
0.1967643132788081 0.23204306452880447 -1.5558068738731599 110 90 65
0.20171256605213816 0.22924621085956023 -1.558264119881217 108 90 64
0.20540561323062895 0.22718150350451696 -1.5614882082036114 109 91 66
0.21210316371042015 0.2233635180324979 -1.5628284830512185 108 91 66
0.21732725391732688 0.2204050030014693 -1.565070090903352 103 85 61
0.22099816645571035 0.21835263660179402 -1.5682727668550556 99 82 57
0.22923333208896035 0.21363638321104927 -1.5685881239044546 100 85 59
0.23415052097401218 0.2108561928838237 -1.570975105775085 106 90 61
0.24132133503288355 0.20676037249258503 -1.5719167718781755 110 91 57
0.24376899605311814 0.20542115572815556 -1.5758448080850525 115 95 61
0.24749721350297088 0.20333435700608718 -1.5789507432754506 115 95 65
0.2466451695704182 0.20392132935625168 -1.5849872857123435 104 87 59
0.2520190154465902 0.20087364678111527 -1.5870260315939817 113 96 69
0.2556032689833008 0.19887057833966024 -1.5902050758799402 112 96 68
0.2614073254300196 0.19557123535056437 -1.5919366272747266 122 107 77
0.26942597669714435 0.19097841764592124 -1.5922092794080858 135 116 84
0.27736252538724676 0.18643308966552039 -1.5925075880101982 126 102 72
0.28645885548923133 0.1812099894090914 -1.5920185373869822 126 104 78
0.2883756954696074 0.18017949253469823 -1.5962155988158846 104 88 63
0.2965750663188142 0.17547947677712747 -1.5962683337802188 109 92 64
0.30270421731616215 0.17198823912095 -1.597662069861207 104 89 62
0.3111102616125361 0.1671666236909025 -1.5975242063466646 106 90 66
0.3153167444360687 0.1647978609459218 -1.6001542062694842 102 84 59
0.3182999085111343 0.16314361054590062 -1.6035907362936461 111 93 65
0.33158857008693754 0.15546814143810553 -1.6001093898139334 120 100 74
0.33065152856424235 0.15610390130916801 -1.6061493999470342 117 97 71
0.33638404794809856 0.15284258435136988 -1.6076978081185078 102 83 59
0.3412499221839654 0.15008741478373114 -1.609815134052361 97 79 56
0.3460450796370548 0.1473733389000147 -1.611966188350297 106 89 67
0.3485135375325626 0.14601886745883128 -1.615690014684122 102 86 61
0.3539645839663718 0.14292106175992725 -1.617369403207509 95 79 54
0.35815504272368404 0.140559817972703 -1.619897157520228 95 78 58
0.36185694820719827 0.13848397641728208 -1.6227500477961465 98 78 55
0.3668936713000492 0.13562765638575944 -1.6246712705389672 110 91 65
0.3745990953511754 0.1312108766249414 -1.6247268038040854 103 83 56
0.38164562066592395 0.1271788865168493 -1.6252131949339779 110 91 61
0.38629538183448653 0.12454790155078033 -1.6273478268699468 129 109 77
0.3858433726040312 0.12489992751176257 -1.6330412260234826 97 78 49
0.37441984591445593 0.13166805940548107 -1.646452061440068 88 71 46
0.34745262916922415 0.14752742617976938 -1.6708784486939494 92 74 51
0.32781338151492995 0.15919354046611622 -1.6957970752194602 107 90 65
0.3067266023969721 0.17170988576739898 -1.7219619095846381 108 88 63
0.3071947631015693 0.17152760496085753 -1.7272413261655055 100 83 61
0.30376668251820993 0.17362489782897106 -1.735326672167683 98 82 59
0.3048752063990495 0.17306829023630227 -1.7401651797318065 104 86 62
0.3036855301543226 0.1738564558024545 -1.7466689014214916 107 89 65
0.30318109961186135 0.17424386592131136 -1.7526890168749458 109 91 67
0.30517022070460825 0.17317222775478533 -1.7569044083654928 106 88 64
0.3040739070809383 0.1739062754556535 -1.7633718986043028 107 90 63
0.30560191478627113 0.17310459472228504 -1.7679300237237334 103 85 54
0.30859031580597024 0.17144814587490118 -1.7714158384122776 102 82 53
0.3118361333211809 0.16964092344697881 -1.7747060388620608 101 80 56
0.31313294565522126 0.168974509945772 -1.779430770812179 107 88 64
0.313054420423013 0.16911328917518104 -1.785178094306021 106 88 63
0.3151613790368217 0.16797268516076977 -1.7893072347703878 102 85 59
0.3168352416516358 0.16708563230844423 -1.79375806505678 113 95 71
0.31772878689942546 0.16665549303224578 -1.7987937363271203 103 86 60
0.3133545400677045 0.16931013257308375 -1.807791771695028 104 87 59
0.30504298299593346 0.1742710062129542 -1.8197866646668623 104 86 59
0.2993339335551263 0.1777084804230191 -1.8298613267486752 90 72 48
0.3349960810849834 0.15728856472673186 -1.831452780700529 96 76 51
0.3365364256691112 0.15647967340531357 -1.8360024717364538 96 76 50
0.3388956860365308 0.15519097120529235 -1.839920244341339 95 75 48
0.335408628846333 0.15732797803739101 -1.8483673398317988 95 75 48
0.33740210944974974 0.15625375804686054 -1.8525776789109307 94 74 47
0.3372934354981286 0.15641147954904372 -1.858426596851925 86 68 40
0.33874189353420714 0.1556567334894662 -1.8630660737860663 82 65 37
0.34003532060959324 0.15499287856766122 -1.867828672365258 86 69 43
0.34148649810714143 0.15423659173725754 -1.8724692744437512 89 70 46
0.3450659673918316 0.1522327148225859 -1.8754306226019266 88 70 45
0.3500980530091399 0.14937710612351482 -1.8772324699189702 85 68 42
0.3524354851703808 0.14810106770928216 -1.8811593886036417 83 66 40
0.3552794051813187 0.14652801694897005 -1.8846797764997598 81 62 37
0.35772551472315967 0.145188140110402 -1.8885128257838757 80 60 35
0.3568064020168842 0.1458215814358128 -1.8950408014811961 81 61 35
0.3599997019407214 0.14404354288876345 -1.898274264521942 81 60 33
0.36176469830294855 0.1431030631381775 -1.902652887392172 79 57 34
0.3621585602924743 0.14296678196366733 -1.9081408781586686 80 59 35
0.36303890176192677 0.14254525844994326 -1.9132406528450268 82 61 35
0.3658493329855399 0.1409916099961167 -1.916773451487728 81 60 33
0.3673532935765781 0.1402043066145927 -1.921367781130795 82 61 35
0.369969072707374 0.13876473859740876 -1.9250527356213303 82 60 37
0.37178405513942475 0.1377949458253408 -1.9293912120018641 82 60 36
0.37438124025921693 0.13636618015373994 -1.93308487082809 81 60 35
0.37677895198709993 0.13505439726785862 -1.9369391566637173 80 59 34
0.37637504747512746 0.135386671108571 -1.9431123637560468 80 59 33
0.3782104132090051 0.13440492747611604 -1.9474346159107185 78 57 30
0.3808842211874914 0.1329310744908371 -1.951057304288727 82 61 32
0.3835733777921527 0.13144813704229574 -1.9546625368879178 85 64 35
0.380297305464439 0.1334667442303604 -1.9632667123370573 88 67 37
0.3818826357600145 0.1326318926274037 -1.9678060436484586 89 67 37
0.3809803669801117 0.13325749079197644 -1.9744452048108398 93 70 40
0.38472068035956075 0.1311575170573191 -1.977168625429309 101 78 45
0.38607029755800454 0.13046112201021914 -1.98191129472721 103 80 46
0.3889435246732457 0.1288700815000969 -1.9853588990740916 103 80 47
0.3932902704570344 0.12641362435690356 -1.9875427277249198 103 80 47
0.39557409116689846 0.1251684920246264 -1.9914800354216755 106 84 48
0.3964739608981973 0.12473615486517795 -1.9966032463720464 107 83 49
0.3980348959562109 0.1239155948962643 -2.001161293366928 108 84 52
0.39955819010516413 0.12311716098674719 -2.005752792074552 104 79 47
0.4072850260688477 0.11867443609104994 -2.004970417152146 106 80 45
0.41212031080214956 0.11592999589347325 -2.006670404879866 107 83 47
0.4169332298427427 0.11319844012550023 -2.0083741744955717 109 85 47
0.4146358604750424 0.11464449614419867 -2.016277111175919 108 84 47
0.4162237315859924 0.1138078344094279 -2.0207947777699045 108 85 50
0.41897641700160465 0.11228666629805725 -2.0242891681238637 107 83 46
0.4223027863077873 0.11042825671777298 -2.0272725631001576 135 107 68
0.4254686069691828 0.10866407665953162 -2.0303898056191527 137 106 67
0.4309893284617216 0.10551559283355016 -2.03141133977448 142 114 71
0.434421586146418 0.10359445538144182 -2.034270924369179 136 108 69
0.43810159412355676 0.1015275299429085 -2.0369007973140993 123 93 56
0.43243147917375985 0.10495751473218046 -2.0478846789242495 120 93 54
0.4321680846121064 0.10520920476641743 -2.054056266304748 117 89 50
0.4319703546139479 0.10542245258105656 -2.060179102074256 117 89 50
0.4333076844156963 0.10473318571970391 -2.0649268932838933 119 92 53
0.43729598176675366 0.10248496348948827 -2.0672779881992747 118 93 53
0.4358955960647497 0.10340577276524113 -2.0745074541064428 119 94 54
0.43757531879807915 0.10251522731526794 -2.078950139892848 116 91 53
0.43892073236461915 0.10182133113190406 -2.0836982544292177 106 81 44
0.4402955917889083 0.1011101469521078 -2.0884214784635082 103 80 41
0.4416493473299809 0.10041140926830971 -2.0931659845417734 125 98 61
0.443260082595022 0.09956151371656868 -2.0976759701046626 156 126 79
0.44937707260920645 0.09606023640301176 -2.0980269011222092 155 125 78
0.4515868805956516 0.09485766220617275 -2.10197187398196 147 120 75
0.450481784222163 0.09560575678053967 -2.108991761193217 140 115 74
0.4524032101363453 0.09457295939398472 -2.1132089717215647 125 97 61
0.45676325712218513 0.09210489109862247 -2.115148506762997 125 97 59
0.45652995517921785 0.09234021978529114 -2.121374735932449 126 98 58
0.4535945563594789 0.09416627554069282 -2.1301483435158213 127 100 57
0.4607733722817858 0.09003868605973459 -2.129423817095392 125 98 54
0.47297147338213114 0.08295565081748843 -2.123931379070105 126 99 56
0.46893286556054437 0.08543136082914105 -2.1337569218199217 122 95 49
0.465279347841623 0.08768082568544788 -2.1432474846332146 118 89 46
0.47340118413982224 0.08299678819778852 -2.14155479761758 124 95 53
0.47294157213929544 0.0833657933164918 -2.1480218086737466 129 100 58
0.4718778552734925 0.08409077198023518 -2.1550789566020154 130 101 59
0.4833377917842814 0.07743974920952437 -2.1501263656490046 134 105 61
0.4817893684006583 0.07845017600618157 -2.157646653513097 134 105 61
0.4840868674513542 0.07719536236677313 -2.161471219105185 133 104 60
0.4872631719690754 0.07542278063293553 -2.1644418926312197 136 107 63
0.4907737881635236 0.07345310910184702 -2.1670802215791283 134 105 61
0.49379454505646664 0.0717719084048041 -2.1701858893858876 136 107 63
0.49389811000556016 0.07180954429280587 -2.1761326110795514 131 102 58
0.4942585827955446 0.0716959297457801 -2.1818366117418457 131 102 57
0.4958118547999129 0.07087947616585116 -2.186377065659208 134 106 59
0.5072234590721678 0.06425272789674563 -2.18121388774436 136 108 61
0.5113534461949334 0.06191708915207475 -2.183185989174591 140 110 63
0.5141134135559544 0.06038882163819603 -2.186501110555692 143 112 65
0.514824085113785 0.060068550018137434 -2.1918446387888375 142 111 64
0.5101332367096629 0.06293287901152125 -2.202569766977909 150 119 73
0.514590366134283 0.06040410625255793 -2.204200048604089 146 115 71
0.5197021556068269 0.05748907123032826 -2.2051602386308895 142 111 66
0.5275049865518717 0.05298684745095464 -2.203401413978503 144 113 66
0.5300949521404286 0.05155829839400913 -2.2068546280355736 150 120 72
0.534573199173024 0.04901599720894939 -2.208397788851201 161 130 83
0.5352382103871446 0.04872259624627387 -2.2137837725758915 152 120 73
0.5325181472715075 0.050426049192076494 -2.222609716611043 156 124 77
0.5349350388047183 0.04909952650143212 -2.226234523391358 156 123 78
0.5411424446657458 0.045536682115051186 -2.2259890334870316 150 119 73
0.5421483881673205 0.04504233139405206 -2.231038735882379 136 107 62
0.548069080349268 0.041648086200399836 -2.231051930966935 131 104 60
0.5555692030882845 0.037321441554445195 -2.2294175426753 121 97 57
0.5586435357869421 0.03560612052493625 -2.2323145387660306 97 79 49
0.5603520363921135 0.03469677367328136 -2.236616088317114 64 55 30
0.5623568617215399 0.033612525772183016 -2.240610426392455 56 49 30
0.565586950990601 0.031805002315507036 -2.2433294210674095 61 53 34
0.5675231483200212 0.03076115693253148 -2.247388527937632 64 56 33
0.5654887303311408 0.03206142718997393 -2.25559611592789 83 76 52
0.5671402823395559 0.031185781041283195 -2.2599620810991503 108 101 85
0.56146275166063 0.034637691511409746 -2.2720293643284513 136 132 121
0.5618445335731206 0.03451220339161151 -2.2777544154258664 164 162 158
0.5630766340190361 0.03388467823267946 -2.2825887266067033 180 180 180
0.5672536587983941 0.03151792225204911 -2.2843064662576262 190 190 191
0.5752954532839167 0.026868223232512062 -2.2819057018137983 196 196 198
0.5791610847522801 0.02468477108420966 -2.2839161641700803 200 200 202
0.5859847457369638 0.02075369302751759 -2.2827560137238687 204 204 206
0.595763543249246 0.015076285781685683 -2.278403066804267 206 206 208
0.14491105019760941 0.25552555458284343 -1.5194384736045177 130 117 101
0.1577352145001878 0.2482496883010847 -1.5228868330514036 122 106 89
0.16571254745557829 0.24387444699618832 -1.5346876172073238 114 98 75
0.14912942106498928 0.2535953760566686 -1.5502381408392831 114 98 75
0.1654608064380611 0.24419357682100862 -1.5459126259653297 115 97 73
0.18400149289055506 0.23350707601947207 -1.5401800841487556 112 94 71
0.18746992914560162 0.2315777271125931 -1.5435780671348294 114 95 72
0.1943195524096386 0.22768338583597844 -1.544896808175533 125 105 79
0.1989746746850875 0.22506404381065007 -1.547542941683709 125 105 76
0.20247946018460988 0.22311306752108462 -1.550886362824473 123 103 74
0.20420181090551098 0.22219796305117784 -1.5553259883001556 115 95 68
0.21047250574130993 0.21863910776774748 -1.5569391882978718 103 86 59
0.21333354651264314 0.2170619434537301 -1.5606590538008525 106 89 62
0.22086987005751257 0.21276684816536126 -1.5614482247528463 104 87 61
0.22398695582078432 0.211040518874366 -1.5649873694520144 102 85 59
0.22854628430971835 0.2084755866695186 -1.567611628801607 96 80 54
0.23710875527650127 0.20358292755489032 -1.5676920458105879 88 72 45
0.2402405838961812 0.2018475080821029 -1.5711886695115092 105 86 57
0.24294105453038484 0.20036282564066463 -1.5749538438517512 111 91 61
0.24464150810445323 0.19945961667315815 -1.5793537630329437 110 91 60
0.24634219360727683 0.19855627532200287 -1.5837536934977203 104 85 53
0.2545658501552307 0.19385918545176467 -1.5839569961191675 106 88 58
0.26004128510491126 0.1907601045920637 -1.5859058614348556 116 99 72
0.26280174342276685 0.18923997921511115 -1.589596943712691 113 98 70
0.27126214511266705 0.18440411227922687 -1.5895783398951941 124 105 74
0.27852240433401404 0.18026594599753165 -1.5903126391516142 131 108 78
0.286502023933638 0.17570889196799502 -1.590551525969189 107 86 60
0.28830278130682263 0.1747463045994889 -1.5948201777746798 105 89 63
0.29499008831264234 0.17094051530005439 -1.5958685820904246 110 91 64
0.30189906669811045 0.16700539420427063 -1.596748230967425 100 83 56
0.3092038866937437 0.16283956580305825 -1.5973420477188767 96 80 55
0.3137495782683307 0.16027900978918738 -1.5997473719705289 112 95 69
0.3194357044074977 0.1570545437565078 -1.6013782934216858 127 109 81
0.32676221745779505 0.15287506712225804 -1.6018920774596521 117 97 71
0.3296481396256945 0.15127984622049162 -1.6053662668689974 109 89 63
0.33643425096389273 0.14741429530983402 -1.606203963216317 111 92 67
0.34067204320300243 0.14503181715692992 -1.6087435908957874 94 76 53
0.3428189365231365 0.1438663902542199 -1.6126917131986451 105 87 66
0.3493465043763848 0.14015053760071958 -1.613652819539975 108 92 68
0.35324183865867204 0.13796690119159163 -1.6163915569629246 94 78 52
0.35664685025304416 0.13606860499787016 -1.6194565996287908 96 79 57
0.3609829343491523 0.1336280250424911 -1.621873073174444 111 92 68
0.3645580933047414 0.13163036906853207 -1.6248028764605922 108 88 63
0.3722876690904929 0.1272131740968693 -1.6248461149578024 103 83 57
0.3785348057843701 0.12365892805921405 -1.6258920952610405 119 99 72
0.3877176944521735 0.11839445544655841 -1.6248700822717361 103 83 57
0.38592260982135285 0.11952385406563279 -1.6314938318255976 107 87 61
0.37929420761244104 0.123468965160801 -1.6415258583211594 95 76 47
0.378333554239279 0.1241129364468353 -1.6476048515477206 96 78 51
0.358582930634815 0.13570382403450001 -1.666970538185318 98 81 55
0.3106307967701279 0.16390147229721697 -1.7175987515837805 100 81 54
0.31372449111008854 0.16218611560804091 -1.720984370741205 90 73 50
0.30888481823672775 0.16509393779715786 -1.7300598659365116 91 75 51
0.3101377968900647 0.16445143947117769 -1.7347771382905701 95 78 53
0.31047512020423007 0.16434265283493196 -1.7401583312386495 98 80 56
0.30919980193201674 0.16517393147955284 -1.746715118143153 104 86 62
0.3064814084468768 0.1668466096308493 -1.7543354428980222 105 87 63
0.3088984822987744 0.16552591753208934 -1.7582296051929434 102 85 59
0.31101776812991755 0.16437878103439743 -1.7623385790188202 112 95 66
0.3131359817630013 0.1632322420178458 -1.7664465704058856 109 90 60
0.31403129958812687 0.1627986900389668 -1.7714536090461497 100 80 52
0.3147338381536231 0.16247760767468206 -1.7766070631311883 98 79 53
0.3184564051095027 0.16039553975885015 -1.7795265982075776 90 72 47
0.31655383174507185 0.1615937068284175 -1.7866200361697304 92 75 49
0.3199978070623063 0.15967402943050787 -1.789742000476479 98 81 56
0.32147673997204285 0.15890031366474486 -1.7943265311916425 109 92 66
0.31476875377054253 0.16290183873818254 -1.8050584898570163 97 80 54
0.3113053156614602 0.16501140527430067 -1.8133869273389631 110 92 66
0.31021233152585104 0.1657385563823395 -1.8199492400700887 101 83 56
0.30424347520552125 0.16931043055933045 -1.8302201307568888 92 74 47
0.33439989872508064 0.15207424564185554 -1.8302098692729678 94 74 49
0.33596683074561806 0.15124931093980315 -1.8347352990092995 94 74 48
0.33871794386593973 0.14973329113857003 -1.8383472306654918 93 73 46
0.34036403365843415 0.14886213826132252 -1.8428101939903963 89 69 42
0.34223314293788243 0.1478608197768636 -1.8471003476731727 90 70 43
0.34332741684390644 0.14731177928016473 -1.8519937328233254 91 71 44
0.3442499008747582 0.1468630711631843 -1.8570245232369456 84 65 39
0.341934122007274 0.1483049094801338 -1.864598484273526 84 65 40
0.3444577169682321 0.14692166429665057 -1.868385645248533 82 63 39
0.34722753606903345 0.14539459722820547 -1.8719747876233217 83 66 43
0.3514041561425612 0.1430460088967752 -1.8744456626553623 82 64 41
0.35387677078902036 0.14169228528621322 -1.8782573923468087 80 62 38
0.35267491493249753 0.1424843412010677 -1.8849912857220388 79 60 35
0.35904038914295167 0.13885712786896862 -1.8856957998454071 78 58 33
0.357528882337454 0.1398301984027329 -1.8926879782496933 78 58 32
0.35980613314710175 0.1385905078699077 -1.8966516471501338 80 60 33
0.36213326689608666 0.13732163818078752 -1.9005725055797964 79 57 33
0.36439909720483965 0.13608853583661296 -1.9045400660451497 80 58 32
0.36635767941022074 0.13503489187959705 -1.9087541978413776 82 61 34
0.3697388782499788 0.13315006551991682 -1.9118102448522918 80 59 32
0.37228549475948464 0.1317527514270339 -1.915539063283827 88 67 40
0.3743496410715885 0.13063729638051647 -1.9196586851220205 89 68 39
0.3764131380490523 0.129522195865315 -1.9237772437801575 89 69 37
0.3769713424647431 0.12928677102220085 -1.92913328140056 92 68 40
0.37729229440015677 0.1291900979449376 -1.934691031472499 93 69 40
0.3783489210074048 0.12866354569587235 -1.9396465979823931 95 71 42
0.37996698593224204 0.12780887397903892 -1.944139245607282 91 67 37
0.38368732897235447 0.12572530501360552 -1.9468812175646761 92 68 38
0.38672625757252754 0.12403993639673921 -1.9501827030275076 96 72 40
0.3820620411535675 0.12685801208523606 -1.9599330800328225 99 75 42
0.38192982667803743 0.1270268326835727 -1.965906186595928 98 75 40
0.38058790303879836 0.12790313460041708 -1.9729084418705076 98 76 42
0.3836706474670491 0.1261923348361678 -1.9761850725964207 104 81 49
0.3859396283500706 0.12495731410662655 -1.980145096482392 105 82 50
0.38833027492041033 0.12365109852136638 -1.9839990268940721 106 83 51
0.3907194533960514 0.12234569111747406 -1.9878509771755009 107 84 51
0.3927137267450719 0.12127121746578684 -1.9920375484379351 105 82 48
0.39769668553592863 0.11844849287814016 -1.9936584346872241 96 73 41
0.39802180213847926 0.11835030132903282 -1.9992713893107517 108 85 53
0.4096010853422957 0.11166821087370776 -1.995178113263166 108 84 49
0.4098373821082673 0.11162176454752401 -2.0008538325261465 108 84 46
0.40892927133921214 0.1122450385502611 -2.007530672155667 107 83 46
0.41137256432663766 0.11090745715361022 -2.011302900637368 112 88 50
0.4096507742406438 0.11200717231916496 -2.018708628139324 114 90 53
0.4080094507341614 0.11306007118561001 -2.0260614926816904 113 89 52
0.41016262442757 0.11189244725072153 -2.030098811064801 109 85 47
0.4150972705364789 0.10909677748506127 -2.0316839247974903 134 107 63
0.4223359032306596 0.10495222345996713 -2.0312173323155767 167 136 86
0.42852475027768305 0.10142176018675061 -2.0316527027916305 159 131 79
0.4332193592972536 0.09876570671701557 -2.0333929610420154 152 124 77
0.4320668157834945 0.09953272618843848 -2.040328506898086 134 103 64
0.43237655389430024 0.09944380203431508 -2.045972063147257 123 94 55
0.42616580049902025 0.10317304351446396 -2.057467006347009 121 93 54
0.42613821018494713 0.1032821461582972 -2.063445263026308 114 86 47
0.42354609771201385 0.10489324506321818 -2.0717443661260813 117 90 51
0.43611819300332294 0.09762351093454183 -2.066357355474726 119 94 54
0.4337771256794407 0.09908765838980063 -2.0744344779849446 122 97 58
0.43409336266777093 0.09899562447003671 -2.080116766556661 118 92 55
0.43975961602929037 0.09576972564152222 -2.0809283785469033 112 89 50
0.44129995574811026 0.09496059021289366 -2.0854922615250144 107 85 43
0.44322099530413467 0.09392843023513703 -2.0897080796751792 111 84 46
0.4452062491861619 0.09285863155252261 -2.093863896415777 156 124 77
0.4492489256879217 0.09058326229647298 -2.096121033094697 162 129 81
0.4564877579904948 0.086434780899809 -2.0954101891321932 159 129 80
0.45160036186594715 0.08939222629353905 -2.105917058305027 158 129 86
0.4560035519097461 0.08690523805170136 -2.1078176755375573 133 104 66
0.4555357892485309 0.08727297249071422 -2.114247473969589 128 100 61
0.4540850469212202 0.08821706829882092 -2.121608305292227 127 99 58
0.4503469257975947 0.09050228338786581 -2.1311314792650644 124 97 54
0.4575487259224471 0.08637454000580921 -2.1303932287207763 121 94 51
0.4727023925509754 0.07758432173105326 -2.122125335209427 120 93 50
0.47301118979185663 0.0774968647879836 -2.1278284255124764 121 94 48
0.4733034879771553 0.07741920002498959 -2.1335547079653923 124 95 52
0.47311615838549415 0.0776229106553179 -2.139744874444522 129 100 58
0.4729284700524489 0.07782699118748443 -2.1459456007779165 127 98 56
0.4729034875136736 0.0779358066492192 -2.1520009323166818 129 100 58
0.4837116409988349 0.07169081356440382 -2.1476741896188836 133 104 60
0.4864865197350761 0.07015715202924064 -2.1510261694128094 134 105 61
0.4869380014100069 0.06998633841987364 -2.156613656859985 132 103 59
0.49018136917646643 0.06817775762520775 -2.1595075006269315 126 97 53
0.49399723873241963 0.06603316473885468 -2.161837910541376 129 101 56
0.4951749196131806 0.06543632470678404 -2.166723100477177 134 105 60
0.4951891545460398 0.06552221895491908 -2.172746001419165 133 104 59
0.4975904988595752 0.0642074463054092 -2.1764434684224794 130 101 56
0.49629013786366555 0.06506501975526571 -2.1837677060305856 131 103 56
0.5049593268206788 0.06007164352387814 -2.1813038171025383 132 104 57
0.5146955985373093 0.05445135552549357 -2.177749984322464 128 100 53
0.5037787728001344 0.060953600168091204 -2.1945759543429055 136 108 61
0.50748891464683 0.05887037746292845 -2.1969666433849806 139 109 63
0.5091432180572762 0.05799392253918695 -2.2013906933495275 141 110 66
0.5188704840591518 0.052377675774736676 -2.19776601701423 140 109 65
0.5194996542486154 0.052102808797596045 -2.203193706532299 136 105 61
0.5344661508912638 0.0435975966039652 -2.206329022263714 158 126 80
0.5323839343063985 0.04491503225620733 -2.214485273926761 153 121 74
0.533064940037105 0.04460974110571264 -2.219861890190051 154 122 75
0.5361336440371542 0.04290195729768326 -2.2228176865096736 150 118 71
0.5408692412568343 0.04021481853234349 -2.224067407714055 146 116 70
0.5424870843301847 0.03935911944062853 -2.228486127221925 144 115 70
0.5475022271872121 0.03650734636217315 -2.2294246234083377 131 106 61
0.5564184223351919 0.03136305622483432 -2.2263370828142053 115 95 56
0.5571560052180301 0.031024190951274372 -2.2316344513742026 78 64 40
0.5592238020782934 0.029903669914325665 -2.2355632276328943 60 52 33
0.563126148415724 0.027704909794526056 -2.237589958035094 62 57 37
0.5663704400917415 0.025892741000692138 -2.240287804460211 60 54 32
0.5674065176617888 0.02537844958123639 -2.2452764186849254 63 55 32
0.5654906364465763 0.026599538602103207 -2.253350875955329 73 66 42
0.5629191906550013 0.02820635008912753 -2.262131957437925 98 91 74
0.5594920679873179 0.030316625542136433 -2.271835297648061 123 119 107
0.5609121374661609 0.029577271137864403 -2.276465801072237 155 153 148
0.5630548931636312 0.028412981412820587 -2.280335285959251 176 176 173
0.5686971049629046 0.025190714176793555 -2.280499359007708 187 187 186
0.5780169520471443 0.019805215299076417 -2.2767392732777965 194 194 195
0.5788751891590251 0.01939584560781718 -2.2819377437318695 198 198 200
0.5838380356838516 0.016572191532128605 -2.2827627912042976 202 202 204
0.15637680867382153 0.2432260923169911 -1.5113133643234493 110 94 72
0.17815127339385273 0.23079045935383793 -1.5093829109395416 121 105 84
0.17669975245482528 0.23171212134707614 -1.5157270382695271 117 101 80
0.17670600822988358 0.23179033655580683 -1.5212113090610868 115 97 77
0.1797428848726566 0.23011467049440215 -1.5248804006600096 113 97 74
0.19016594316202856 0.22424562193408584 -1.5295675709491856 112 94 70
0.1942047346287566 0.22198960794231212 -1.5326017198995237 110 92 70
0.19718140495281272 0.22034829361583735 -1.5362739531530172 108 90 69
0.20086706640050744 0.21829645267276163 -1.5395068396407865 109 91 67
0.2028359763947844 0.2172384005947393 -1.5437860920714692 125 105 78
0.2070574799430227 0.21487612192296557 -1.5466755639565326 127 107 78
0.20962251409552685 0.21347280386769238 -1.550579198450259 128 108 79
0.21430361959013594 0.21084412723200283 -1.5531654240447206 118 98 71
0.2193542089221891 0.20800129947714058 -1.5555086617158442 104 86 58
0.22636804982214964 0.2040213134673975 -1.556609956574999 104 84 57
0.22805303378911185 0.20312716504977305 -1.5610317672726113 103 86 58
0.23205192993862733 0.20089285416923514 -1.5639969236734022 101 85 57
0.23700562653226526 0.19810536560414516 -1.566348932337099 97 80 55
0.2436466282538346 0.19434030720259446 -1.5676170770240438 90 72 47
0.2463487982773056 0.19285659711403463 -1.5713695852297334 101 81 53
0.2494175402905528 0.19116046523496402 -1.5748838125880757 105 87 54
0.24919612913899725 0.1913703673309547 -1.5804998470019291 110 91 57
0.2555037406856677 0.18779765051203295 -1.5819275704219091 112 93 61
0.26347618017329627 0.18326001924020288 -1.582261245471404 117 100 69
0.26538268843092105 0.1822368201845121 -1.586493367735477 114 98 69
0.27088747201721225 0.17912850529752433 -1.5883878080403568 104 85 55
0.2766403286020176 0.17587618063550534 -1.590103827596261 133 111 80
0.28385530454740066 0.17177623342752177 -1.5908458941297932 119 101 71
0.2928030874119748 0.16667163460056364 -1.5904266157784068 110 93 66
0.29387228300071105 0.1661330294918651 -1.5951618702474164 112 94 64
0.3006449110847546 0.16228853552349198 -1.5961325074058765 117 99 71
0.30885444270677176 0.15761077140737206 -1.5961281657881232 100 83 57
0.3139556462377565 0.1547344888503468 -1.59816188783857 114 97 70
0.3219369301340437 0.15018828452412478 -1.5982585936345446 121 103 76
0.32865058549135523 0.14637659624524432 -1.5991758289441018 111 91 67
0.33173187908716184 0.1446706367706287 -1.6025106100932212 108 88 63
0.33708894969449055 0.141644998926576 -1.6043052519869385 123 104 80
0.3397645588337107 0.14017402211433655 -1.6078967576064225 95 77 55
0.34081071210765734 0.13964791129231027 -1.6125894302279555 97 78 59
0.35483726855404535 0.13159398444155282 -1.608448264005414 105 87 66
0.3570398416838349 0.13039682903553226 -1.612327515533686 101 84 58
0.3515340847956024 0.13367053014613411 -1.621486938407243 96 78 55
0.3552328527230847 0.13160570957325227 -1.6243502015612277 103 83 59
0.3608816691515668 0.12840957723404312 -1.6258590951570857 109 89 64
0.37018505485406317 0.12309312584402257 -1.6248205679182943 113 93 68
0.3849658088871056 0.11459849761913452 -1.6199438696094621 118 99 74
0.389570553057035 0.11200686898596623 -1.6220967551745518 100 81 58
0.38368895416699605 0.11549933673207394 -1.6315657383143656 126 107 81
0.3846417457252197 0.1150266944065762 -1.6362766539696356 106 86 55
0.3840194492374788 0.11546809274377898 -1.642098986872518 87 69 38
0.348083616285999 0.136566248850555 -1.6838327263669637 105 88 61
0.316697625917527 0.15486521340275616 -1.711702023663372 105 85 57
0.31858317922727014 0.1538539451097627 -1.7159335334926402 90 74 49
0.3166106000442269 0.1550822565082472 -1.7229319292959107 88 72 47
0.31490426536496174 0.1561562627000956 -1.729755826713961 90 73 47
0.31614392573650635 0.15552019470785666 -1.734468685630178 88 71 45
0.315599752348092 0.15591983552151156 -1.7404758498734219 91 74 48
0.3133038430456657 0.15733673385528718 -1.747766435903081 98 81 55
0.3122145181941118 0.1580532979278392 -1.754196225112553 101 85 60
0.31429513186125174 0.15692929571290234 -1.7583210594795415 100 84 58
0.3161522508860256 0.15593505920909312 -1.7626082472394482 112 95 65
0.3168717378785602 0.1556015089907256 -1.7677321125888013 101 81 50
0.31664598279967143 0.15581702443903067 -1.7735586015933005 98 78 49
0.3183256480337621 0.15492594619012656 -1.777983068877797 91 71 44
0.3211119292967009 0.15339207427997856 -1.781585615602641 89 70 45
0.32351904838368245 0.15207838536160337 -1.7854658387330105 88 71 45
0.32475654846069874 0.15144412568351018 -1.7902174191445486 97 80 55
0.32294631949422864 0.1525805501488628 -1.7972572862017713 98 80 57
0.3201190149093606 0.1543081539029063 -1.8050791556208015 95 76 53
0.31928569534786877 0.15487748725860603 -1.8114176228818994 110 90 63
0.31730148987069035 0.1561157581759542 -1.8186396679899706 102 81 52
0.31531095875321413 0.15735796871662266 -1.8258842017925667 91 72 46
0.31434140920461573 0.15800710079558258 -1.8323686217102078 88 68 44
0.3195147684398428 0.15508625805495435 -1.8341712048032794 88 68 43
0.3379940657516166 0.14443148554643884 -1.8257566313015257 90 70 45
0.3413276030992864 0.14257909130660015 -1.8289097364313474 89 69 44
0.34328651889377404 0.14152563978900295 -1.8331156220057476 89 69 42
0.3451724981723097 0.14051457244261725 -1.8373768842793148 86 66 39
0.3466850132551928 0.13972061279964296 -1.8419273144311825 85 65 38
0.3485289247473989 0.1387339956384403 -1.846220795121145 85 64 37
0.3482375785500968 0.13898888403074067 -1.852181397652739 83 63 36
0.34763248755827325 0.13942635132945294 -1.8583975467885196 80 60 35
0.34779821098704883 0.13941575327994096 -1.8640192688302832 71 52 29
0.3492365522986177 0.1386651869623597 -1.8686454744523386 63 47 28
0.3520029419881315 0.1371422778837331 -1.8722231303012278 76 59 38
0.35450538081467275 0.13577281254001844 -1.8760051550286685 81 63 39
0.35754628011917133 0.13409009613733355 -1.879355149499754 80 60 35
0.3595523820897891 0.13300921378439617 -1.8835245080314442 78 58 33
0.3602837692384523 0.13266984336346901 -1.888712777495747 78 58 33
0.3632354421642348 0.13103887355852628 -1.8921235568279844 81 60 33
0.36454047562697794 0.13036582376480077 -1.8968543248839467 83 62 34
0.3667250254969376 0.12918107446854787 -1.9008768639581781 83 62 34
0.3697444416124439 0.12751051009264897 -1.9042208997286776 84 63 34
0.37327383179979595 0.1255430956029933 -1.9071442862123233 84 63 34
0.3750264040886163 0.12460955477910132 -1.9115069931799042 94 73 41
0.370880643154007 0.12710871559956485 -1.9206912426392515 98 78 42
0.37435172548776624 0.12517518985631937 -1.923659264142419 95 75 39
0.37590378343852454 0.12435850870189175 -1.9281969239516208 97 75 40
0.37764148498452105 0.12343378030717075 -1.9325823812827516 100 77 43
0.37587728778889423 0.12454759641461693 -1.9398650131539976 99 77 43
0.3830227966785974 0.12047477574336699 -1.9397718272506788 98 75 41
0.3870986923563509 0.11818868245097047 -1.9422065979219019 96 73 40
0.39062846713272664 0.11622038758967959 -1.9450856408304853 99 77 43
0.3915857378430627 0.11574986030798395 -1.9501095470598642 98 76 39
0.3936277105702697 0.1146477574680213 -1.9542264815257435 101 79 43
0.3801745371088614 0.1225691926352476 -1.9713920394514084 101 78 43
0.3850677291366452 0.11980711411044481 -1.9731361497108708 104 81 47
0.38370617706745375 0.12068770196649964 -1.9801635750247493 106 83 50
0.39989727936906005 0.11134481350896958 -1.9722919387581765 108 85 53
0.3999504270549751 0.11140115145579615 -1.978100869518652 108 85 53
0.40156477498303683 0.1105481628720438 -1.9825838543030245 97 74 41
0.4036171347112302 0.10944001022938324 -1.9866919765069002 88 66 36
0.4056690250317751 0.10833210741025859 -1.9907989157656671 101 79 45
0.4095819223782623 0.10613987106009984 -1.9932995619623821 115 92 54
0.4118034799977059 0.10493298824850175 -1.9972518934271442 115 92 53
0.4098449908371992 0.1061618748544586 -2.00482725615021 105 81 43
0.4115585880442841 0.1052510954816814 -2.00922710750218 106 82 44
0.39670266963110995 0.11399699537063593 -2.0280823695864387 111 87 49
0.3978607383177069 0.11341062922955958 -2.033010618139305 109 85 47
0.41066442919907165 0.1060363818252506 -2.0277229889292334 114 90 52
0.4152597699830347 0.10344603720154402 -2.029602670176867 120 94 50
0.42228764280427117 0.09943743161498933 -2.0293208648212824 172 140 88
0.4297893189083583 0.09515220142284525 -2.0285926449235676 168 137 82
0.43450060034578325 0.09249340366006081 -2.030311951838332 157 129 77
0.4341775740173195 0.09276970275353855 -2.036497862111908 148 116 72
0.43466752382784934 0.09257211060222689 -2.0419684587887614 127 97 58
0.42455996443577776 0.09855445398082746 -2.056934513748523 125 97 58
0.42567296338674904 0.09799411003386083 -2.061885694825479 121 93 54
0.4307346426093032 0.09513087418591815 -2.0632840892993465 119 92 53
0.43657597269029796 0.09181264635943018 -2.063961194578029 120 95 55
0.4400893721828003 0.08985197180321017 -2.066725552291735 118 93 54
0.4361435907710204 0.09224234939942011 -2.076256031940007 116 90 53
0.43125149313210187 0.0951852210512241 -2.086678003794745 113 89 51
0.4368247082103673 0.09202302949063504 -2.0875742214765305 107 84 43
0.4420909938539907 0.08903961857183296 -2.0887316894312873 111 83 45
0.44581424131435365 0.08695627869619466 -2.0912884050243012 159 126 78
0.4496429791575593 0.08481122774029426 -2.093737564713533 175 141 91
0.4554512364035119 0.08151083254561453 -2.0943468104252227 164 132 79
0.4528156512785276 0.08313799211232828 -2.1027585140993432 164 134 85
0.45684562648337496 0.08087517495156235 -2.104999554682949 144 116 73
0.45833861448243873 0.08009297630660256 -2.1095925477092172 129 101 60
0.45356955111073105 0.08296609990471693 -2.1200383597274195 126 99 56
0.4479773619106557 0.0863202442280071 -2.1312897703402136 122 95 52
0.453869266928605 0.08297053258601084 -2.131788037151726 119 92 49
0.4672316236755319 0.07525893788135718 -2.125224513070084 117 90 47
0.4722631007846435 0.07241066401208038 -2.1264722304653456 121 94 48
0.47555990073293397 0.07057504205569498 -2.129346341091673 128 99 57
0.4711121926302508 0.07326177586014412 -2.139571845737276 127 98 56
0.4699837385962766 0.07401055751956284 -2.1466670339768794 126 97 55
0.47055744462680793 0.07376543865846152 -2.1521508181956555 127 98 56
0.48247117310714654 0.0668969463946042 -2.146773628965389 131 102 58
0.484423166023069 0.06584647795502724 -2.1509150348192905 130 101 57
0.48172605767367055 0.06751180343053262 -2.159535344330946 128 99 55
0.48319675819553665 0.06674265527943699 -2.1641518986509922 127 98 54
0.48843293445657265 0.06377359248695907 -2.16512106697781 128 100 53
0.4915238279882868 0.06205769136616296 -2.168155968393919 128 100 53
0.4918005923752305 0.061986028989596376 -2.173925599344787 125 97 50
0.4947005159471956 0.060381617119776326 -2.177140004506507 124 96 49
0.49874829436909807 0.05810630568551081 -2.1792234371136927 127 99 52
0.5039093318092089 0.0551801747821517 -2.180200560859468 128 100 53
0.5188370633455903 0.04654533126409982 -2.1715369544162986 124 97 50
0.5056394059799143 0.054349278365975806 -2.190587085680287 132 104 59
0.5045761843598153 0.05506111888169024 -2.1976975342239538 134 105 61
0.508042014622749 0.05312549601044311 -2.2003242326844368 134 104 60
0.516435335690004 0.0483089140480675 -2.1980333157723297 138 107 63
0.5167876102762088 0.04819324972190034 -2.20373742211162 136 105 60
0.5225010490796231 0.04494289877047053 -2.204079612316327 139 108 62
0.5335985309231583 0.038724015543917745 -2.211076672773825 143 112 66
0.5342728904660949 0.038419896682804655 -2.216449889055409 144 113 67
0.5356327176949891 0.03771491390613868 -2.2211329021019757 142 112 66
0.5376892197654444 0.03660242696201835 -2.2251086420785646 139 109 62
0.5393136528334495 0.035742676819947305 -2.2295235487908136 146 115 70
0.5455739462033058 0.03217071576105071 -2.229193883904392 139 111 67
0.549561871310909 0.02992792600724478 -2.231171220526279 120 99 60
0.5557635054356288 0.026389630163440286 -2.2308577733145025 90 72 46
0.5588284215583282 0.024686493908729068 -2.233756085723916 78 67 43
0.5624964535631349 0.022630290814330822 -2.236022802543577 70 63 37
0.5656553094557097 0.02087192440153582 -2.2388068201690428 68 60 35
0.5677415163438636 0.019741259061063998 -2.242698537194409 71 62 37
0.5656291883850613 0.021068142706934717 -2.2509674108625872 77 68 45
0.5625222123172755 0.022977596621340274 -2.2602979283997686 93 84 67
0.5598815103198642 0.024614484371979217 -2.2691664986487434 114 108 94
0.5607173428015958 0.0242163367995063 -2.2744040336650593 142 140 133
0.5616063884632778 0.023787106001213254 -2.2795904040467283 167 167 163
0.5616275123098227 0.023866158021269318 -2.28569891527455 184 184 182
0.5763518452030738 0.015335237501068827 -2.2762324966940524 191 191 191
0.5781369816775883 0.01438088460201925 -2.28044382122985 197 197 199
0.5784178516859672 0.014307541800688856 -2.286257639860613 202 202 204
0.5848812427366197 0.01061308678163217 -2.2854738898371467 204 204 206
0.16957143462733698 0.22998962965789252 -1.5021820870781408 109 91 67
0.1891730629329227 0.21876819562477348 -1.4960465376949923 106 89 65
0.18976799661578575 0.21850255689121897 -1.5011336623102605 115 98 74
0.18918074551744224 0.21891852382298244 -1.5069310212533957 113 96 73
0.1897809443524498 0.2186500258209541 -1.5120273967342537 115 98 75
0.1935979306782748 0.21652690733069732 -1.515195737853491 113 97 73
0.19231185855934474 0.21734606887198482 -1.5214325862958569 108 91 68
0.20045129932891742 0.2127304088821546 -1.5219781762619222 108 90 67
0.20115430473739265 0.21240263626482972 -1.5270127871817645 106 88 66
0.20435315432162426 0.21063560302797027 -1.530530653506247 100 83 61
0.2073698442239693 0.2089735356182891 -1.5341536685469999 99 82 60
0.20968589596743714 0.20771548308696008 -1.5382012624149481 98 80 58
0.21326563802242599 0.20572852317368642 -1.5414679461756975 114 92 65
0.21546419865213007 0.20453813152796343 -1.5455804758014797 125 103 73
0.21842645737924282 0.20290717830425362 -1.5492172722073496 126 105 75
0.22236049701391536 0.20071555517419745 -1.5522438111265102 121 100 71
0.23005564848082194 0.19635399463585804 -1.5529112385780512 102 83 56
0.23425823293136971 0.1940070501805676 -1.5557421080586005 95 77 50
0.23967707983612058 0.19095821005811403 -1.557797095416829 99 82 53
0.24255405753501474 0.18937579296972393 -1.5614405265417601 98 82 56
0.24668274468890922 0.18707103245037016 -1.5642860559883112 93 76 51
0.24914298419878605 0.1857289164995636 -1.568181595721907 92 73 46
0.25160184420540177 0.1843875510489778 -1.572074806922436 101 83 52
0.253928735409952 0.18312230212530625 -1.5760492735510763 108 88 56
0.2589885588603759 0.18027969413603961 -1.578265916438047 110 91 58
0.2652924998238647 0.17671879138196517 -1.5796660993042064 114 95 62
0.26900346719449186 0.17465430787818434 -1.58272280813034 112 95 64
0.27080336572028446 0.17369285959670938 -1.587010745400808 113 96 66
0.27421925674609526 0.17179852745003968 -1.5902461968700026 117 97 66
0.2824816742999112 0.16710613647016395 -1.5903079071790982 136 117 86
0.2907004173790267 0.16243854752779396 -1.5903691812573533 112 93 65
0.29390521041964623 0.1606654716097709 -1.5936994165716403 117 97 68
0.30110699725351603 0.15658441441818202 -1.5943850964315387 109 89 60
0.30701834959883667 0.1532481540561538 -1.5959008034405968 118 99 72
0.3136706985231925 0.14948372407156396 -1.596905378174151 109 92 64
0.3205974295242207 0.14556052350707896 -1.597704887383616 115 98 71
0.32684296247577244 0.1420304042737557 -1.5989366407145695 100 81 58
0.3303709501275071 0.14006955290360193 -1.6019718816895243 105 85 61
0.3283328305406279 0.14132354856023333 -1.608747113741019 126 106 80
0.33867280911341147 0.1354278404853608 -1.6071758280065518 107 87 63
0.3385443106159029 0.1355788046473831 -1.6126622306151817 89 71 52
0.3496128559008042 0.12926143620744973 -1.6105410268174847 112 94 72
0.3488397844688809 0.1297846598074977 -1.6164584157927477 116 98 70
0.3520112068247901 0.1280290830757331 -1.619686187470352 102 84 59
0.35722168507008095 0.1250952664520856 -1.621506494376325 106 87 63
0.35801331194411107 0.12471452877485764 -1.6263563507178787 105 87 61
0.3674423519488318 0.1193426884576001 -1.625237562031006 109 91 65
0.38013738400441743 0.11208297629573125 -1.6218176863337688 114 96 71
0.3903786252604057 0.10624064111079753 -1.6200555448828238 106 89 64
0.38257295529104146 0.11082797538079156 -1.6308569061170248 111 92 66
0.3873852393753791 0.10812295912177025 -1.6328612614428786 129 107 77
0.38785331579022636 0.10792875876199265 -1.6379047718030346 107 86 54
0.36468689060451615 0.12155125541067133 -1.6705081549359286 101 84 58
0.3494857789778584 0.13041725459685152 -1.68678804369762 99 81 53
0.3276904837615359 0.1430969787158281 -1.7078565887332762 95 78 53
0.3213189498602138 0.1468600429959319 -1.717979417897526 89 72 45
0.31709420562108115 0.14938226893870257 -1.726596073835907 91 72 46
0.31807184310338615 0.1488964655173581 -1.73148766330394 89 71 45
0.31809468914493927 0.14896287735770466 -1.7370736504327304 86 67 42
0.31718265296801057 0.14957008468533572 -1.7433462377868547 87 69 43
0.31395689194554094 0.15151567059680027 -1.7513161529897407 96 79 56
0.3146045019070164 0.15122118944192653 -1.7564792037189991 96 79 55
0.31402652970583506 0.1516357093576715 -1.762545602468049 100 83 54
0.31291464763005405 0.1523592367255389 -1.7690153710808338 114 96 63
0.3121465414096045 0.152884075879589 -1.775244881564455 102 82 50
0.31490271173481177 0.15137013838188493 -1.7788783114770852 94 72 44
0.3154174336249533 0.1511529808373569 -1.7841708097608475 89 69 45
0.320714817773595 0.1481686131294984 -1.7859076479569564 84 66 40
0.32314963591434204 0.14684041008176524 -1.7897661000603684 87 68 43
0.325488299607941 0.1455678026464506 -1.7936933232453893 96 77 54
0.3278904782878782 0.14425839817315866 -1.7975699648316732 94 75 53
0.3288396782038603 0.14378985040234527 -1.8025391197648977 100 80 54
0.32702330720155653 0.14492200344627193 -1.8096039873957122 113 90 59
0.32574946655362613 0.14574037351385802 -1.8162740083137168 88 68 41
0.3286574575797837 0.14413831842835909 -1.8197751936654394 80 60 35
0.33200616739408223 0.14228106228360488 -1.822934325100381 80 60 35
0.33631689400931625 0.13986677475276788 -1.8253489657472615 83 63 37
0.3421680682921949 0.13656047798206966 -1.8265678065062452 83 63 38
0.34489403362492704 0.1350633337282459 -1.8301756261623017 84 64 38
0.3477848324780531 0.1334706813675894 -1.8336512787105614 86 66 40
0.3500854571995718 0.13221968908083423 -1.8375790664326455 86 66 40
0.35185270780683453 0.13127752515347588 -1.841919035698936 86 65 38
0.35224272042604177 0.1311329386725589 -1.84733346857806 85 64 37
0.3529249041071614 0.1308192331482766 -1.8525256775872636 83 63 36
0.3513809563951144 0.1317949387883618 -1.8594706556121805 75 55 30
0.351778377938627 0.13164639288787638 -1.8649026116513858 54 38 18
0.3522231844176433 0.13147049103929806 -1.8703036031965883 59 42 21
0.3579127107749539 0.12825648156161001 -1.8715553079061258 79 62 37
0.3602124207194358 0.12700599244304137 -1.875481938242686 83 64 37
0.3609812586622189 0.1266423836682535 -1.8806262040644608 85 65 39
0.3629043883750576 0.12561005643043646 -1.8848521917610084 85 64 36
0.36300261431239694 0.12563511041812284 -1.890540899900961 84 63 34
0.36258116350269404 0.12596140922534382 -1.8966556453803796 87 66 36
0.36545571916626696 0.12437784214784761 -1.9001213577929643 90 69 39
0.3677791988286791 0.12311356052655231 -1.904027534890661 90 70 39
0.3691156049126823 0.12242130984497124 -1.9087321461644344 92 71 39
0.3684082898450955 0.12291362402524453 -1.9151028020265646 97 76 39
0.36984507974581127 0.12216331472886333 -1.9197343775284827 100 79 41
0.37410604069705833 0.11977594532656974 -1.9220540247389677 100 79 43
0.38069542562253667 0.11603860565978533 -1.9224482161047878 101 80 42
0.3809281422011153 0.11598612755669221 -1.928056858386074 105 84 45
0.3803077758217734 0.11642834916058831 -1.9343780171868072 108 87 49
0.3850067137633726 0.11378656085912295 -1.9363010619859007 104 83 46
0.39004652337142504 0.11094691214381311 -1.9379260211067295 103 82 46
0.39122393281328655 0.11034675314704145 -1.9427556982914624 99 78 42
0.39221132824704386 0.10985682504562724 -1.9477470677590605 99 78 42
0.39414680383486134 0.10881711148119871 -1.9519467717385606 100 78 42
0.39472728027508086 0.10856326198451569 -1.9572855924489054 99 76 41
0.3972062444115322 0.10720833371251612 -1.9610280066040469 103 80 44
0.38769417394958516 0.11280881566806172 -1.9749160070679337 103 81 45
0.4000210550308848 0.10574152142845378 -1.9703209831151292 103 80 48
0.4020604378715179 0.10464152327839424 -1.9744318502493978 97 74 42
0.40322090078056144 0.10405141937128123 -1.9792917141282174 85 62 31
0.4049627227265775 0.10312405321210757 -1.9836565654100649 92 70 40
0.4064055792793506 0.10237015626217652 -1.9882781749846288 109 87 52
0.4103738332026667 0.1001508696735686 -1.9907257133537726 116 94 54
0.4126983138084448 0.0988853130292717 -1.9945821822608722 116 93 54
0.4098035937842947 0.10064863022998038 -2.0029581709365396 110 87 48
0.413470984253704 0.09860378223154614 -2.0056548145166846 104 80 41
0.4083490074897148 0.10166025822028449 -2.0160022860277333 111 87 48
0.41380578087264813 0.09857680304503952 -2.01713751031851 112 88 50
0.4124511921959912 0.09944697419295936 -2.024225067846649 114 89 52
0.4104466083904803 0.10069470507527659 -2.0318998404729984 116 90 50
0.4187305538870007 0.09596962335481421 -2.0305217767989063 150 120 72
