ply
format ascii 1.0
element vertex 863
property float x
property float y
property float z
property float nx
property float ny
property float nz
property uchar diffuse_red
property uchar diffuse_green
property uchar diffuse_blue
property uchar class
property uchar detection
end_header
-0.0954 0.4851 -2.2218 0.375 0.681 0.629 128 107 62 0 0
-0.0813 0.5130 -2.2574 0.589 0.794 -0.149 113 90 49 0 0
-0.0729 0.5287 -2.2606 0.061 0.868 0.494 113 91 53 0 0
-0.1914 0.2673 -1.5961 0.004 0.538 0.843 113 95 68 0 0
-0.1648 0.3172 -1.6027 -0.220 0.479 0.850 121 100 69 0 0
-0.1624 0.3218 -1.6051 0.128 0.264 0.956 133 110 77 0 0
-0.1326 0.3783 -1.6275 -0.368 0.817 0.444 101 79 50 0 0
-0.1306 0.3824 -1.6356 -0.182 0.769 0.613 109 88 59 0 0
-0.1540 0.3530 -1.9461 0.586 0.564 0.581 112 91 60 0 0
-0.1534 0.3543 -1.9510 0.128 0.726 0.676 111 90 59 0 0
-0.1404 0.3819 -2.0242 -0.138 0.701 0.699 114 94 62 0 0
-0.0954 0.4732 -2.1877 0.086 0.908 0.410 141 112 71 0 0
-0.0768 0.5085 -2.2036 0.211 0.931 0.298 125 104 62 0 0
-0.0672 0.5288 -2.2521 -0.161 0.881 0.445 114 92 52 0 0
-0.0633 0.5365 -2.2633 -0.080 0.639 0.765 133 122 102 0 0
-0.1515 0.3322 -1.6026 0.176 0.353 0.919 133 109 74 0 0
-0.1483 0.3381 -1.6041 0.295 0.364 0.883 127 101 67 0 0
-0.1342 0.3649 -1.6136 -0.048 0.998 0.027 157 131 93 0 0
-0.1695 0.3068 -1.7927 -0.084 0.826 0.557 125 102 73 0 0
-0.1198 0.4101 -2.0287 -0.122 0.870 0.478 114 93 56 0 0
-0.1108 0.4305 -2.1079 -0.304 0.923 0.236 159 131 87 0 0
-0.1033 0.4448 -2.1134 -0.231 0.570 0.788 129 102 60 0 0
-0.0939 0.4647 -2.1628 0.148 0.984 0.103 133 105 65 0 0
-0.0936 0.4654 -2.1682 0.361 0.921 0.149 133 104 62 0 0
-0.0881 0.4764 -2.1827 0.262 0.877 0.402 139 111 69 0 0
-0.1909 0.2472 -1.5787 0.148 0.811 0.566 112 92 65 0 0
-0.1473 0.3301 -1.6026 0.176 0.353 0.919 146 123 85 0 0
-0.1444 0.3356 -1.6044 0.295 0.364 0.883 123 100 63 0 0
-0.1630 0.3089 -1.7954 0.347 0.603 0.718 121 101 71 0 0
-0.1585 0.3172 -1.7952 -0.042 0.928 0.370 125 105 78 0 0
-0.1569 0.3204 -1.7986 0.295 0.814 0.501 113 93 67 0 0
-0.1506 0.3347 -1.8572 -0.112 0.989 -0.092 121 99 68 0 0
-0.1508 0.3354 -1.8800 -0.165 0.980 0.109 118 96 65 0 0
-0.1256 0.3872 -1.9864 -0.298 0.770 0.565 111 88 55 0 0
-0.1028 0.4332 -2.0612 0.213 0.253 0.944 123 100 62 0 0
-0.1080 0.4246 -2.0869 -0.433 0.817 0.382 118 94 59 0 0
-0.0262 0.5850 -2.2475 -0.120 -0.163 0.979 202 202 203 0 0
-0.1837 0.2506 -1.5808 -0.219 0.705 0.674 111 91 64 0 0
-0.1655 0.2856 -1.5971 0.048 0.583 0.811 127 106 74 0 0
-0.1431 0.3279 -1.6027 0.232 0.386 0.893 163 139 100 0 0
-0.1404 0.3331 -1.6047 0.295 0.364 0.883 129 105 67 0 0
-0.1429 0.3396 -1.8752 -0.215 0.943 0.254 120 97 66 0 0
-0.1192 0.3894 -1.9948 0.093 0.942 0.324 113 92 61 0 0
-0.1182 0.3914 -1.9991 0.159 0.899 0.409 111 90 59 0 0
-0.1218 0.3854 -2.0220 0.475 0.810 0.345 110 87 53 0 0
-0.0895 0.4513 -2.1405 0.315 0.755 0.575 121 94 51 0 0
-0.0881 0.4540 -2.1441 0.279 0.723 0.632 123 96 54 0 0
-0.0867 0.4568 -2.1477 0.387 0.665 0.639 124 97 55 0 0
-0.0807 0.4687 -2.1614 0.449 0.816 0.364 130 101 61 0 0
-0.0780 0.4756 -2.2043 -0.171 0.834 0.524 131 106 65 0 0
-0.0472 0.5361 -2.2637 -0.050 0.905 0.421 129 120 104 0 0
-0.1388 0.3262 -1.6025 0.379 0.231 0.896 152 129 88 0 0
-0.1364 0.3308 -1.6049 0.254 0.314 0.915 130 107 66 0 0
-0.1198 0.3624 -1.6113 0.196 0.813 0.549 120 97 68 0 0
-0.1605 0.2927 -1.7925 -0.014 0.959 0.283 113 91 59 0 0
-0.1374 0.3395 -1.8679 -0.116 0.981 0.156 126 102 70 0 0
-0.1056 0.4036 -1.9695 -0.310 0.556 0.771 113 90 58 0 0
-0.0846 0.4501 -2.1397 0.390 0.586 0.710 108 83 42 0 0
-0.0836 0.4521 -2.1440 0.295 0.775 0.559 107 81 41 0 0
-0.0824 0.4545 -2.1479 0.298 0.784 0.544 118 91 51 0 0
-0.0809 0.4576 -2.1513 0.328 0.715 0.617 128 101 57 0 0
-0.0772 0.4648 -2.1569 0.434 0.781 0.449 130 102 64 0 0
-0.0755 0.4682 -2.1599 -0.011 0.889 0.459 127 99 60 0 0
-0.0698 0.4805 -2.1977 -0.111 0.978 0.175 134 109 69 0 0
-0.1351 0.3231 -1.6032 0.264 0.211 0.941 147 123 86 0 0
-0.1319 0.3293 -1.6046 0.135 0.274 0.952 142 119 77 0 0
-0.1140 0.3632 -1.6094 -0.126 0.778 0.615 129 107 74 0 0
-0.1133 0.3648 -1.6138 -0.425 0.694 0.581 132 107 72 0 0
-0.1550 0.2928 -1.7910 0.046 0.937 0.347 120 98 64 0 0
-0.1547 0.2934 -1.7963 -0.074 0.919 0.387 112 91 60 0 0
-0.1511 0.3003 -1.7971 0.013 0.591 0.806 109 88 58 0 0
-0.1317 0.3398 -1.8661 -0.116 0.981 0.156 131 107 73 0 0
-0.1295 0.3451 -1.8970 0.050 0.976 -0.211 122 101 67 0 0
-0.1196 0.3647 -1.9168 0.090 0.996 -0.028 118 95 62 0 0
-0.0994 0.4092 -2.0767 0.798 0.603 -0.017 118 94 58 0 0
-0.0773 0.4538 -2.1466 0.353 0.657 0.666 114 86 48 0 0
-0.0759 0.4566 -2.1502 0.353 0.657 0.666 127 99 58 0 0
-0.0697 0.4687 -2.1575 0.231 0.761 0.606 126 98 60 0 0
-0.0682 0.4715 -2.1610 0.329 0.870 0.367 123 97 58 0 0
-0.0667 0.4745 -2.1643 0.466 0.840 0.277 119 94 55 0 0
-0.0661 0.4759 -2.1692 0.385 0.909 0.158 118 93 55 0 0
-0.0570 0.4937 -2.1832 0.002 0.982 0.191 134 109 68 0 0
-0.0222 0.5625 -2.2579 0.197 0.438 0.877 195 194 198 0 0
-0.1307 0.3214 -1.6030 -0.099 0.371 0.923 135 112 77 0 0
-0.1138 0.3645 -1.8978 0.506 0.855 -0.112 121 98 67 0 0
-0.1002 0.3942 -1.9975 -0.282 0.905 0.319 110 90 57 0 0
-0.0996 0.3955 -2.0024 -0.262 0.952 0.157 112 90 58 0 0
-0.0992 0.3980 -2.0482 -0.486 0.745 0.457 167 138 93 0 0
-0.0755 0.4465 -2.1392 0.442 0.759 0.479 108 83 42 0 0
-0.0726 0.4523 -2.1462 0.256 0.835 0.487 114 89 48 0 0
-0.0719 0.4538 -2.1509 0.378 0.678 0.631 121 96 55 0 0
-0.0636 0.4699 -2.1605 0.269 0.904 0.333 118 93 53 0 0
-0.0625 0.4722 -2.1646 0.466 0.840 0.277 114 89 49 0 0
-0.0605 0.4761 -2.1671 0.390 0.889 0.242 114 90 49 0 0
-0.0509 0.4946 -2.1743 0.418 0.766 0.488 125 100 60 0 0
-0.0474 0.5021 -2.1979 0.526 0.692 0.495 115 91 48 0 0
-0.0432 0.5112 -2.2261 0.168 0.859 0.483 125 102 60 0 0
-0.0176 0.5611 -2.2573 0.246 0.515 0.821 193 192 196 0 0
-0.1749 0.2240 -1.5211 0.051 0.988 0.149 111 90 59 0 0
-0.1294 0.3134 -1.5906 -0.231 0.889 0.395 133 111 78 0 0
-0.1297 0.3129 -1.5963 -0.028 0.597 0.802 136 113 80 0 0
-0.1069 0.3568 -1.6056 0.430 0.477 0.766 136 114 80 0 0
-0.1051 0.3602 -1.6087 0.430 0.477 0.766 149 126 88 0 0
-0.0991 0.3719 -1.6118 -0.080 0.798 0.598 136 110 70 0 0
-0.1102 0.3620 -1.9215 0.405 0.912 -0.059 116 93 60 0 0
-0.0941 0.3971 -2.0412 -0.486 0.745 0.457 115 92 58 0 0
-0.0925 0.4002 -2.0446 -0.486 0.745 0.457 163 135 95 0 0
-0.0912 0.4029 -2.0483 -0.480 0.787 0.388 167 135 90 0 0
-0.0754 0.4344 -2.0873 0.137 0.768 0.625 73 60 44 0 0
-0.0717 0.4420 -2.1048 0.177 0.951 0.254 108 90 64 0 0
-0.0690 0.4473 -2.1061 0.338 0.931 0.139 97 77 45 0 0
-0.0711 0.4444 -2.1331 0.711 0.606 0.357 116 92 48 0 0
-0.0606 0.4652 -2.1569 0.335 0.682 0.650 122 97 57 0 0
-0.0593 0.4677 -2.1607 0.498 0.747 0.441 124 99 59 0 0
-0.0583 0.4698 -2.1649 0.562 0.743 0.362 117 92 52 0 0
-0.0557 0.4750 -2.1724 0.498 0.791 0.355 111 88 46 0 0
-0.0242 0.5383 -2.2595 -0.094 0.907 0.410 127 122 111 0 0
-0.1690 0.2251 -1.5193 -0.156 0.924 0.348 108 87 56 0 0
-0.1487 0.2650 -1.5547 -0.266 0.745 0.612 109 87 57 0 0
-0.1466 0.2692 -1.5576 -0.235 0.714 0.660 103 82 53 0 0
-0.1233 0.3150 -1.5937 0.297 0.671 0.679 145 122 88 0 0
-0.1036 0.3531 -1.6067 0.168 0.349 0.922 129 107 76 0 0
-0.1075 0.3521 -1.7894 0.721 0.476 0.503 109 89 59 0 0
-0.1029 0.3644 -1.8889 0.150 0.951 0.271 127 104 70 0 0
-0.1055 0.3598 -1.8983 0.233 0.972 0.017 122 99 67 0 0
-0.1080 0.3554 -1.9075 0.089 0.843 0.531 122 99 67 0 0
-0.1073 0.3568 -1.9123 0.164 0.864 0.477 121 98 66 0 0
-0.1055 0.3603 -1.9154 0.405 0.912 -0.059 113 90 58 0 0
-0.1058 0.3601 -1.9214 0.405 0.912 -0.059 114 91 58 0 0
-0.1060 0.3598 -1.9275 0.405 0.912 -0.059 119 96 62 0 0
-0.1050 0.3621 -1.9374 0.138 0.951 0.275 120 97 63 0 0
-0.0729 0.4287 -2.0844 0.166 0.654 0.738 87 69 40 0 0
-0.0724 0.4298 -2.0896 0.513 0.692 0.508 81 66 42 0 0
-0.0691 0.4365 -2.1018 0.082 0.980 0.181 85 71 43 0 0
-0.0675 0.4408 -2.1345 0.655 0.692 0.304 114 89 48 0 0
-0.0647 0.4466 -2.1476 0.393 0.606 0.691 116 91 50 0 0
-0.0643 0.4475 -2.1529 0.538 0.746 0.393 117 92 51 0 0
-0.0564 0.4628 -2.1572 0.536 0.654 0.535 124 99 59 0 0
-0.0408 0.4939 -2.1957 0.390 0.921 -0.016 119 95 51 0 0
-0.0209 0.5341 -2.2555 0.726 0.680 0.097 89 76 52 0 0
-0.0188 0.5382 -2.2576 0.057 0.796 0.602 113 105 90 0 0
-0.1623 0.2269 -1.5009 -0.162 0.983 -0.085 123 99 67 0 0
-0.1592 0.2333 -1.5132 0.177 0.490 0.853 112 91 60 0 0
-0.1468 0.2584 -1.5521 -0.370 0.730 0.575 127 104 68 0 0
-0.1438 0.2642 -1.5540 0.168 0.615 0.770 125 102 67 0 0
-0.1417 0.2684 -1.5568 0.020 0.699 0.715 105 84 52 0 0
-0.1400 0.2717 -1.5602 0.020 0.699 0.715 95 74 46 0 0
-0.0998 0.3504 -1.6072 -0.014 0.434 0.901 128 105 76 0 0
-0.0969 0.3561 -1.6088 -0.080 0.362 0.929 133 111 75 0 0
-0.0780 0.3930 -1.6272 -0.028 0.878 0.478 120 96 55 0 0
-0.1045 0.3456 -1.7308 -0.388 0.866 0.316 115 95 65 0 0
-0.0982 0.3630 -1.8884 0.238 0.938 0.250 127 103 69 0 0
-0.0889 0.3829 -1.9485 0.384 0.386 0.839 114 91 57 0 0
-0.0753 0.4120 -2.0370 -0.250 0.932 0.263 134 108 70 0 0
-0.0645 0.4350 -2.1013 0.403 0.778 0.481 96 79 48 0 0
-0.0636 0.4377 -2.1354 0.433 0.901 0.023 116 91 50 0 0
-0.0567 0.4516 -2.1534 0.461 0.436 0.773 116 91 50 0 0
-0.0561 0.4529 -2.1583 0.838 0.414 0.355 119 94 53 0 0
-0.0540 0.4569 -2.1607 0.721 0.293 0.627 119 94 54 0 0
-0.0208 0.5232 -2.2332 0.282 0.913 0.294 118 96 50 0 0
-0.0201 0.5247 -2.2379 0.082 0.906 0.415 120 99 54 0 0
-0.0174 0.5305 -2.2570 0.726 0.680 0.097 98 81 52 0 0
-0.0173 0.5308 -2.2629 0.762 0.634 0.133 102 89 69 0 0
-0.1697 0.2001 -1.4349 -0.070 0.998 -0.009 101 85 62 0 0
-0.1563 0.2280 -1.4990 -0.162 0.983 -0.085 124 100 66 0 0
-0.0892 0.3608 -1.6098 0.026 0.337 0.941 165 142 99 0 0
-0.1076 0.3293 -1.7296 -0.199 0.945 0.259 110 89 58 0 0
-0.1059 0.3347 -1.7933 -0.124 0.686 0.717 122 99 65 0 0
-0.0831 0.3826 -1.9179 0.147 0.902 0.405 119 96 62 0 0
-0.0822 0.3845 -1.9222 0.147 0.902 0.405 119 96 62 0 0
-0.0814 0.3863 -1.9266 0.156 0.904 0.399 118 95 61 0 0
-0.0866 0.3776 -1.9688 0.212 0.788 0.578 116 93 59 0 0
-0.0853 0.3801 -1.9727 0.092 0.868 0.488 115 92 58 0 0
-0.0426 0.4680 -2.1486 0.161 0.964 -0.212 118 93 53 0 0
-0.2122 0.1072 -1.4142 -0.633 0.419 0.651 125 119 116 0 0
-0.1600 0.2089 -1.4448 -0.161 0.967 0.198 99 80 53 0 0
-0.1416 0.2462 -1.5033 0.109 0.994 -0.006 123 100 65 0 0
-0.1007 0.3325 -1.7316 -0.359 0.881 0.309 107 86 55 0 0
-0.0998 0.3343 -1.7358 -0.359 0.881 0.309 93 73 41 0 0
-0.0975 0.3388 -1.7383 0.159 0.984 -0.077 108 87 56 0 0
-0.1006 0.3344 -1.7921 -0.124 0.686 0.717 124 99 67 0 0
-0.0996 0.3366 -1.7961 0.126 0.663 0.738 123 100 67 0 0
-0.0810 0.3765 -1.9269 0.192 0.855 0.482 118 95 61 0 0
-0.0788 0.3809 -1.9293 0.517 0.839 0.170 116 93 59 0 0
-0.0516 0.4397 -2.1298 0.220 0.948 0.229 114 89 48 0 0
-0.0375 0.4674 -2.1472 0.161 0.964 -0.212 118 93 53 0 0
-0.0126 0.5182 -2.2341 0.323 0.934 0.155 120 97 53 0 0
-0.0133 0.5170 -2.2414 0.308 0.942 0.132 121 98 54 0 0
-0.0083 0.5278 -2.2743 0.681 0.612 0.402 124 116 100 0 0
0.0097 0.5623 -2.2706 0.013 0.707 0.707 201 201 203 0 0
0.0142 0.5710 -2.2679 0.552 0.242 0.798 203 203 205 0 0
0.0280 0.5971 -2.2536 0.780 0.314 0.541 206 206 207 0 0
-0.1494 0.2191 -1.4433 0.107 0.662 0.742 104 83 53 0 0
-0.1142 0.2912 -1.5712 -0.067 0.961 0.268 122 100 65 0 0
-0.1139 0.2919 -1.5762 -0.162 0.751 0.640 116 93 59 0 0
-0.1123 0.2951 -1.5796 -0.273 0.583 0.765 109 85 60 0 0
-0.0744 0.3694 -1.6122 0.008 0.343 0.939 151 128 92 0 0
-0.0718 0.3746 -1.6141 0.008 0.343 0.939 123 98 65 0 0
-0.0922 0.3406 -1.7974 -0.051 0.665 0.745 123 102 71 0 0
-0.0920 0.3412 -1.8083 0.454 0.658 0.601 94 74 47 0 0
-0.0895 0.3462 -1.8103 0.277 0.858 0.433 103 80 48 0 0
-0.0779 0.3715 -1.9060 0.345 0.839 0.422 117 94 60 0 0
-0.0757 0.3758 -1.9083 0.592 0.781 0.199 117 94 60 0 0
-0.0761 0.3751 -1.9147 0.345 0.839 0.422 118 95 61 0 0
-0.0732 0.3820 -1.9560 -0.306 0.921 0.240 113 90 56 0 0
-0.0730 0.3827 -1.9672 -0.246 0.655 0.715 115 92 58 0 0
-0.0715 0.3874 -2.0227 0.330 0.879 -0.345 109 86 52 0 0
-0.0311 0.4689 -2.1318 0.954 0.187 0.233 110 86 42 0 0
-0.0307 0.4697 -2.1372 0.257 0.856 0.448 112 87 46 0 0
-0.0333 0.4651 -2.1475 0.486 0.558 0.672 117 92 52 0 0
-0.0321 0.4678 -2.1632 0.808 0.363 0.465 116 91 50 0 0
-0.0055 0.5204 -2.1992 0.603 0.789 -0.119 116 92 49 0 0
-0.0064 0.5191 -2.2127 0.603 0.789 -0.119 115 91 48 0 0
-0.0039 0.5239 -2.2141 0.254 0.924 -0.287 116 93 48 0 0
-0.0057 0.5208 -2.2234 0.334 0.942 -0.037 120 97 52 0 0
-0.0075 0.5176 -2.2326 0.471 0.625 0.622 119 96 52 0 0
-0.0077 0.5175 -2.2390 0.266 0.902 0.339 122 99 55 0 0
0.0218 0.5751 -2.2617 0.160 0.151 0.975 203 203 205 0 0
-0.1939 0.1212 -1.4047 -0.495 0.372 0.785 110 96 81 0 0
-0.1897 0.1296 -1.4057 -0.518 0.402 0.755 109 92 74 0 0
-0.1448 0.2178 -1.4429 0.107 0.662 0.742 114 92 60 0 0
-0.1415 0.2244 -1.4497 0.308 0.740 0.598 109 87 55 0 0
-0.1286 0.2509 -1.4982 0.161 0.875 0.457 127 103 67 0 0
-0.1078 0.2934 -1.5740 0.191 0.886 0.422 124 103 67 0 0
-0.1066 0.2958 -1.5779 -0.076 0.716 0.694 105 83 55 0 0
-0.1053 0.2985 -1.5815 -0.120 0.531 0.839 96 80 55 0 0
-0.0871 0.3343 -1.5963 0.021 0.645 0.764 142 119 81 0 0
-0.0840 0.3403 -1.5978 0.059 0.617 0.785 134 111 76 0 0
-0.0818 0.3447 -1.6003 -0.027 0.513 0.858 124 101 67 0 0
-0.0804 0.3475 -1.6039 -0.151 0.576 0.804 143 118 80 0 0
-0.0511 0.4048 -1.6192 0.465 0.824 0.323 112 89 52 0 0
-0.0505 0.4061 -1.6237 0.398 0.874 0.277 106 86 50 0 0
-0.0933 0.3269 -1.7606 -0.155 0.987 -0.031 121 96 64 0 0
-0.0850 0.3444 -1.8045 0.316 0.886 0.339 101 79 48 0 0
-0.0833 0.3476 -1.8078 0.287 0.889 0.357 97 76 47 0 0
-0.0825 0.3493 -1.8122 0.207 0.899 0.386 121 101 67 0 0
-0.0794 0.3562 -1.8412 -0.023 0.960 0.278 126 103 70 0 0
-0.0788 0.3574 -1.8460 0.003 0.904 0.428 122 99 64 0 0
-0.0514 0.4164 -2.0441 -0.021 0.617 0.787 155 127 86 0 0
-0.0493 0.4207 -2.0523 -0.113 0.876 0.468 106 85 50 0 0
-0.0112 0.4990 -2.1994 0.121 0.192 0.974 110 86 42 0 0
-0.0072 0.5068 -2.2042 0.584 0.728 0.359 114 90 46 0 0
-0.0049 0.5114 -2.2059 0.643 0.687 0.338 116 92 48 0 0
0.0251 0.5712 -2.2636 -0.143 0.770 0.622 202 202 204 0 0
0.0319 0.5843 -2.2565 -0.393 -0.059 0.918 204 204 206 0 0
-0.1866 0.1248 -1.4017 -0.477 0.339 0.811 111 94 74 0 0
-0.1828 0.1323 -1.4032 -0.440 0.389 0.810 109 90 68 0 0
-0.1426 0.2112 -1.4191 -0.207 0.890 0.406 114 93 61 0 0
-0.1274 0.2416 -1.4495 -0.093 0.645 0.758 113 90 54 0 0
-0.1231 0.2501 -1.4552 0.027 0.918 0.395 117 96 57 0 0
-0.1233 0.2499 -1.4606 -0.182 0.902 0.392 125 101 64 0 0
-0.1214 0.2544 -1.4896 -0.550 0.802 0.233 134 111 76 0 0
-0.1204 0.2563 -1.4938 -0.540 0.810 0.228 125 101 63 0 0
-0.1134 0.2705 -1.5120 0.270 0.637 0.722 120 97 65 0 0
-0.1046 0.2890 -1.5594 -0.077 0.960 0.270 116 94 56 0 0
-0.1034 0.2916 -1.5685 -0.004 0.986 0.168 124 100 60 0 0
-0.1015 0.2955 -1.5768 -0.002 0.759 0.651 124 99 67 0 0
-0.0636 0.3702 -1.6090 -0.205 0.450 0.869 148 128 93 0 0
-0.0460 0.4051 -1.6336 0.147 0.936 0.320 95 72 46 0 0
-0.0867 0.3293 -1.7574 -0.190 0.982 -0.016 115 91 60 0 0
-0.0816 0.3403 -1.8003 0.307 0.881 0.361 114 91 59 0 0
-0.0800 0.3435 -1.8036 0.267 0.875 0.405 112 91 59 0 0
-0.0792 0.3452 -1.8080 0.588 0.655 0.475 107 87 57 0 0
-0.0775 0.3487 -1.8112 0.520 0.736 0.433 107 87 54 0 0
-0.0774 0.3490 -1.8166 0.417 0.899 0.133 123 103 66 0 0
-0.0737 0.3569 -1.8449 0.003 0.904 0.428 123 101 62 0 0
-0.0723 0.3602 -1.8653 0.161 0.808 0.566 124 102 65 0 0
-0.0713 0.3623 -1.8694 0.142 0.942 0.305 123 101 64 0 0
-0.0588 0.3905 -2.0106 -0.125 0.959 -0.253 106 83 49 0 0
-0.0026 0.5052 -2.1976 0.597 0.640 0.484 110 86 42 0 0
-0.0031 0.5043 -2.2046 0.345 0.927 0.149 111 87 43 0 0
-0.0036 0.5036 -2.2114 0.282 0.941 0.187 114 90 46 0 0
-0.0042 0.5025 -2.2186 -0.017 0.965 0.263 114 90 46 0 0
0.0133 0.5378 -2.2581 0.059 0.743 0.667 97 82 50 0 0
0.0296 0.5698 -2.2630 0.007 0.982 0.188 202 202 204 0 0
-0.1807 0.1257 -1.4002 -0.513 0.424 0.746 109 92 67 0 0
-0.1160 0.2545 -1.4831 -0.496 0.868 -0.035 102 78 49 0 0
-0.1096 0.2675 -1.5072 -0.158 0.796 0.584 124 101 67 0 0
-0.1078 0.2711 -1.5104 0.049 0.808 0.587 113 90 57 0 0
-0.1065 0.2738 -1.5141 -0.033 0.938 0.346 115 93 58 0 0
-0.0923 0.3031 -1.5761 0.019 0.701 0.713 128 103 72 0 0
-0.0662 0.3617 -1.8683 -0.033 0.945 0.325 119 97 60 0 0
-0.0511 0.3934 -1.9534 0.123 0.942 0.312 111 88 56 0 0
-0.0322 0.4332 -2.0619 0.659 0.659 0.363 98 75 41 0 0
-0.0187 0.4613 -2.1271 -0.041 0.442 0.896 112 87 46 0 0
-0.0146 0.4705 -2.1673 0.102 0.951 -0.293 115 90 49 0 0
-0.0101 0.4795 -2.1772 0.022 0.828 0.560 112 87 47 0 0
-0.0083 0.4834 -2.1980 0.451 0.705 0.546 112 87 47 0 0
0.0008 0.5013 -2.1994 0.126 0.772 0.623 108 83 42 0 0
0.0011 0.5021 -2.2047 0.205 0.961 0.185 109 84 43 0 0
0.0004 0.5008 -2.2121 -0.017 0.965 0.263 111 86 44 0 0
0.0010 0.5022 -2.2170 -0.017 0.965 0.263 114 90 46 0 0
0.2021 0.8963 -2.2502 0.287 0.819 0.496 212 212 212 0 0
0.2036 0.8993 -2.2524 0.397 0.845 0.358 209 209 209 0 0
0.2056 0.9033 -2.2592 0.692 0.535 0.485 213 213 213 0 0
-0.1928 0.0835 -1.0810 0.967 0.245 0.064 182 183 185 0 0
-0.1926 0.0840 -1.0857 0.967 0.245 0.064 181 182 185 0 0
-0.1925 0.0845 -1.0905 0.967 0.245 0.064 182 183 185 0 0
-0.1927 0.0843 -1.0955 0.950 0.306 0.068 183 184 186 0 0
-0.1923 0.0851 -1.1001 0.953 0.293 0.079 183 184 186 0 0
-0.2014 0.0688 -1.1617 -0.486 0.873 -0.036 186 188 190 0 0
-0.1794 0.1175 -1.3927 -0.576 0.359 0.734 111 94 72 0 0
-0.1330 0.2092 -1.4180 0.138 0.913 0.384 109 89 52 0 0
-0.1318 0.2116 -1.4219 0.002 0.922 0.387 117 95 60 0 0
-0.1030 0.2702 -1.5097 0.126 0.835 0.536 120 97 62 0 0
-0.1017 0.2729 -1.5134 0.389 0.848 0.359 116 93 59 0 0
-0.0968 0.2833 -1.5443 -0.178 0.879 0.443 133 111 71 0 0
-0.0957 0.2856 -1.5483 0.114 0.915 0.387 143 118 78 0 0
-0.0941 0.2889 -1.5569 0.172 0.956 0.239 121 98 59 0 0
-0.0888 0.2995 -1.5664 0.231 0.876 0.423 124 100 63 0 0
-0.0735 0.3342 -1.7622 0.159 0.930 0.332 125 103 63 0 0
-0.0701 0.3409 -1.7631 -0.121 0.992 0.044 123 97 53 0 0
-0.0686 0.3440 -1.7664 -0.319 0.937 0.141 152 120 70 0 0
-0.0657 0.3513 -1.8289 0.046 0.990 0.134 124 102 65 0 0
-0.0472 0.3903 -1.9426 0.119 0.930 0.348 95 72 38 0 0
-0.0469 0.3911 -1.9479 0.123 0.942 0.312 96 73 41 0 0
-0.0462 0.3925 -1.9525 0.123 0.942 0.312 105 82 50 0 0
-0.0279 0.4311 -2.0619 0.410 0.740 0.533 99 77 42 0 0
-0.0265 0.4340 -2.0653 0.459 0.828 0.323 100 78 44 0 0
-0.0039 0.4806 -2.1620 0.084 0.995 0.059 116 91 51 0 0
-0.0045 0.4799 -2.1810 0.185 0.975 0.120 113 87 48 0 0
-0.0039 0.4816 -2.1978 -0.024 0.874 0.485 112 87 47 0 0
0.0056 0.5002 -2.1985 0.267 0.781 0.565 102 78 36 0 0
0.0057 0.5006 -2.2042 0.335 0.904 0.267 105 81 40 0 0
0.0062 0.5018 -2.2154 -0.017 0.965 0.263 105 81 38 0 0
-0.1909 0.0772 -1.0876 0.950 0.306 0.068 160 157 155 0 0
-0.1907 0.0777 -1.0924 0.932 0.352 0.090 162 159 156 0 0
-0.1906 0.0781 -1.0971 0.950 0.306 0.068 166 163 161 0 0
-0.1902 0.0789 -1.1018 0.953 0.293 0.079 172 169 167 0 0
-0.1282 0.2082 -1.4174 0.138 0.913 0.384 116 93 56 0 0
-0.0908 0.2845 -1.5318 -0.400 0.898 0.183 94 71 33 0 0
-0.0878 0.2908 -1.5492 0.649 0.727 0.227 145 116 78 0 0
-0.0740 0.3188 -1.5851 0.370 0.917 0.146 134 114 78 0 0
-0.0743 0.3184 -1.5907 0.467 0.742 0.481 123 104 71 0 0
-0.0728 0.3214 -1.5941 0.315 0.593 0.741 125 104 70 0 0
-0.0507 0.3652 -1.6084 0.084 0.410 0.908 110 94 71 0 0
-0.0645 0.3416 -1.7611 -0.010 0.997 0.072 123 100 57 0 0
-0.0606 0.3496 -1.7778 -0.410 0.880 0.240 119 93 53 0 0
-0.0545 0.3628 -1.8301 -0.060 0.985 0.161 112 90 53 0 0
-0.0528 0.3663 -1.8332 -0.062 0.996 -0.070 111 89 52 0 0
-0.0540 0.3640 -1.8406 -0.015 0.908 0.419 115 93 56 0 0
-0.0531 0.3660 -1.8448 -0.015 0.908 0.419 115 93 56 0 0
-0.0521 0.3680 -1.8490 0.099 0.937 0.335 123 101 64 0 0
-0.0425 0.3888 -1.9364 0.109 0.950 0.293 95 74 41 0 0
-0.0426 0.3888 -1.9422 0.202 0.919 0.338 95 72 39 0 0
-0.0418 0.3906 -1.9466 0.281 0.892 0.354 91 68 37 0 0
-0.0410 0.3921 -1.9512 0.328 0.930 0.164 93 70 39 0 0
-0.0403 0.3936 -1.9558 0.237 0.918 0.318 95 72 41 0 0
-0.0353 0.4047 -2.0054 -0.012 0.979 0.205 101 78 44 0 0
-0.0344 0.4066 -2.0097 0.265 0.921 0.284 102 79 45 0 0
-0.0322 0.4109 -2.0121 -0.078 0.788 0.611 102 79 45 0 0
-0.0217 0.4326 -2.0588 0.159 0.974 0.160 98 78 43 0 0
-0.0228 0.4307 -2.0665 0.540 0.839 0.066 100 80 45 0 0
-0.0159 0.4453 -2.1136 -0.408 0.902 0.138 146 117 76 0 0
-0.0181 0.4412 -2.1234 -0.269 0.950 -0.160 111 85 47 0 0
-0.0062 0.4649 -2.1322 0.503 0.569 0.651 106 81 41 0 0
-0.0035 0.4705 -2.1452 0.737 0.671 0.082 106 82 41 0 0
0.0012 0.4801 -2.1606 0.084 0.995 0.059 112 87 47 0 0
0.0020 0.4819 -2.1650 0.427 0.885 0.188 112 86 47 0 0
0.0034 0.4846 -2.1685 0.522 0.852 0.026 112 86 46 0 0
0.0103 0.4989 -2.1978 0.287 0.871 0.399 103 80 38 0 0
0.0101 0.4987 -2.2041 0.507 0.833 0.220 103 80 38 0 0
0.0105 0.4995 -2.2095 0.245 0.915 0.321 103 79 38 0 0
0.0112 0.5009 -2.2142 0.245 0.915 0.321 98 73 33 0 0
0.0115 0.5018 -2.2195 0.007 0.690 0.724 99 74 34 0 0
0.2086 0.8902 -2.2472 -0.124 0.642 0.757 215 215 215 0 0
0.2112 0.8955 -2.2526 0.235 0.871 0.431 211 211 211 0 0
0.2118 0.8970 -2.2625 0.628 0.553 0.547 213 213 213 0 0
-0.1849 0.0779 -1.0474 -0.004 0.993 -0.121 98 87 76 0 0
-0.1847 0.0784 -1.0521 -0.029 0.991 -0.133 91 81 68 0 0
-0.1851 0.0777 -1.0572 -0.029 0.991 -0.133 86 74 61 0 0
-0.1855 0.0770 -1.0624 -0.029 0.991 -0.133 84 71 57 0 0
-0.1852 0.0776 -1.0670 -0.200 0.980 -0.021 87 74 61 0 0
-0.1863 0.0757 -1.0727 0.106 0.994 0.030 94 81 67 0 0
-0.1862 0.0760 -1.0775 -0.038 0.995 0.091 94 81 68 0 0
-0.1860 0.0764 -1.0822 -0.038 0.995 0.091 88 75 60 0 0
-0.1861 0.0764 -1.0871 0.125 0.986 0.107 90 77 59 0 0
-0.1859 0.0769 -1.0919 0.125 0.986 0.107 93 80 62 0 0
-0.1856 0.0776 -1.0965 0.173 0.981 0.086 95 81 64 0 0
-0.1854 0.0780 -1.1013 0.173 0.981 0.086 98 85 70 0 0
-0.1853 0.0784 -1.1061 0.173 0.981 0.086 96 83 69 0 0
-0.1853 0.0802 -1.1955 -0.531 0.761 0.372 190 191 193 0 0
-0.1839 0.0831 -1.1994 -0.531 0.761 0.372 191 192 194 0 0
-0.1825 0.0860 -1.2031 -0.490 0.806 0.332 192 193 195 0 0
-0.1072 0.2399 -1.4407 0.078 0.853 0.516 122 97 64 0 0
-0.0967 0.2610 -1.4600 0.151 0.726 0.671 123 99 64 0 0
-0.0893 0.2763 -1.4879 -0.361 0.589 0.723 136 110 70 0 0
-0.0913 0.2728 -1.5111 0.251 0.906 0.341 120 97 57 0 0
-0.0432 0.3698 -1.6094 0.125 0.211 0.969 105 89 69 0 0
-0.0329 0.3902 -1.6118 -0.241 0.682 0.691 138 117 76 0 0
-0.0264 0.4039 -1.6451 0.667 0.580 0.468 100 79 48 0 0
-0.0549 0.3503 -1.7758 0.259 0.939 0.226 127 100 61 0 0
-0.0518 0.3577 -1.8324 0.244 0.959 -0.147 118 96 59 0 0
-0.0498 0.3618 -1.8407 0.311 0.946 0.093 118 96 59 0 0
-0.0496 0.3624 -1.8460 0.319 0.942 0.099 116 94 56 0 0
-0.0494 0.3629 -1.8513 0.319 0.942 0.099 120 98 60 0 0
-0.0492 0.3633 -1.8567 0.179 0.964 0.195 121 99 61 0 0
-0.0349 0.3938 -1.9598 0.277 0.858 0.432 96 73 42 0 0
-0.0331 0.3980 -1.9857 0.225 0.962 -0.157 98 78 43 0 0
-0.0336 0.3970 -1.9924 0.225 0.962 -0.157 98 78 43 0 0
-0.0299 0.4047 -2.0037 0.249 0.853 0.458 100 77 43 0 0
-0.0294 0.4058 -2.0087 0.094 0.994 0.062 102 79 45 0 0
-0.0280 0.4087 -2.0122 0.300 0.789 0.536 103 80 46 0 0
-0.0231 0.4187 -2.0274 0.246 0.701 0.670 101 81 44 0 0
-0.0125 0.4415 -2.1151 -0.252 0.670 0.698 169 141 96 0 0
-0.0008 0.4652 -2.1482 0.421 0.864 0.275 106 82 40 0 0
0.0156 0.4988 -2.1959 0.510 0.858 0.064 103 81 40 0 0
0.0147 0.4971 -2.2037 0.276 0.927 0.255 103 81 40 0 0
0.0365 0.5414 -2.2588 -0.116 0.918 0.379 110 97 78 0 0
0.2130 0.8896 -2.2458 -0.052 0.788 0.614 214 214 214 0 0
0.2140 0.8917 -2.2492 0.110 0.768 0.631 214 214 214 0 0
0.2150 0.8938 -2.2584 0.385 0.798 0.463 212 212 212 0 0
-0.1787 0.0797 -1.0410 -0.153 0.988 0.034 97 81 61 0 0
-0.1811 0.0757 -1.0768 -0.093 0.992 0.091 95 77 55 0 0
-0.1809 0.0761 -1.0815 -0.093 0.992 0.091 96 79 55 0 0
-0.1794 0.0798 -1.1195 -0.024 0.999 -0.021 103 84 55 0 0
-0.1801 0.0789 -1.1398 0.237 0.965 0.113 109 96 72 0 0
-0.1781 0.0840 -1.1930 -0.531 0.761 0.372 191 191 192 0 0
-0.1767 0.0869 -1.1968 -0.531 0.761 0.372 191 191 192 0 0
-0.1757 0.0889 -1.2010 -0.495 0.807 0.324 192 192 193 0 0
-0.1210 0.2015 -1.4083 0.243 0.661 0.710 124 98 63 0 0
-0.1194 0.2047 -1.4118 0.243 0.661 0.710 125 99 62 0 0
-0.0998 0.2439 -1.4269 0.597 0.800 0.048 103 79 50 0 0
-0.1013 0.2410 -1.4337 0.108 0.981 0.162 115 91 63 0 0
-0.0989 0.2457 -1.4363 -0.027 0.925 0.380 115 90 60 0 0
-0.0816 0.2823 -1.5466 0.678 0.622 0.393 163 135 84 0 0
-0.0663 0.3136 -1.5912 0.467 0.742 0.481 96 79 49 0 0
-0.0504 0.3452 -1.6029 0.138 0.268 0.953 100 79 51 0 0
-0.0472 0.3516 -1.6040 0.237 0.336 0.911 114 94 68 0 0
-0.0431 0.3597 -1.6041 0.137 0.675 0.725 152 130 96 0 0
-0.0369 0.3720 -1.6066 0.432 0.159 0.888 102 82 61 0 0
-0.0214 0.4037 -1.6439 -0.017 0.978 0.210 105 84 54 0 0
-0.0451 0.3609 -1.8513 0.519 0.839 0.164 115 93 54 0 0
-0.0443 0.3629 -1.8726 0.141 0.989 -0.048 120 98 61 0 0
-0.0281 0.3968 -1.9616 0.190 0.839 0.510 101 78 44 0 0
-0.0248 0.4041 -2.0025 -0.040 0.959 0.279 98 75 41 0 0
-0.0234 0.4071 -2.0118 0.067 0.959 0.275 101 78 44 0 0
-0.0105 0.4334 -2.0545 -0.036 0.947 0.320 96 76 41 0 0
-0.0057 0.4443 -2.1169 -0.256 0.623 0.739 132 106 66 0 0
0.0073 0.4705 -2.1414 0.517 0.803 0.298 103 79 40 0 0
0.0106 0.4772 -2.1474 0.641 0.750 0.166 106 81 42 0 0
0.0108 0.4776 -2.1530 0.293 0.949 0.118 108 82 43 0 0
0.0200 0.4969 -2.1958 0.441 0.887 0.138 98 76 37 0 0
0.0193 0.4956 -2.2032 0.276 0.927 0.255 98 76 37 0 0
0.2192 0.8925 -2.2519 0.133 0.832 0.539 214 214 214 0 0
-0.1740 0.0783 -1.0166 0.028 0.999 0.029 86 69 46 0 0
-0.1738 0.0788 -1.0213 -0.086 0.993 0.077 83 62 39 0 0
-0.1736 0.0792 -1.0259 -0.086 0.993 0.077 92 70 46 0 0
-0.1735 0.0795 -1.0306 -0.086 0.993 0.077 90 69 44 0 0
-0.1751 0.0774 -1.0900 -0.093 0.992 0.091 95 75 46 0 0
-0.1749 0.0779 -1.0948 -0.093 0.992 0.091 99 80 50 0 0
-0.1721 0.0836 -1.0974 0.052 0.977 0.206 108 87 56 0 0
-0.1716 0.0846 -1.1020 0.052 0.977 0.206 109 87 56 0 0
-0.1728 0.0823 -1.1078 -0.014 0.994 0.109 103 82 52 0 0
-0.1739 0.0803 -1.1136 0.067 0.994 0.087 105 84 55 0 0
-0.1754 0.0777 -1.1395 0.237 0.965 0.113 104 85 51 0 0
-0.1742 0.0803 -1.1484 0.297 0.925 0.238 106 88 61 0 0
-0.1737 0.0815 -1.1529 -0.024 0.968 0.251 108 91 65 0 0
-0.1731 0.0827 -1.1574 0.069 0.966 0.251 102 85 62 0 0
-0.1730 0.0830 -1.1623 0.064 0.990 0.129 105 90 69 0 0
-0.1731 0.0829 -1.1673 0.027 0.975 0.220 117 106 91 0 0
-0.1607 0.1116 -1.3755 -0.468 0.203 0.860 110 93 66 0 0
-0.0960 0.2409 -1.4222 0.779 0.625 0.053 149 127 90 0 0
-0.0947 0.2437 -1.4310 -0.027 0.925 0.380 109 86 58 0 0
-0.0939 0.2455 -1.4353 -0.027 0.925 0.380 118 95 64 0 0
-0.0804 0.2736 -1.5082 -0.308 0.826 0.473 131 107 75 0 0
-0.0794 0.2764 -1.5490 0.583 0.796 0.163 143 114 67 0 0
-0.0383 0.3591 -1.6032 0.089 0.866 0.492 141 118 84 0 0
-0.0354 0.3648 -1.6048 0.474 0.284 0.833 139 113 82 0 0
-0.0324 0.3709 -1.6061 0.514 0.182 0.838 111 88 64 0 0
-0.0323 0.3711 -1.6112 0.166 0.608 0.776 128 105 80 0 0
-0.0162 0.4037 -1.6426 0.293 0.925 0.243 99 79 48 0 0
-0.0182 0.4067 -2.0104 0.044 0.987 0.156 101 79 46 0 0
0.0111 0.4674 -2.1364 0.618 0.781 0.091 100 78 39 0 0
0.0091 0.4640 -2.1759 0.091 0.962 0.258 103 81 40 0 0
0.0227 0.4914 -2.1868 0.273 0.580 0.767 103 80 42 0 0
0.0471 0.5412 -2.2611 -0.089 0.978 0.189 117 108 90 0 0
-0.1701 0.0768 -1.0796 -0.031 0.996 0.081 91 71 42 0 0
-0.1673 0.0831 -1.1166 -0.047 0.966 0.255 104 84 49 0 0
-0.1576 0.1040 -1.2077 -0.524 0.770 0.364 112 96 74 0 0
-0.1115 0.1995 -1.4073 -0.058 0.714 0.698 128 104 66 0 0
-0.0969 0.2286 -1.4071 0.228 0.778 0.585 133 107 68 0 0
-0.0912 0.2402 -1.4215 0.538 0.842 -0.045 146 123 81 0 0
-0.0913 0.2400 -1.4268 0.538 0.842 -0.045 133 111 76 0 0
-0.0682 0.2873 -1.4936 -0.041 0.999 0.013 150 123 83 0 0
-0.0336 0.3582 -1.6025 0.009 0.870 0.493 158 131 92 0 0
-0.0326 0.3603 -1.6064 0.009 0.870 0.493 146 117 76 0 0
-0.0293 0.3668 -1.6075 -0.203 0.567 0.798 128 104 68 0 0
-0.0272 0.3710 -1.6100 -0.203 0.567 0.798 129 109 76 0 0
-0.0308 0.3682 -1.8540 0.163 0.907 0.387 121 98 60 0 0
-0.0307 0.3685 -1.8595 0.324 0.899 0.295 118 96 58 0 0
0.0139 0.4629 -2.1750 0.280 0.888 0.364 103 81 40 0 0
0.0531 0.5427 -2.2637 -0.108 0.524 0.845 152 148 139 0 0
-0.1595 0.0881 -1.1087 0.045 0.998 0.033 108 88 54 0 0
-0.1623 0.0831 -1.1455 0.050 0.991 0.127 104 83 48 0 0
-0.0671 0.2792 -1.4920 0.028 0.870 0.492 154 126 76 0 0
-0.0452 0.3245 -1.5857 0.411 0.807 0.425 108 92 62 0 0
-0.0289 0.3573 -1.6018 -0.156 0.947 0.280 155 127 86 0 0
-0.0290 0.3572 -1.6071 0.702 0.397 0.591 154 126 80 0 0
-0.0044 0.4067 -1.6219 0.179 0.868 0.462 102 79 42 0 0
-0.0260 0.3673 -1.8646 0.305 0.921 0.242 117 95 57 0 0
-0.0259 0.3677 -1.8700 0.126 0.933 0.337 117 95 56 0 0
-0.0249 0.3698 -1.8741 0.239 0.920 0.311 117 95 56 0 0
-0.0248 0.3700 -1.8796 0.181 0.877 0.445 116 94 57 0 0
-0.0206 0.3785 -1.8845 0.223 0.862 0.456 113 91 54 0 0
-0.0209 0.3779 -1.8907 0.368 0.908 0.199 108 85 50 0 0
-0.0196 0.3807 -1.8943 0.405 0.911 0.077 103 80 48 0 0
-0.0195 0.3813 -1.9226 0.294 0.923 0.246 90 70 38 0 0
-0.0172 0.3864 -1.9534 0.423 0.792 0.440 88 67 36 0 0
0.0141 0.4517 -2.1167 -0.210 0.769 0.603 96 73 40 0 0
0.0322 0.4889 -2.1853 0.007 0.789 0.614 98 76 39 0 0
0.0452 0.5159 -2.2389 0.059 0.886 0.460 97 76 39 0 0
0.0571 0.5397 -2.2462 0.039 0.926 0.376 89 75 36 0 0
0.0565 0.5388 -2.2594 -0.206 0.901 0.383 99 88 63 0 0
0.0575 0.5408 -2.2636 -0.178 0.866 0.467 137 132 119 0 0
-0.1559 0.0852 -1.1289 0.149 0.969 -0.197 110 88 56 0 0
-0.0251 0.3546 -1.5969 -0.106 0.745 0.659 129 105 67 0 0
-0.0233 0.3583 -1.5998 0.464 0.838 0.288 118 94 60 0 0
-0.0228 0.3594 -1.6044 0.418 0.866 0.276 139 115 76 0 0
-0.0174 0.3702 -1.6080 0.094 0.291 0.952 131 108 75 0 0
0.0001 0.4055 -1.6214 0.179 0.868 0.462 119 96 58 0 0
-0.0294 0.3480 -1.7368 0.210 0.881 0.424 111 90 58 0 0
-0.0314 0.3445 -1.7671 -0.256 0.966 -0.039 129 100 57 0 0
-0.0257 0.3561 -1.7755 0.182 0.683 0.708 99 78 41 0 0
-0.0307 0.3462 -1.7882 0.429 0.865 -0.261 105 85 50 0 0
-0.0196 0.3698 -1.8782 0.239 0.920 0.311 115 93 56 0 0
-0.0183 0.3724 -1.8819 0.379 0.731 0.568 114 92 57 0 0
-0.0160 0.3771 -1.8840 0.223 0.862 0.456 111 89 53 0 0
-0.0165 0.3761 -1.8905 0.368 0.908 0.199 108 85 50 0 0
-0.0151 0.3791 -1.8939 0.166 0.938 0.305 105 83 50 0 0
-0.0152 0.3793 -1.9226 0.282 0.940 0.189 98 78 45 0 0
-0.0134 0.3829 -1.9255 0.180 0.923 0.340 92 71 40 0 0
-0.0122 0.3853 -1.9293 0.051 0.913 0.404 87 66 35 0 0
-0.0027 0.4056 -2.0062 0.217 0.923 0.319 103 81 49 0 0
-0.0027 0.4056 -2.0120 0.347 0.886 0.309 102 82 49 0 0
0.0375 0.4889 -2.1834 0.288 0.781 0.554 98 76 39 0 0
0.0517 0.5179 -2.2105 0.414 0.765 0.493 95 73 36 0 0
0.0625 0.5401 -2.2622 -0.106 0.920 0.377 120 114 99 0 0
-0.1474 0.0899 -0.9855 0.452 0.891 0.041 104 83 55 0 0
-0.1526 0.0796 -1.0035 -0.015 0.889 0.457 90 69 41 0 0
-0.1513 0.0823 -1.0074 -0.098 0.931 0.352 85 65 36 0 0
-0.1438 0.1000 -1.1916 -0.148 0.685 0.714 76 59 37 0 0
-0.1192 0.1499 -1.2344 0.176 0.770 0.613 189 184 177 0 0
-0.0203 0.3539 -1.5961 0.258 0.880 0.399 129 106 67 0 0
-0.0194 0.3557 -1.6002 0.400 0.846 0.352 116 93 60 0 0
-0.0184 0.3579 -1.6041 -0.026 0.917 0.399 137 116 81 0 0
0.0054 0.4059 -1.6198 0.381 0.839 0.389 151 129 92 0 0
-0.0248 0.3468 -1.7362 0.198 0.919 0.341 92 72 40 0 0
-0.0231 0.3507 -1.7723 0.068 0.873 0.484 131 104 66 0 0
-0.0209 0.3551 -1.7747 -0.112 0.660 0.743 108 85 51 0 0
-0.0237 0.3495 -1.7843 -0.058 0.991 0.121 96 76 43 0 0
-0.0222 0.3529 -1.8043 0.061 0.895 0.443 109 87 55 0 0
-0.0173 0.3629 -1.8138 0.071 0.561 0.825 126 102 70 0 0
-0.0150 0.3675 -1.8160 -0.007 0.669 0.744 111 88 54 0 0
-0.0151 0.3681 -1.8780 0.242 0.941 0.238 110 87 53 0 0
-0.0129 0.3727 -1.8801 0.389 0.881 0.268 109 88 53 0 0
-0.0126 0.3733 -1.8854 0.080 0.746 0.662 107 87 51 0 0
-0.0086 0.3818 -1.9248 0.163 0.881 0.445 99 78 47 0 0
-0.0070 0.3852 -1.9278 0.003 0.875 0.483 96 75 44 0 0
-0.0024 0.3946 -1.9492 0.453 0.849 0.272 91 69 38 0 0
-0.0022 0.3951 -1.9546 0.230 0.777 0.585 103 80 46 0 0
0.0012 0.4021 -1.9664 0.310 0.726 0.614 97 74 41 0 0
0.0124 0.4254 -2.0230 0.204 0.934 0.293 100 77 43 0 0
0.0319 0.4663 -2.1359 0.526 0.680 0.511 93 70 36 0 0
0.0568 0.5176 -2.2333 0.298 0.786 0.541 95 72 36 0 0
0.0672 0.5390 -2.2613 -0.164 0.873 0.459 108 100 84 0 0
-0.1456 0.0833 -0.9967 0.169 0.983 0.077 105 84 54 0 0
-0.1456 0.0835 -1.0014 0.211 0.974 0.080 97 76 47 0 0
-0.1453 0.0841 -1.0059 0.001 0.941 0.339 86 66 36 0 0
-0.1434 0.0891 -1.1108 0.235 0.962 0.143 112 92 59 0 0
-0.1432 0.0896 -1.1155 0.132 0.989 0.060 114 94 60 0 0
-0.1222 0.1331 -1.2111 -0.322 0.696 0.642 108 85 54 0 0
-0.1212 0.1353 -1.2151 -0.248 0.781 0.573 133 109 76 0 0
-0.1196 0.1384 -1.2187 -0.248 0.781 0.573 151 126 90 0 0
-0.1181 0.1416 -1.2223 -0.248 0.781 0.573 118 94 61 0 0
-0.1171 0.1436 -1.2264 -0.269 0.871 0.411 130 107 73 0 0
-0.0986 0.1829 -1.3805 -0.290 0.955 0.054 109 85 50 0 0
-0.0912 0.1979 -1.3933 0.179 0.693 0.698 121 95 59 0 0
-0.0690 0.2433 -1.4308 -0.025 0.834 0.551 178 149 101 0 0
-0.0514 0.2803 -1.5617 0.609 0.583 0.538 163 131 78 0 0
-0.0397 0.3040 -1.5630 -0.381 0.657 0.651 122 95 51 0 0
-0.0172 0.3499 -1.5974 0.775 0.457 0.436 138 114 75 0 0
-0.0132 0.3580 -1.6028 -0.066 0.919 0.388 131 108 74 0 0
0.0028 0.3904 -1.6078 -0.034 0.841 0.541 107 83 55 0 0
0.0045 0.3939 -1.6107 0.149 0.861 0.487 136 111 77 0 0
0.0054 0.3958 -1.6148 0.188 0.856 0.483 162 136 98 0 0
0.0088 0.4027 -1.6207 0.610 0.652 0.451 150 127 87 0 0
0.0098 0.4049 -1.6298 0.315 0.883 0.348 87 64 34 0 0
0.0106 0.4065 -1.6340 0.307 0.861 0.406 101 77 47 0 0
0.0113 0.4080 -1.6383 0.247 0.864 0.438 120 97 62 0 0
-0.0205 0.3448 -1.7307 0.158 0.939 0.305 83 66 38 0 0
-0.0198 0.3462 -1.7352 0.389 0.912 0.128 90 71 43 0 0
-0.0196 0.3467 -1.7404 0.381 0.919 0.099 93 73 41 0 0
-0.0194 0.3472 -1.7456 0.381 0.919 0.099 102 80 46 0 0
-0.0198 0.3467 -1.7682 0.300 0.920 0.252 142 113 67 0 0
-0.0179 0.3506 -1.7820 -0.224 0.905 0.363 93 73 41 0 0
-0.0178 0.3511 -1.8041 0.109 0.906 0.409 117 95 62 0 0
-0.0168 0.3533 -1.8082 0.185 0.882 0.434 88 67 42 0 0
-0.0141 0.3586 -1.8154 0.161 0.783 0.601 97 77 48 0 0
-0.0108 0.3656 -1.8272 -0.019 0.998 0.059 88 67 35 0 0
0.0361 0.4639 -2.1362 0.499 0.709 0.498 92 69 35 0 0
0.0626 0.5187 -2.2302 0.326 0.928 0.180 91 69 32 0 0
0.0724 0.5387 -2.2595 0.142 0.914 0.381 97 89 71 0 0
-0.1415 0.0807 -0.9307 -0.052 0.917 0.395 129 118 104 0 0
-0.1403 0.0831 -0.9346 -0.219 0.929 0.298 128 111 87 0 0
-0.1372 0.0897 -0.9652 -0.367 0.893 0.260 90 71 41 0 0
-0.1363 0.0922 -1.0357 -0.343 0.929 0.139 104 81 50 0 0
-0.1337 0.0990 -1.1652 0.077 0.948 0.307 114 94 60 0 0
-0.1092 0.1493 -1.2279 -0.235 0.931 0.278 132 106 74 0 0
-0.1081 0.1515 -1.2368 -0.294 0.946 0.139 135 115 94 0 0
-0.0141 0.3458 -1.5988 0.794 0.431 0.428 127 101 66 0 0
-0.0134 0.3472 -1.6032 0.866 0.421 0.271 115 91 58 0 0
0.0073 0.3893 -1.6072 0.460 0.881 -0.115 101 81 54 0 0
0.0148 0.4048 -1.6338 0.290 0.865 0.409 91 68 37 0 0
0.0156 0.4065 -1.6379 0.290 0.865 0.409 108 86 51 0 0
-0.0147 0.3460 -1.7395 0.168 0.936 0.309 84 67 38 0 0
-0.0141 0.3474 -1.7440 0.168 0.936 0.309 78 58 26 0 0
-0.0157 0.3444 -1.7684 0.488 0.863 0.132 125 97 54 0 0
-0.0153 0.3454 -1.7899 -0.405 0.705 0.582 87 66 35 0 0
-0.0123 0.3516 -1.8023 0.079 0.925 0.372 111 89 55 0 0
-0.0117 0.3528 -1.8070 0.320 0.811 0.490 102 81 54 0 0
-0.0054 0.3659 -1.8255 -0.050 0.979 0.199 89 68 37 0 0
-0.0056 0.3657 -1.8425 0.528 0.737 0.423 93 73 40 0 0
-0.0039 0.3690 -1.8513 0.337 0.689 0.642 98 78 46 0 0
-0.0021 0.3728 -1.8655 0.102 0.977 0.186 106 83 51 0 0
0.0078 0.3940 -1.9696 0.521 0.813 0.260 108 85 53 0 0
0.0129 0.4044 -1.9670 0.044 0.926 0.375 105 82 50 0 0
0.0136 0.4062 -2.0005 0.361 0.864 0.351 99 79 44 0 0
0.0374 0.4560 -2.1476 0.548 0.713 0.438 91 68 34 0 0
0.0642 0.5112 -2.2355 0.147 0.726 0.672 91 69 32 0 0
0.0768 0.5369 -2.2532 0.271 0.962 -0.013 86 74 43 0 0
0.0771 0.5376 -2.2586 0.159 0.869 0.468 94 86 65 0 0
-0.1381 0.0773 -0.9265 0.190 0.896 0.401 139 128 116 0 0
-0.1366 0.0803 -0.9301 -0.209 0.811 0.547 116 96 68 0 0
-0.1353 0.0829 -0.9339 -0.271 0.827 0.492 122 99 71 0 0
-0.1298 0.0951 -1.0339 -0.237 0.962 0.133 99 77 45 0 0
-0.1239 0.1082 -1.1753 -0.126 0.831 0.542 130 106 74 0 0
-0.1043 0.1485 -1.2173 -0.121 0.892 0.436 123 102 71 0 0
-0.1050 0.1472 -1.2229 0.022 0.973 0.231 108 89 61 0 0
-0.1146 0.1288 -1.3594 -0.112 0.525 0.843 116 93 58 0 0
-0.0619 0.2366 -1.4116 0.159 0.938 0.309 147 121 78 0 0
-0.0435 0.2747 -1.4887 0.585 0.444 0.679 187 157 98 0 0
0.0119 0.3883 -1.6119 0.518 0.790 0.329 148 127 98 0 0
0.0128 0.3902 -1.6159 0.529 0.681 0.506 174 150 113 0 0
0.0141 0.3929 -1.6193 0.480 0.700 0.530 145 122 81 0 0
0.0180 0.4009 -1.6298 0.572 0.553 0.606 83 61 29 0 0
0.0194 0.4040 -1.6383 0.288 0.955 0.077 104 83 49 0 0
0.0258 0.4169 -1.6400 0.184 0.339 0.923 104 83 51 0 0
-0.0049 0.3562 -1.8255 0.135 0.884 0.447 91 70 39 0 0
-0.0039 0.3582 -1.8297 0.044 0.860 0.508 92 71 41 0 0
0.0008 0.3679 -1.8506 0.117 0.695 0.710 80 60 29 0 0
0.0179 0.4040 -1.9889 0.378 0.701 0.605 98 77 43 0 0
0.0810 0.5347 -2.2533 0.449 0.890 -0.083 88 75 44 0 0
0.0812 0.5350 -2.2592 0.347 0.930 0.120 91 82 59 0 0
-0.1344 0.0743 -0.9221 0.537 0.800 0.269 154 145 130 0 0
-0.1246 0.0954 -1.0523 0.317 0.944 -0.088 99 78 47 0 0
-0.1012 0.1444 -1.2182 -0.054 0.895 0.443 145 120 85 0 0
-0.1218 0.1031 -1.3243 -0.130 0.826 -0.549 191 186 178 0 0
-0.0925 0.1631 -1.3617 -0.055 0.764 0.643 111 88 53 0 0
-0.0757 0.1976 -1.3902 0.178 0.744 0.644 120 93 60 0 0
-0.0370 0.2779 -1.5541 -0.023 0.919 0.394 151 121 73 0 0
-0.0366 0.2787 -1.5590 0.018 0.993 0.120 174 142 87 0 0
-0.0313 0.2898 -1.5787 0.174 0.691 0.702 119 91 51 0 0
-0.0233 0.3060 -1.5739 -0.086 0.850 0.520 122 94 54 0 0
0.0198 0.3944 -1.6223 0.487 0.827 0.281 128 104 69 0 0
0.0220 0.3989 -1.6299 0.669 0.624 0.404 91 70 38 0 0
0.0113 0.3792 -1.9203 0.413 0.883 0.224 94 74 41 0 0
0.0169 0.3909 -1.9456 0.223 0.879 0.421 86 67 32 0 0
0.0180 0.3931 -1.9554 0.465 0.868 0.174 91 71 38 0 0
0.0182 0.3935 -1.9609 0.417 0.848 0.327 107 84 52 0 0
0.0215 0.4005 -1.9785 0.361 0.741 0.566 100 82 46 0 0
0.0269 0.4119 -2.0453 -0.153 0.979 0.136 117 91 50 0 0
0.0873 0.5367 -2.2555 0.276 0.960 0.043 89 78 54 0 0
-0.1320 0.0689 -0.9046 -0.474 0.801 0.366 178 178 180 0 0
-0.1202 0.0939 -1.0520 0.317 0.944 -0.088 100 78 47 0 0
-0.1207 0.0929 -1.0670 0.288 0.955 0.075 109 86 53 0 0
-0.1203 0.0939 -1.0714 0.071 0.934 0.349 102 78 46 0 0
-0.1195 0.0954 -1.0757 0.071 0.934 0.349 106 83 51 0 0
-0.1189 0.0968 -1.0995 0.395 0.914 0.092 95 74 44 0 0
-0.0991 0.1380 -1.2102 -0.135 0.825 0.549 149 121 81 0 0
-0.1008 0.1353 -1.3488 -0.131 0.741 0.659 123 98 60 0 0
-0.0450 0.2501 -1.4226 0.467 0.730 0.499 196 167 122 0 0
-0.0070 0.3289 -1.5846 0.453 0.360 0.815 86 67 40 0 0
0.0166 0.3774 -1.6060 0.142 0.738 0.660 94 77 57 0 0
0.0147 0.3749 -1.8592 0.495 0.851 0.173 95 77 43 0 0
0.0218 0.3901 -1.9447 0.369 0.690 0.622 86 66 32 0 0
0.0224 0.3913 -1.9494 0.308 0.896 0.321 81 62 29 0 0
0.0343 0.4162 -2.0458 -0.214 0.962 -0.170 158 128 82 0 0
-0.1161 0.0918 -1.0473 0.143 0.978 -0.154 104 83 53 0 0
-0.1158 0.0924 -1.0519 0.300 0.948 -0.102 108 85 54 0 0
-0.1157 0.0926 -1.0566 0.323 0.946 -0.041 103 80 47 0 0
-0.1153 0.0935 -1.0708 0.161 0.912 0.376 111 87 48 0 0
-0.1158 0.0925 -1.0857 0.476 0.871 0.123 84 61 27 0 0
-0.1163 0.0916 -1.0909 0.492 0.846 0.206 89 69 36 0 0
-0.1159 0.0925 -1.0955 0.492 0.846 0.206 58 41 14 0 0
-0.0933 0.1393 -1.2087 0.314 0.804 0.505 163 137 90 0 0
-0.0924 0.1413 -1.2178 0.156 0.736 0.659 151 124 83 0 0
-0.0985 0.1293 -1.3456 0.065 0.234 0.970 132 108 64 0 0
-0.0410 0.2477 -1.4228 0.467 0.730 0.499 194 163 114 0 0
-0.0329 0.2646 -1.4443 0.423 0.568 0.706 163 131 91 0 0
-0.0304 0.2698 -1.4517 0.552 0.781 0.292 138 113 69 0 0
-0.0284 0.2739 -1.4545 0.282 0.872 0.400 115 91 50 0 0
-0.0289 0.2729 -1.4654 0.229 0.818 0.528 135 106 68 0 0
-0.0122 0.3076 -1.5757 0.259 0.653 0.711 150 121 82 0 0
0.0013 0.3355 -1.6056 0.191 0.593 0.783 127 108 66 0 0
0.0235 0.3811 -1.6022 0.318 0.948 -0.018 97 80 63 0 0
0.0063 0.3462 -1.7117 -0.229 0.973 0.006 107 88 61 0 0
0.0181 0.3712 -1.8548 0.184 0.864 0.470 85 64 35 0 0
0.0197 0.3744 -1.8581 0.414 0.894 0.174 88 69 37 0 0
0.0284 0.3927 -1.9409 0.301 0.845 0.443 87 67 33 0 0
0.0289 0.3937 -1.9458 0.376 0.906 0.194 82 63 30 0 0
0.0397 0.4163 -2.0263 0.053 0.945 0.322 90 67 32 0 0
0.0380 0.4129 -2.0410 -0.408 0.850 0.334 111 85 44 0 0
0.0389 0.4147 -2.0453 -0.418 0.855 0.307 158 128 80 0 0
0.0399 0.4167 -2.0495 -0.418 0.855 0.307 165 139 92 0 0
0.0703 0.4798 -2.1484 0.042 0.796 0.603 92 69 35 0 0
0.0752 0.4901 -2.1992 0.317 0.629 0.710 78 57 26 0 0
0.0766 0.4928 -2.2026 0.184 0.891 0.415 79 58 27 0 0
0.0780 0.4959 -2.2180 0.223 0.954 0.200 73 54 30 0 0
-0.1086 0.0967 -1.0254 -0.033 0.999 0.039 98 77 47 0 0
-0.1115 0.0910 -1.1002 0.521 0.823 0.226 28 17 6 0 0
-0.1108 0.0924 -1.1094 0.489 0.861 0.139 35 19 3 0 0
-0.0890 0.1376 -1.2086 0.314 0.804 0.505 153 127 73 0 0
-0.0896 0.1364 -1.2141 0.228 0.646 0.729 169 143 89 0 0
-0.0879 0.1400 -1.2175 0.233 0.765 0.600 142 114 68 0 0
-0.0863 0.1432 -1.2210 0.407 0.880 0.245 141 115 73 0 0
-0.0716 0.1735 -1.2319 -0.092 0.548 0.832 145 118 79 0 0
-0.0827 0.1510 -1.3492 0.072 0.717 0.693 125 100 61 0 0
-0.0809 0.1547 -1.3525 0.226 0.601 0.767 120 96 58 0 0
-0.0535 0.2115 -1.4054 0.113 0.891 0.439 148 119 81 0 0
-0.0298 0.2604 -1.4404 0.527 0.634 0.566 162 127 84 0 0
-0.0244 0.2715 -1.4651 0.229 0.818 0.528 149 124 83 0 0
-0.0229 0.2746 -1.4789 -0.145 0.946 0.289 71 46 17 0 0
-0.0172 0.2866 -1.4979 0.467 0.586 0.662 152 123 83 0 0
-0.0074 0.3070 -1.5695 0.073 0.966 0.247 116 89 49 0 0
0.0038 0.3302 -1.5972 0.352 0.875 0.333 114 91 51 0 0
0.0044 0.3313 -1.6018 0.260 0.678 0.687 133 104 63 0 0
0.0297 0.3836 -1.6046 -0.181 0.872 0.456 93 77 57 0 0
0.0383 0.4013 -1.6296 0.326 0.907 0.267 81 60 29 0 0
0.0155 0.3548 -1.8261 0.076 0.891 0.448 93 70 39 0 0
0.0429 0.4120 -2.0164 0.257 0.671 0.695 88 68 35 0 0
0.0589 0.4452 -2.1240 0.581 0.684 0.441 84 65 30 0 0
0.0680 0.4640 -2.1490 0.354 0.872 0.338 90 66 32 0 0
0.0751 0.4789 -2.1714 0.184 0.912 0.367 83 62 31 0 0
0.0764 0.4814 -2.1751 0.127 0.991 0.040 84 63 32 0 0
0.0780 0.4848 -2.1901 0.359 0.733 0.578 85 64 33 0 0
0.0814 0.4918 -2.2017 0.400 0.752 0.524 75 54 25 0 0
0.0825 0.4941 -2.2056 0.586 0.802 0.115 82 61 32 0 0
-0.1048 0.0940 -0.9830 -0.328 0.896 0.299 87 68 38 0 0
-0.1033 0.0970 -0.9913 -0.269 0.886 0.379 92 73 43 0 0
-0.1056 0.0924 -0.9977 0.054 0.999 -0.004 95 75 47 0 0
-0.1033 0.0971 -1.0103 -0.058 0.997 0.047 112 91 60 0 0
-0.1035 0.0967 -1.0152 -0.130 0.989 0.074 107 86 57 0 0
-0.1038 0.0960 -1.0202 -0.229 0.969 0.098 106 85 56 0 0
-0.1036 0.0965 -1.0248 -0.291 0.956 0.042 106 85 56 0 0
-0.1075 0.0885 -1.1003 0.521 0.823 0.226 20 10 2 0 0
-0.1068 0.0901 -1.1095 0.489 0.861 0.139 37 24 11 0 0
-0.0847 0.1359 -1.2084 0.081 0.815 0.574 192 170 114 0 0
-0.0835 0.1384 -1.2172 0.233 0.765 0.600 165 136 79 0 0
-0.0877 0.1300 -1.3432 -0.154 0.655 0.740 141 113 73 0 0
-0.0758 0.1546 -1.3515 0.173 0.727 0.665 121 97 57 0 0
-0.0230 0.2639 -1.4373 0.542 0.840 0.007 172 140 91 0 0
-0.0232 0.2634 -1.4479 0.578 0.760 0.297 158 131 81 0 0
-0.0223 0.2654 -1.4519 0.502 0.824 0.261 173 145 95 0 0
-0.0104 0.2900 -1.5155 0.112 0.689 0.716 99 77 40 0 0
-0.0100 0.2908 -1.5255 0.073 0.929 0.363 100 76 41 0 0
0.0214 0.3560 -1.6056 -0.058 0.352 0.934 115 99 78 0 0
0.0328 0.3794 -1.6008 0.628 0.627 0.460 93 78 56 0 0
0.0341 0.3821 -1.6042 0.351 0.600 0.718 106 90 69 0 0
0.0344 0.3828 -1.6090 -0.001 0.953 0.302 92 74 51 0 0
0.0425 0.3995 -1.6294 0.430 0.890 0.152 83 62 30 0 0
0.0178 0.3486 -1.7127 -0.135 0.991 -0.017 63 48 29 0 0
0.0204 0.3542 -1.8251 0.231 0.836 0.498 97 74 42 0 0
0.0215 0.3564 -1.8291 0.119 0.912 0.392 88 67 36 0 0
0.0223 0.3582 -1.8334 0.119 0.912 0.392 86 65 38 0 0
0.0307 0.3756 -1.8881 0.130 0.808 0.575 93 72 41 0 0
0.0429 0.4010 -1.9830 -0.190 0.939 0.287 96 76 43 0 0
0.0508 0.4173 -2.0396 -0.055 0.970 0.235 133 104 59 0 0
0.0522 0.4203 -2.0548 0.062 0.994 0.088 98 77 44 0 0
0.0623 0.4413 -2.1077 0.027 0.774 0.632 180 143 91 0 0
0.0634 0.4436 -2.1237 0.404 0.793 0.457 93 71 36 0 0
0.0647 0.4464 -2.1271 0.241 0.496 0.834 87 67 32 0 0
0.0757 0.4691 -2.1545 0.361 0.712 0.602 87 67 33 0 0
0.0769 0.4716 -2.1582 0.361 0.712 0.602 89 69 35 0 0
0.0808 0.4797 -2.1688 0.444 0.671 0.593 80 59 28 0 0
0.0808 0.4796 -2.1749 0.470 0.815 0.340 82 61 30 0 0
0.0814 0.4809 -2.1797 0.252 0.927 0.278 86 65 34 0 0
0.0857 0.4899 -2.2016 0.189 0.839 0.510 78 57 28 0 0
-0.1099 0.0729 -0.9053 -0.230 0.564 0.793 176 175 175 0 0
-0.0960 0.1018 -1.0030 -0.132 0.987 -0.091 102 81 51 0 0
-0.1046 0.0840 -1.1013 0.440 0.824 0.356 25 15 6 0 0
-0.1024 0.0885 -1.1142 0.489 0.861 0.139 39 26 12 0 0
-0.1033 0.0866 -1.1347 0.559 0.747 0.358 36 19 4 0 0
-0.0717 0.1522 -1.2701 -0.370 0.905 -0.212 104 85 57 0 0
-0.0697 0.1565 -1.3495 0.113 0.829 0.548 127 102 60 0 0
-0.0642 0.1679 -1.3592 0.172 0.809 0.562 115 90 51 0 0
-0.0616 0.1732 -1.3667 0.198 0.474 0.858 127 105 69 0 0
-0.0440 0.2096 -1.3888 0.277 0.947 0.165 130 101 67 0 0
-0.0115 0.2772 -1.4802 0.107 0.929 0.355 96 66 30 0 0
-0.0056 0.2894 -1.5147 -0.031 0.800 0.600 98 78 41 0 0
-0.0015 0.2978 -1.5201 0.429 0.902 0.046 98 75 41 0 0
-0.0096 0.2811 -1.5672 0.048 0.424 0.904 169 145 97 0 0
0.0028 0.3069 -1.5671 -0.319 0.811 0.490 107 81 38 0 0
0.0355 0.3748 -1.6025 0.042 0.777 0.629 97 81 55 0 0
0.0380 0.3799 -1.6044 0.351 0.600 0.718 113 94 71 0 0
0.0385 0.3808 -1.6090 -0.192 0.860 0.473 102 83 58 0 0
0.0395 0.3830 -1.6129 0.084 0.838 0.540 150 130 98 0 0
0.0418 0.3877 -1.6150 -0.156 0.725 0.671 127 106 77 0 0
0.0345 0.3727 -1.8831 0.186 0.906 0.381 90 69 38 0 0
0.0380 0.3799 -1.8946 0.208 0.883 0.421 94 75 43 0 0
0.0385 0.3808 -1.8996 0.352 0.911 0.214 94 73 42 0 0
0.0492 0.4031 -1.9971 0.449 0.817 0.361 87 67 34 0 0
0.0562 0.4178 -2.0375 0.024 0.981 0.193 118 93 49 0 0
0.0567 0.4187 -2.0426 0.096 0.949 0.301 159 128 81 0 0
0.0576 0.4205 -2.0469 0.225 0.969 0.099 152 123 79 0 0
0.0570 0.4194 -2.0538 0.267 0.963 0.025 94 71 35 0 0
0.0688 0.4439 -2.1036 0.137 0.982 0.128 181 147 94 0 0
0.0753 0.4573 -2.1454 0.461 0.805 0.374 83 62 31 0 0
0.0774 0.4616 -2.1535 0.489 0.716 0.498 82 62 31 0 0
0.0848 0.4771 -2.1753 0.467 0.721 0.512 78 57 29 0 0
0.0859 0.4793 -2.1794 0.467 0.721 0.512 79 58 29 0 0
0.0874 0.4824 -2.1946 0.525 0.815 0.245 84 63 34 0 0
-0.1045 0.0738 -0.9043 -0.230 0.564 0.793 173 172 167 0 0
-0.0991 0.0847 -1.0469 0.481 0.846 -0.230 62 44 19 0 0
-0.1002 0.0825 -1.1011 0.624 0.712 0.320 27 16 5 0 0
-0.0992 0.0844 -1.1347 0.323 0.835 0.446 63 48 28 0 0
-0.0767 0.1312 -1.1988 0.268 0.881 0.389 176 149 91 0 0
-0.0737 0.1374 -1.2209 0.325 0.921 0.217 177 149 93 0 0
-0.0668 0.1516 -1.3510 0.615 0.713 0.336 131 106 61 0 0
-0.0591 0.1675 -1.3480 0.777 0.628 -0.031 124 99 55 0 0
-0.0596 0.1666 -1.3588 0.100 0.955 0.278 115 91 50 0 0
-0.0570 0.1720 -1.3663 -0.092 0.609 0.788 126 104 64 0 0
-0.0389 0.2096 -1.3929 0.210 0.936 0.284 158 128 86 0 0
-0.0293 0.2297 -1.3975 0.229 0.966 0.121 147 116 74 0 0
-0.0069 0.2761 -1.4953 -0.221 0.872 0.437 184 154 100 0 0
0.0026 0.2959 -1.5201 0.429 0.902 0.046 96 73 39 0 0
0.0084 0.3078 -1.5653 -0.416 0.823 0.386 104 78 35 0 0
0.0421 0.3779 -1.6097 0.204 0.570 0.796 93 75 50 0 0
0.0502 0.3948 -1.6565 0.258 0.852 -0.457 105 84 51 0 0
0.0309 0.3544 -1.7772 0.038 0.985 0.171 89 69 39 0 0
0.0363 0.3656 -1.7747 0.254 0.754 0.606 86 66 36 0 0
0.0364 0.3657 -1.8303 0.110 0.835 0.540 89 70 40 0 0
0.0394 0.3719 -1.8425 0.131 0.937 0.322 87 66 37 0 0
0.0401 0.3733 -1.8471 0.131 0.937 0.322 88 67 38 0 0
0.0412 0.3757 -1.8849 0.146 0.912 0.384 87 66 35 0 0
0.0419 0.3772 -1.9008 0.438 0.863 0.251 92 71 40 0 0
0.0741 0.4439 -2.1018 0.555 0.792 0.256 178 146 93 0 0
0.0747 0.4450 -2.1067 0.511 0.806 0.300 178 151 107 0 0
0.0726 0.4408 -2.1225 0.521 0.853 0.019 89 70 34 0 0
0.0727 0.4410 -2.1283 0.280 0.872 0.401 86 65 31 0 0
0.0777 0.4513 -2.1369 0.288 0.719 0.632 87 65 34 0 0
0.0953 0.4878 -2.1997 0.088 0.928 0.363 81 60 32 0 0
-0.0897 0.0943 -0.9154 0.135 0.856 0.498 161 136 87 0 0
-0.0877 0.0983 -0.9372 -0.058 0.993 0.105 105 84 55 0 0
-0.0967 0.0790 -1.0822 0.428 0.766 0.480 28 19 10 0 0
-0.0970 0.0785 -1.0873 0.559 0.785 0.266 35 22 9 0 0
-0.0968 0.0788 -1.0920 0.540 0.820 0.187 39 26 11 0 0
-0.0981 0.0762 -1.0979 0.382 0.882 0.277 39 26 9 0 0
-0.0946 0.0833 -1.1147 0.605 0.714 0.353 40 24 11 0 0
-0.0877 0.0975 -1.1630 0.595 0.655 0.465 69 50 17 0 0
-0.0868 0.0995 -1.1671 0.595 0.655 0.465 81 60 25 0 0
-0.0729 0.1285 -1.1991 0.312 0.888 0.339 174 148 91 0 0
-0.0679 0.1388 -1.2143 0.403 0.579 0.709 188 164 106 0 0
