ply
format ascii 1.0
element vertex 672
property float x
property float y
property float z
property uchar diffuse_red
property uchar diffuse_green
property uchar diffuse_blue
end_header
-0.2986122338675554 -0.37147012747079833 -2.15396684399482 122 99 65
-0.2928659989411324 -0.3729530132223167 -2.1647479649762364 122 99 65
-0.3128103061326404 -0.3691030172311916 -2.1551880818661124 123 100 66
-0.31680050682077265 -0.36856376587264217 -2.158237992292345 123 100 66
-0.31675226890446884 -0.3688635604370622 -2.1645013298041125 124 101 67
-0.31663522992337323 -0.3691781398661635 -2.170829948255675 125 103 66
-0.3308974916049885 -0.36650124856251043 -2.165631819241858 125 103 65
-0.3243506229522026 -0.36815384412056396 -2.1771223260299957 121 99 61
-0.32700162080275785 -0.36789249935296675 -2.1812307047194377 125 101 63
-0.3340934887463889 -0.3667055922639809 -2.1817430262956536 129 105 67
-0.33571815264205596 -0.3666575621392771 -2.1866697544856435 131 106 69
-0.34153899334709004 -0.3657342783444846 -2.188183744254866 130 105 68
-0.33978911931548195 -0.3663903677946762 -2.195860265454188 126 103 67
-0.348086747915759 -0.3649491034434949 -2.1953306058742434 122 99 67
-0.3488963831856935 -0.36507102953621723 -2.2009192194367704 108 86 58
-0.3516322077739824 -0.3647905908970396 -2.2049285249785413 106 85 56
-0.3532689203245747 -0.3647399140607659 -2.2098425848731393 117 94 62
-0.3534084279086753 -0.36500266413761395 -2.215998689001765 122 99 66
-0.36334099715235113 -0.3632154631932892 -2.2140337564388197 127 103 69
-0.36595010871341116 -0.3629606958874852 -2.218129813900953 134 110 75
-0.37352378807485365 -0.3616653036116746 -2.21807869631827 141 113 79
-0.3753866367198818 -0.36156629124574835 -2.222783765292645 142 113 79
-0.38272193306507163 -0.36031916821793664 -2.2228952986629027 146 118 82
-0.3880629670502672 -0.35948954429788404 -2.2246615993237833 149 124 84
-0.39268040922863756 -0.35881119611508816 -2.227023835518824 152 127 86
-0.3966281738735892 -0.35827303195256416 -2.2299414653897474 153 128 86
-0.3942427307726848 -0.3590660393323175 -2.2382283115912798 154 130 87
-0.40664487054009224 -0.3567493006916694 -2.233944986677277 142 119 77
-0.40162994221709925 -0.3580961182010406 -2.244485157177503 136 116 74
-0.4052144111714069 -0.3576336286492329 -2.2476960435855706 134 115 73
-0.41010882641299595 -0.35689482118198196 -2.2497752903996804 125 105 69
-0.41377458746491225 -0.35641441222151915 -2.2528993702898625 105 89 62
-0.41104535931434205 -0.3572824892688717 -2.2615380335885638 110 99 76
-0.41343577603492365 -0.35707125588976785 -2.26576722399713 123 113 97
-0.42029991742988126 -0.3559153756062933 -2.2661108736593625 139 134 124
-0.4240558163468283 -0.3554150701973602 -2.269138118048713 157 157 153
-0.42679834837088015 -0.35512859684767356 -2.273042384423422 173 173 172
-0.4319087732733068 -0.35434122848705435 -2.274870659892481 184 184 186
-0.43312105246508614 -0.3543780114360916 -2.280106923091817 191 192 194
-0.06218385886348299 -0.40037838589189884 -2.020974950241257 156 145 136
-0.09212461691144669 -0.3960873626596306 -2.0379835394516315 127 116 106
-0.09851654612329064 -0.3950881063618849 -2.0398024605328136 125 113 103
-0.11829519627880125 -0.39196393557920034 -2.044730254319358 124 110 97
-0.13194335894611442 -0.3894975746296566 -2.041365417329591 124 110 97
-0.13789693506059253 -0.38858196615509666 -2.04338898440488 126 113 98
-0.13889234277878193 -0.3886668232304444 -2.0489109478274505 121 108 92
-0.14384631827605832 -0.3879521895050358 -2.051624000713366 118 104 88
-0.14881352547964777 -0.3872343463304325 -2.0543159635485613 118 103 85
-0.1512149252897227 -0.38703483657566384 -2.058831419360072 116 101 82
-0.15882542905274588 -0.3857813641712221 -2.0596090518377768 114 99 79
-0.16240488361774597 -0.3853428082256121 -2.0632641704469723 113 98 77
-0.17136806122387682 -0.3838136516549579 -2.063027690382626 114 98 76
-0.17913997561127337 -0.38252453219300814 -2.0636243920484687 114 97 76
-0.19208380797585156 -0.38018583392100647 -2.0604415469657753 111 95 73
-0.18438155221171815 -0.3820325175703239 -2.072248588728871 109 93 70
-0.1900450079340722 -0.381168962138141 -2.0743355207476593 108 92 68
-0.1957694343450116 -0.38029233906293275 -2.0763627693802214 111 93 68
-0.2021941665310043 -0.3792727629993117 -2.0778600710045034 106 89 63
-0.20963305183290104 -0.3780462385228889 -2.078591451710425 105 88 59
-0.22024063466205257 -0.37617437888012734 -2.076957403840193 109 91 62
-0.22156786126330696 -0.37618871147318067 -2.08216747604886 113 93 66
-0.2278176282672476 -0.37520134086637064 -2.0837207122371484 112 92 65
-0.22985318056951576 -0.37507129684971535 -2.088399419212265 112 91 64
-0.23230894166116378 -0.37485567840195433 -2.092764551018563 113 92 65
-0.23590013539575905 -0.3744085701873189 -2.096276676955566 113 92 65
-0.23978959132674482 -0.3739003544012609 -2.099558228136981 112 92 63
-0.243473294459002 -0.3734337774128275 -2.1029876069047373 112 91 62
-0.2507569733801469 -0.37223199820533187 -2.1036853154368695 113 92 61
-0.2353015259464185 -0.37567348406974455 -2.121624127476072 114 93 63
-0.24648574170346504 -0.37367489880825666 -2.119357263178681 115 94 65
-0.25994642048643046 -0.3712090533649652 -2.1153117892955615 120 99 70
-0.26885244419156684 -0.36967255265357224 -2.114704401489295 116 95 66
-0.26038460848084366 -0.3716903002540553 -2.1274129153202557 114 93 63
-0.25286257654544986 -0.3735165887212735 -2.139440718348945 113 93 60
-0.2504039855147997 -0.37430758869211045 -2.1475999825378183 113 93 60
-0.2596061084387965 -0.37328508772642915 -2.1592829035940033 116 93 59
-0.27409888569994334 -0.3705985435358438 -2.154238177449708 117 94 61
-0.28593582836839226 -0.36845489575879503 -2.151219830382376 118 95 61
-0.2884033180835043 -0.3682345118076006 -2.1555244262922013 120 97 63
-0.29018838825056126 -0.3681543690695156 -2.160365897584792 123 99 65
-0.30195764876250775 -0.3660206310036487 -2.1573136703490463 123 99 65
-0.30599298363989824 -0.3654765136283952 -2.160351429495196 120 98 64
-0.31009900522890443 -0.36491745394474795 -2.1633245199817743 122 98 64
-0.3187878954886252 -0.3634138812564652 -2.16263319549554 125 101 67
-0.3227620896367601 -0.3628807022164651 -2.1656836229956857 127 103 67
-0.3271448014308691 -0.3622629005548528 -2.1683980672001852 127 103 67
-0.32932975624085725 -0.36209808543906413 -2.1728706130809905 129 105 68
-0.3317745633598689 -0.3618796273382368 -2.177133459105726 129 105 69
-0.33309415279734744 -0.36189351166546874 -2.1823055824800166 127 102 66
-0.33777919791264643 -0.3612121300386304 -2.184750613748808 128 103 67
-0.34167284711619106 -0.36069383583853104 -2.1878280783386903 132 107 71
-0.3470458889477962 -0.35986915437244366 -2.189690182533942 130 105 70
-0.3489051152556113 -0.35977101937907197 -2.19441334441622 125 101 69
-0.35200223505142736 -0.3594166211592759 -2.1981219128627827 114 93 62
-0.35150499439414706 -0.35980669299356505 -2.2047847759322345 111 92 60
-0.3596621978778731 -0.3584034094447469 -2.204316205872057 121 100 67
-0.36198873073585724 -0.3582080716677685 -2.2086462695889373 125 102 68
-0.36754378340298755 -0.3573427853283322 -2.2102954561087325 127 103 68
-0.3716847441173544 -0.35677034432369886 -2.213105965990759 139 114 79
-0.3739893266660288 -0.3565789198934454 -2.2174402802989968 142 116 80
-0.3800815654865811 -0.35560030362611533 -2.2186029095764455 144 118 79
-0.3857101398049346 -0.35471724698579016 -2.220136280579724 148 121 82
-0.3927460515944501 -0.35354065617067576 -2.220468395755443 157 130 90
-0.399696543841766 -0.3523807854506077 -2.220849540929531 151 124 83
-0.4067556681396093 -0.3511972474850813 -2.221115971158166 154 127 84
-0.40595888860496543 -0.3516495438860079 -2.228029031715006 156 129 87
-0.40887227326528186 -0.351329005366539 -2.2317972093084917 150 124 84
-0.4027245272961685 -0.3528983129998324 -2.2432981115608186 140 119 78
-0.4081110076084611 -0.3520623115609753 -2.2449631988503813 131 113 70
-0.4139948756879914 -0.3511217445186424 -2.246185794991014 125 107 67
-0.41794388163093166 -0.3505845769104333 -2.2490563790371882 112 96 62
-0.4168631270634241 -0.3510983536874511 -2.2562608595791778 110 97 66
-0.41773107943243715 -0.351205301231905 -2.2617937242829327 115 104 81
-0.42082908913079575 -0.350845904520528 -2.2653966832494903 128 120 106
-0.4251083127175521 -0.35023900506589695 -2.2679667348494523 144 142 136
-0.42663267687147377 -0.3502086837536437 -2.272931501912067 162 162 159
-0.43289635566284157 -0.3491852492013701 -2.2737504138123055 177 179 179
-0.4348646193657072 -0.34906159828898975 -2.2783200827382726 186 188 191
-0.43831753333026446 -0.3486265079305916 -2.2815837303069864 193 194 196
-0.05592711797329064 -0.3960636134364893 -2.0187284524375313 140 127 120
-0.06439569472849227 -0.39466337415482367 -2.019236836855214 137 122 114
-0.1285755395225776 -0.38413124816597166 -2.0248510005765485 121 107 94
-0.13509084678549366 -0.38311079233670425 -2.0264976656820135 119 105 92
-0.13928213816409496 -0.3825539493608249 -2.0297581602868604 120 106 93
-0.14260464326508726 -0.3821704348546107 -2.0336223101747746 120 107 93
-0.14869677064263087 -0.38123268323346077 -2.035524940583508 119 106 90
-0.15260301419878086 -0.3807316544566717 -2.0389601885747726 118 105 89
-0.15991950146112655 -0.3795474606428608 -2.039964052224924 116 103 86
-0.1624725353588552 -0.3793165382828275 -2.044342470119871 115 100 82
-0.16677416877010132 -0.37873508660513727 -2.0474689600365124 114 99 80
-0.16837977080925404 -0.3786938542799257 -2.05252051110484 110 95 74
-0.17513784618705086 -0.377619037116326 -2.0538675142581835 112 97 75
-0.1815813506598033 -0.3766064728920441 -2.0554219086874794 113 97 74
-0.19127264057628668 -0.37494085839904345 -2.0546070488325636 113 97 74
-0.19576836808177955 -0.37431766044017223 -2.057531872349116 111 95 72
-0.19308137320389562 -0.37513786861966386 -2.065677393678 111 95 72
-0.19156864895960146 -0.375722882387046 -2.0729866755481634 110 94 70
-0.19952598150172662 -0.3744031133540838 -2.073374620587083 104 87 62
-0.20670566706738125 -0.3732387599933481 -2.0743088629311157 94 77 50
-0.21549953567485913 -0.3717483029645943 -2.074031732807175 95 79 49
-0.22305570039487643 -0.3705059522650339 -2.0746405867100086 104 86 57
-0.22672076942300456 -0.37004703390373245 -2.0781107066382964 111 91 64
-0.2300877548994159 -0.3696479528207211 -2.0817960675038383 114 93 66
-0.23485673346667013 -0.36896570002600665 -2.0844307202572105 113 92 65
-0.2380540768351328 -0.36860026865895906 -2.08822964441451 114 93 66
-0.24655942648671825 -0.3671623499701579 -2.0880419905415653 115 94 67
-0.24913943737526945 -0.3669207595456746 -2.0922848600226587 116 95 67
-0.252099781370704 -0.36660218419661245 -2.0962390246082694 116 95 65
-0.26071010447213916 -0.3651403788112321 -2.0959133830761063 115 94 63
-0.25198443798937953 -0.3671863651266749 -2.1087193007311775 115 94 64
-0.2587726136738224 -0.3660927380936323 -2.1097624452703188 116 95 65
-0.26299109494868167 -0.3655188507089489 -2.1127472842981527 116 95 65
-0.26943310454482217 -0.3644938006757856 -2.114020228853496 114 93 63
-0.26091602278949844 -0.36650191420092254 -2.1267638857635767 114 93 62
-0.2589551918539743 -0.3671817917802279 -2.1345052535251874 112 92 59
-0.2500266933385574 -0.36927712965947285 -2.1476484414683403 113 93 60
-0.2642865697445076 -0.36694753765179017 -2.1491278744405906 116 93 59
-0.2757525737421669 -0.3648995728656779 -2.1464549204339254 116 93 59
-0.2861598257234437 -0.3630650961294137 -2.1445675581516825 117 94 60
-0.29594879581370315 -0.3613547771360979 -2.143127615728371 116 93 59
-0.27598446625144857 -0.3657018535357644 -2.165044053671534 117 94 60
-0.27563053539472737 -0.3660580156318932 -2.17159977413987 124 100 66
-0.2899965170841723 -0.3634141096344694 -2.166527862626724 123 100 66
-0.30158627708906316 -0.3613338993074626 -2.163601967950531 122 100 66
-0.3183030618469027 -0.35820555985972896 -2.156555633549797 124 100 66
-0.3245260466545531 -0.35721658731605466 -2.1578123973238825 126 102 68
-0.32843574599387027 -0.356699287843365 -2.1609009460140745 128 104 69
-0.33035365717437115 -0.3565886787057273 -2.1655792904510562 129 105 69
-0.33154748101848297 -0.3566261764251122 -2.170841331894539 131 107 71
-0.3333276694026601 -0.35654392459538004 -2.175634830968937 132 108 72
-0.3374423334358603 -0.35598394052646115 -2.1785413490607457 128 104 68
-0.34110345170023615 -0.35551642877092743 -2.1818069093132406 126 102 66
-0.3418107213699839 -0.35565381118303324 -2.18746920196624 127 103 67
-0.35157576827172665 -0.3539347272507947 -2.1857467384560074 127 101 66
-0.3526890017923058 -0.35398851141592386 -2.191069375766517 125 101 66
-0.3588530810023537 -0.35300606999266027 -2.1922517020803935 122 100 66
-0.35747742334281185 -0.3535707568436981 -2.199620839601823 122 101 68
-0.36001732940986586 -0.35333188045128927 -2.2037747452674847 129 106 72
-0.3604346997914387 -0.35352914919686934 -2.2096837564003424 129 105 71
-0.37097442822070903 -0.35164536834293453 -2.2071988955242308 135 111 75
-0.36914640228367346 -0.35230425641938173 -2.2149696517074142 142 116 79
-0.3693186760528143 -0.3525522547863517 -2.2210894277311484 144 118 80
-0.3772434705568113 -0.3512040826835669 -2.2207289160818053 145 120 80
-0.38567222082763775 -0.34975084032326076 -2.2199181916066864 150 123 84
-0.39397951852211666 -0.34832129661681055 -2.219180101745366 151 123 83
-0.4025741007447732 -0.3468311786727898 -2.218170382485752 156 129 87
-0.4103015159803298 -0.3455186389377734 -2.2178642383207445 156 129 86
-0.4135375867514124 -0.3451322770389693 -2.2213444817763373 159 131 89
-0.4171098992633073 -0.3446762163150913 -2.224533280637708 157 131 91
-0.4074514010058129 -0.34695460778415826 -2.2390104254545404 139 117 77
-0.41353270579154666 -0.345980488154854 -2.2400692420415282 130 112 73
-0.4209939703147767 -0.3447199874183166 -2.2399246082508597 126 109 70
-0.4247533957975066 -0.3442246932981817 -2.2429413423091775 120 104 65
-0.4228197316306517 -0.34490825466656505 -2.2508649987503673 109 95 58
-0.42151312884027214 -0.34546275120870384 -2.2582654077368614 107 95 67
-0.42355178060263243 -0.3453243711854287 -2.262778489514727 115 107 87
-0.42610685229075573 -0.3450788807416685 -2.2668425647174266 132 127 116
-0.4280691066634704 -0.3449563498171332 -2.271422149454257 154 152 147
-0.43177795141563546 -0.3444711370354346 -2.2744738108013 170 170 168
-0.43727752435149536 -0.34361349707116995 -2.2759461194983426 183 183 186
-0.4417267746897424 -0.34297347690924795 -2.27832662308181 191 192 193
-0.05386129853609156 -0.3906302967330012 -2.007369517134202 141 133 123
-0.05900840874566815 -0.3898959822298783 -2.010146353178443 140 128 120
-0.06991863455346625 -0.3880257307632995 -2.008999039762817 137 123 114
-0.12571429772799536 -0.3789556633797691 -2.0142178181138974 116 102 87
-0.13246070385908515 -0.37789776136761655 -2.0157182959521585 107 93 77
-0.14068419795581255 -0.3765467423229368 -2.0161687136179034 99 86 70
-0.1448017797433011 -0.3760073837133613 -2.019467917881353 102 89 73
-0.14802712431514442 -0.3756443781742377 -2.023385614493177 112 99 83
-0.15131208352289927 -0.3752693718471969 -2.0272571041979006 116 102 86
-0.15916775094804936 -0.37398804385798484 -2.0278949999499982 115 99 83
-0.1633037171265984 -0.3734434086796491 -2.031144631529354 115 99 83
-0.1638265248204902 -0.37361539397156407 -2.036954250808539 116 100 82
-0.1675683863822165 -0.3731486182790632 -2.040476258070423 108 93 74
-0.17131181540974239 -0.3726812408507454 -2.0439906345638503 109 94 75
-0.1790452349847057 -0.3714206550709578 -2.0446365941135913 109 94 73
-0.18758562389758793 -0.36999856142190835 -2.0446781487043144 109 94 73
-0.2045864358878794 -0.36744136945971634 -2.0508961358850097 111 95 72
-0.2025188822332985 -0.36812843163450687 -2.058570534205444 110 94 71
-0.20372273115307038 -0.3681643088528111 -2.063874468783747 108 92 69
-0.209692524945995 -0.36725002369552645 -2.0656917426292574 107 89 64
-0.2125219056757064 -0.3669615312995021 -2.0697998484377953 105 88 62
-0.22064717620663155 -0.365615847729724 -2.07000274280617 98 81 54
-0.2272601922495341 -0.36457100292935685 -2.0712973580972625 103 85 58
-0.23425680760032885 -0.3634486510384095 -2.0722882316792868 111 91 64
-0.23827570764789596 -0.3629205930196526 -2.075471924143853 112 91 64
-0.2417695391849516 -0.36249718877273657 -2.0790391514352464 113 92 65
-0.24525397944703786 -0.36207540894306145 -2.0826076924221586 115 94 67
-0.24839409155759973 -0.3617223076967889 -2.0864288451266413 117 96 69
-0.24807316547948077 -0.36206223845983543 -2.0928497702473083 117 96 69
-0.2558866916927375 -0.3607725977924193 -2.093143803015967 117 96 66
-0.2549746161147448 -0.3612312416927552 -2.1000164489691535 116 95 64
-0.26126723415929376 -0.36024531606079174 -2.1014343368159105 114 93 62
-0.26842365503406973 -0.35908521896090373 -2.102176358983728 113 92 61
-0.27540205919700256 -0.35795987601873946 -2.103032111823806 113 92 61
-0.2778725335851626 -0.3577391708994181 -2.107318359126977 112 91 60
-0.2791286298134167 -0.35776248650999104 -2.112535977511526 112 91 60
-0.2688172357181827 -0.36011209044886927 -2.1266675240539246 112 92 59
-0.24742548767471295 -0.364693461008747 -2.149414821529648 113 93 60
-0.27120539983555336 -0.360743816877713 -2.1497556513086193 116 93 59
-0.28442392006511286 -0.35835815367525775 -2.1456817648918602 117 94 60
-0.2895394313056282 -0.3576045928188303 -2.147909034343434 117 94 60
-0.2828492142293848 -0.3592327868947348 -2.1594031971804064 120 97 63
-0.29080479431683626 -0.3579058371093224 -2.1593918039742577 122 98 64
-0.3012710446037986 -0.3560705636127706 -2.1573691588896082 125 101 67
-0.30874937685773074 -0.354837466303451 -2.1576779009058265 125 103 68
-0.3212642444968833 -0.35258488712422525 -2.1539573920529635 126 102 68
-0.3354967233902757 -0.3502588361677672 -2.155009767630418 128 104 69
-0.33944957000668896 -0.3497349105300809 -2.1580392092038263 132 108 72
-0.34178177112882435 -0.3495389821022106 -2.162364065483041 132 108 72
-0.33925633166292113 -0.3503277397184179 -2.170606789894652 132 108 72
-0.34586140327632897 -0.349265626070065 -2.1714845837205305 131 107 71
-0.3473175510588805 -0.3492474267363424 -2.1765192704043743 128 104 68
-0.34813110965367067 -0.34935983638092627 -2.1820800878332403 128 104 68
-0.35425511181036395 -0.3483938226885789 -2.183314115994614 131 105 71
-0.35359568665012353 -0.3488056015899491 -2.1900804943146857 133 108 72
-0.3554980406730439 -0.34869706471349604 -2.1947578176080924 134 110 73
-0.35754578365285106 -0.3485590052783642 -2.1993167370836786 126 103 66
-0.35867684362443264 -0.3486075569478642 -2.2046327386359126 126 103 67
-0.3664244708608405 -0.34730886840387837 -2.2044776270985773 129 105 68
-0.3728685534752021 -0.34627461541930904 -2.205378260326547 135 109 72
-0.37481285981099244 -0.3461567826132205 -2.2100039965176994 142 116 77
-0.3765958785460014 -0.34607189215936385 -2.2147653756572154 144 119 79
-0.3819717511473948 -0.3452538944236401 -2.2165212781372565 153 128 87
-0.39342978249866634 -0.3431934057689132 -2.2131568334239717 153 126 85
-0.4004352735860086 -0.34204051642828126 -2.2134963034300346 153 125 85
-0.4041718043669158 -0.34155472655280505 -2.216572131963748 157 129 88
-0.4108640252109508 -0.34046419161295843 -2.21713852600202 165 138 95
-0.41483301286339136 -0.33992985634815476 -2.219994938627258 156 129 87
-0.4206981653968782 -0.3390069848972417 -2.221228607958915 156 128 88
-0.407765338843899 -0.3419333041484779 -2.2384905886517794 146 120 83
-0.4168849588514748 -0.3403439605702639 -2.2369477927548744 132 112 75
-0.42073647751142207 -0.3398332043372462 -2.239893726171629 127 108 73
-0.42442183837918857 -0.33935616734613616 -2.2429745151821736 124 107 71
-0.42646481602544406 -0.3392158752519035 -2.247465572148498 105 90 52
-0.42525361349862767 -0.3397438250577069 -2.254773842382901 97 84 51
-0.42586103090225014 -0.3398988600919517 -2.26051972375434 107 97 71
-0.4281776276786061 -0.3397028919687174 -2.2647853654727057 121 114 96
-0.4301935865560459 -0.33956871786354004 -2.269312584918433 141 138 126
-0.43318692412305637 -0.3392334542599076 -2.2729850138640586 162 162 157
-0.4380701616960063 -0.3385089141143423 -2.2749946861083337 179 178 181
-0.44318416921859116 -0.3377362456201186 -2.2767879862834226 189 188 190
-0.44979102315925124 -0.3366552619524448 -2.2772494200048263 194 195 196
-0.0666587642698887 -0.3825844100860588 -1.9922836924710716 145 135 125
-0.07138768162207665 -0.3819355809153711 -1.995316744100966 137 127 118
-0.07836437999866885 -0.3808476553566824 -1.9968185637354223 132 121 112
-0.13132648054918417 -0.3724000183255998 -2.003922586898563 122 109 93
-0.1368026798122144 -0.37159862620588524 -2.006296804814666 120 105 90
-0.14291170517248486 -0.37067260564780846 -2.008216999315969 116 101 86
-0.15118688242235478 -0.36932112753095053 -2.0086090866798 106 92 76
-0.1547236480650126 -0.3688980530917898 -2.0122921075219526 95 82 65
-0.15749631079508786 -0.3686247001662263 -2.0165060368408794 94 80 63
-0.16065094579761496 -0.36827624192785996 -2.020448650880251 100 85 68
-0.1645721192454478 -0.3677770206136397 -2.0238458268465522 110 93 76
-0.16336797245514068 -0.3682848515781274 -2.0308672806220427 114 97 80
-0.17258116412851676 -0.36674483950399994 -2.0304999014049696 114 97 79
-0.17626852393687753 -0.3662906422670977 -2.0340415555079954 110 94 75
-0.1700893827986063 -0.36777821607151534 -2.044631656526624 107 92 72
-0.1902874129134119 -0.3640729952034504 -2.036340842305692 106 91 70
-0.20144783420465429 -0.3621449672810348 -2.0344733804516553 105 90 69
-0.20427417945364734 -0.3623991405659571 -2.050889354377561 112 95 72
-0.21579914566749825 -0.36039523921313327 -2.0486675340649163 111 95 71
-0.23049232576985235 -0.3580333440338488 -2.0502225044572473 110 92 67
-0.22950715303805924 -0.3584980514823052 -2.057086879959541 110 93 67
-0.23084331277573134 -0.35850423608871407 -2.0622548506244067 109 92 67
-0.23463863715393662 -0.35802395116162994 -2.0656092823215855 106 88 63
-0.23669597441035295 -0.35788745166829383 -2.0702449239852343 103 84 57
-0.24452138579592841 -0.3566084352305963 -2.0705931172110805 106 85 58
-0.24719896489148085 -0.3563485138128488 -2.0747548328923675 109 88 60
-0.2425656647229083 -0.35753806510926045 -2.084381782667186 110 89 61
-0.24891563409695983 -0.35655016748597257 -2.0858009584487354 116 95 68
-0.2526107133274006 -0.3560883772252801 -2.0891989321364335 116 95 68
-0.25708200684458893 -0.3554721636058137 -2.0920046095723692 114 93 64
-0.26002136865152004 -0.35515984747625995 -2.095959414626799 113 92 61
-0.26674796289596325 -0.3540946214609932 -2.0970365854173023 111 91 59
-0.267340219195663 -0.3542483919104775 -2.1027628830090803 110 90 58
-0.2773361617678217 -0.3525315178277757 -2.1013173713710547 110 89 58
-0.27802027729340983 -0.35266670703047737 -2.1069666055312632 111 90 59
-0.2855139049686177 -0.35144602872718383 -2.1073935313285457 113 91 60
-0.2772777762232149 -0.35335855232197444 -2.1199109181242926 113 92 59
-0.26519363254171324 -0.35604025948550044 -2.1354474363995677 113 92 59
-0.3011428491565713 -0.3496871226085284 -2.126185981677402 117 94 60
-0.3076185541838168 -0.3486656251695481 -2.1273139141470403 117 94 60
-0.30879088414729605 -0.3487031621101229 -2.1325786741888217 118 95 61
-0.2981691982548669 -0.3510991380637648 -2.1471179131243323 120 96 62
-0.30400378269930395 -0.3502055632898782 -2.148743597546007 120 96 62
-0.3106519607385557 -0.3491484149969596 -2.149709478812518 122 98 64
-0.31922029242978167 -0.3477058546968774 -2.149132636133683 123 101 66
-0.33179988269695415 -0.3454583412433448 -2.145337184509119 126 103 68
-0.33600383364544395 -0.3448876631175512 -2.148172821502648 126 102 68
-0.3356045126132554 -0.3452397830948304 -2.1546803386082387 128 104 69
-0.33806660300615765 -0.345018262493541 -2.1589048151091506 134 110 74
-0.3382415021524874 -0.3452558525096042 -2.1649675229744556 134 110 74
-0.35075533694279803 -0.34301546695245644 -2.1610868112007178 133 108 72
-0.3555488599216633 -0.342324455069889 -2.1634033764807037 132 108 72
-0.349279305391622 -0.34385726899166674 -2.174682411725371 131 107 71
-0.3532878235784538 -0.3433242266179906 -2.1776388662310584 129 105 69
-0.3588397365131154 -0.3424801762970899 -2.179327575339201 128 103 69
-0.3604226343031981 -0.3424346654409923 -2.184247936423195 132 106 70
-0.3610497351537314 -0.34258183771537526 -2.1899552421865516 137 112 74
-0.36198622700946104 -0.3426669601494336 -2.195415129930678 133 108 71
-0.3709336870635167 -0.3411367206413707 -2.1942702432480083 131 106 71
-0.3732065846232838 -0.34095186667085026 -2.1986169695286106 133 109 72
-0.3791659613150544 -0.34002275888501626 -2.199903885108874 141 115 76
-0.3831166710530328 -0.3394985861775394 -2.2028446015044274 143 116 77
-0.38337984886494747 -0.33971924726047176 -2.2088543606376874 143 118 77
-0.384201960178002 -0.3398272886284798 -2.2144052485120875 151 126 83
-0.38796520159497394 -0.33934063130555125 -2.2174940104305727 155 128 85
-0.3992888844641479 -0.33732341705847685 -2.214212024873648 155 127 87
-0.4041104091480464 -0.336621000292603 -2.216374510128881 157 129 88
-0.40771140617205204 -0.33616531394137794 -2.2195573512415048 166 139 97
-0.41447704991594925 -0.33506781450232304 -2.2200472956506503 160 133 91
-0.41905992592077157 -0.3344120489562095 -2.2223730811895015 148 120 81
-0.4239568360624768 -0.3336920482611321 -2.224419207453753 151 123 86
-0.41690180967948076 -0.33539801580476936 -2.2366817798951883 151 126 88
-0.4208249773702538 -0.3348759093411006 -2.2395658721968266 132 111 76
-0.42370025810086265 -0.33456639669371274 -2.243343346070231 118 99 69
-0.42591284405083785 -0.3343914828820224 -2.2476892674892586 106 90 56
-0.4281464928092775 -0.3342122692321219 -2.2520166255709126 95 81 46
-0.4293043742529181 -0.3342520113913372 -2.2572771871257302 97 86 55
-0.43046313597838504 -0.33429178293778367 -2.2625417292250756 111 101 79
-0.4286901308640241 -0.33492915310777266 -2.2703695935545287 128 124 109
-0.4339001500956584 -0.3341437222512281 -2.2721053961518716 152 150 142
-0.4383871286801285 -0.3335051232128157 -2.2744608692531636 172 170 171
-0.4426639487115318 -0.3329089147681711 -2.2769899164827563 183 182 185
-0.45218367135013837 -0.3312416997627565 -2.274882268396932 192 192 194
-0.45770047111275225 -0.330390693245276 -2.2762806264089357 196 197 199
-0.01065704789479649 -0.3714172879217151 -1.6432770395120508 214 214 216
-0.048755321552947595 -0.3799836137212761 -1.9853704806313262 148 140 130
-0.054137705009567494 -0.3792146460925805 -1.9880051546445152 147 135 125
-0.06109479554365316 -0.37814104109363594 -1.989571406982594 145 132 122
-0.07717898740264906 -0.3753033127979953 -1.984981361916324 138 125 115
-0.08446553999415185 -0.37416350210690635 -1.9862670716647224 134 120 111
-0.09684185440962134 -0.3720385558102561 -1.984088167898773 133 119 110
-0.10212819980919974 -0.3712834219277934 -1.9866784409389264 132 118 108
-0.12552897492183757 -0.36755357463921345 -1.9892065131957761 121 108 92
-0.13337318901575523 -0.3662997389146399 -1.9899720557498854 117 104 88
-0.14088887479226908 -0.3651085833758263 -1.990940281775446 117 104 88
-0.1424951114677605 -0.3650629729181437 -1.9959716505796363 116 103 87
-0.15438295384991008 -0.36302175601725756 -1.9938755441788665 116 102 88
-0.16107119084070587 -0.36198851288167266 -1.9953552470703972 115 101 88
-0.16418306470290223 -0.3616492998949508 -1.999311327941954 114 99 84
-0.16732192201595986 -0.3613046776347537 -2.0032447338121924 112 96 80
-0.16949926140723748 -0.3611468780513245 -2.007849237677827 106 90 74
-0.17123288117741942 -0.36107542112527347 -2.012766395137925 97 81 65
-0.17376574229628672 -0.36084847354283217 -2.0171211389222727 94 78 59
-0.1762727975123788 -0.36062649429498517 -2.021492837951433 97 82 61
-0.17940107648245662 -0.36028341784530254 -2.025421862468381 108 93 71
-0.18160685874237292 -0.3601200054747769 -2.0300045209189364 114 96 76
-0.18472657354998046 -0.35977834723540597 -2.0339338477784663 109 92 72
-0.19904999264995715 -0.3572503532723459 -2.029825086463709 107 89 69
-0.2078970897964726 -0.3565871720292244 -2.0480264440741314 111 93 71
-0.21749598194754227 -0.35497645853770377 -2.0471991789092137 108 90 66
-0.2289893638610081 -0.35299360658495216 -2.0449563762012044 109 92 66
-0.23323215307331502 -0.35242858221406453 -2.0479828725946634 111 94 68
-0.23637617502698893 -0.35207840106457833 -2.0518074996690876 113 94 69
-0.23968720043038294 -0.3516953109395319 -2.0555049394031237 113 96 70
-0.24303628210370176 -0.3513045469456186 -2.0591693634132966 108 91 65
-0.24583599431174008 -0.3510213327855637 -2.063235866805382 103 86 60
-0.2492607875331535 -0.3506153216564001 -2.066835063102007 101 83 56
-0.24240942025772194 -0.3522269101599171 -2.0780901349579364 99 80 53
-0.24511486781819614 -0.3519627326784519 -2.082239079201364 107 88 61
-0.24963108796753908 -0.35134254654251684 -2.0850277672896675 106 87 59
-0.2557324960247823 -0.35041019038320376 -2.086613822769156 104 87 57
-0.2603757084010756 -0.34976397554383476 -2.08928261150591 102 85 57
-0.2643308071817698 -0.3492527380294274 -2.0924611577532417 101 84 55
-0.26861455409311896 -0.34867643718394276 -2.0953824528440848 101 85 53
-0.2723362851630442 -0.3482104684287557 -2.0987221590612184 103 86 53
-0.2684365238233867 -0.34924663880808904 -2.107872765582731 107 88 55
-0.26585537241634283 -0.35002392343294464 -2.1160411595511834 111 89 57
-0.2747346392107958 -0.3485407020992461 -2.1154314696727567 114 91 57
-0.2805576523379847 -0.34765955491437706 -2.1171452687241707 114 91 57
-0.2825526038991344 -0.3475338204120341 -2.1217992003564246 114 91 57
-0.30890223392661975 -0.3431284121254935 -2.1199003097094904 117 94 60
-0.3116589620030429 -0.3428500681517019 -2.123916431311078 118 95 61
-0.3127808132079818 -0.342895332071297 -2.129211039118265 118 95 61
-0.30341794248284215 -0.3450179168930984 -2.1427503248471065 118 95 61
-0.3067975213799624 -0.34461713131446564 -2.146298895971623 119 96 62
-0.31455675362382396 -0.3433475984440594 -2.14638011562198 120 97 62
-0.322914793070023 -0.3419581564570586 -2.1459611772742413 121 99 62
-0.3344730117995066 -0.3399322422869416 -2.1429697649255215 122 100 63
-0.3379666541723384 -0.3395061158602703 -2.1463653437357437 125 101 65
-0.34044097624582925 -0.33928226710317355 -2.150569887034689 129 103 69
-0.336026771050857 -0.3404278098760874 -2.1602969497586435 132 106 71
-0.31630999638409796 -0.3446183715773835 -2.18236071826665 135 109 73
-0.3612944258959835 -0.33593766402172637 -2.1523431424543555 135 109 73
-0.3610934558964445 -0.33624487989223917 -2.1586748022182536 134 110 73
-0.3540834293366356 -0.3379089434657618 -2.1705404067536067 132 108 71
-0.3539995844144692 -0.33819444386891173 -2.176814373522915 131 107 71
-0.36506340463103937 -0.3362575225405607 -2.1740048303647175 127 103 68
-0.3625131370116921 -0.3370348643762083 -2.182291532770617 128 104 67
-0.36724719904657765 -0.3363591735969592 -2.184623925325464 137 113 75
-0.369146139250239 -0.3362491513580129 -2.1892769279149658 137 113 75
-0.3754205416321602 -0.33526493716163214 -2.1903209976665488 138 112 77
-0.38110082139522095 -0.334398658689013 -2.1918374093237527 137 111 76
-0.38246178896887106 -0.33439556634205375 -2.196921349343715 142 116 78
-0.3870893045399617 -0.33373896390023594 -2.199290852005752 145 120 79
-0.3893999069055829 -0.3335457327019649 -2.203582117708399 151 126 82
-0.3909230299169443 -0.33351021261675895 -2.208531616854732 154 127 84
-0.3951758354189877 -0.3329277471926798 -2.211193379668594 159 132 89
-0.40718907177466457 -0.33078873860687963 -2.2073144717553883 158 130 89
-0.40943737671218183 -0.3306067628715533 -2.2116296189069526 156 128 88
-0.40943831903902606 -0.33087586513732753 -2.2178461625681547 154 126 86
-0.4167260986117244 -0.3296820149730441 -2.2178888685991165 153 125 85
-0.4224872581963093 -0.3287938489042301 -2.219206316418697 146 118 80
-0.4179737029961378 -0.32997049259830125 -2.229275093283906 151 123 86
-0.4249748226658441 -0.32883249107049595 -2.2295213547285138 152 124 84
-0.4252632655124423 -0.3290443417648749 -2.2355051365724705 144 119 81
-0.4277734229580792 -0.3288092482199397 -2.239585806808036 123 103 71
-0.4291471191378282 -0.32880301484999425 -2.2446454434466974 105 91 57
-0.4319874932216845 -0.3285013299121471 -2.2484395244644864 94 80 46
-0.4344968588972574 -0.3282662487539303 -2.2525174814625477 87 75 45
-0.43265424296557975 -0.3289091455416953 -2.2603807256076305 98 90 66
-0.4326196826953309 -0.32918789269437765 -2.266685464719701 116 110 94
-0.43290331191443265 -0.3294028312682758 -2.2727223048626572 140 136 126
-0.4400446007698695 -0.32823240598714387 -2.2727509336711225 163 162 158
-0.4463832879463312 -0.32722320047428055 -2.2734615197276162 179 178 180
-0.4543984687488657 -0.32587398374559623 -2.272672547234368 187 188 190
-0.4579793876977061 -0.3254209765805656 -2.2757781124953076 193 194 196
-0.007714883078544177 -0.36637831285206957 -1.6331792023087799 203 202 204
-0.016982994576248966 -0.3649007200711843 -1.633898401290371 195 195 196
-0.027394356035111422 -0.36320937474316434 -1.6339683233048783 191 191 192
-0.03570910854400389 -0.3619067662046638 -1.6351524415737082 191 191 190
-0.04398989145060983 -0.3606094848579437 -1.6363318495488288 192 193 191
-0.0540438143286478 -0.35898103243819945 -1.6365124908840099 200 200 198
-0.06074319680386997 -0.3579762235833276 -1.6385149929391356 209 209 207
-0.06579915741280262 -0.3572769690126885 -1.6414106341625403 212 212 213
-0.03695747318208209 -0.3761732190026432 -1.974291734722133 138 127 115
-0.05837410927960296 -0.3723487970460062 -1.9663436079024212 125 114 102
-0.11703673722879715 -0.3629666206508316 -1.9701988717709846 117 103 91
-0.1261684732011672 -0.3617392266221866 -1.9762620661054553 116 103 88
-0.12844167872703416 -0.36156479724848467 -1.9808444026579208 116 101 84
-0.13383976305060963 -0.36079050705592025 -1.9832863081187233 116 101 83
-0.14027770328227096 -0.3598159406666465 -1.9850004230393345 115 100 82
-0.14312916804772513 -0.3595297260523219 -1.989168369395153 118 102 86
-0.15290810876166727 -0.3579117144616762 -1.9885448671341635 117 101 85
-0.16708959827843217 -0.35544562164591775 -1.984836512064362 116 100 85
-0.17366321741881585 -0.35444121681979335 -1.9863687884697279 115 99 84
-0.17690163450060625 -0.35407806231805583 -1.990209355194211 113 97 82
-0.1817273142782465 -0.3536693500208114 -1.9990363846655568 110 93 76
-0.18404569663218517 -0.3534831488736362 -2.0035151305302223 108 92 73
-0.18655333357292092 -0.3532604270029405 -2.00785977026797 105 88 68
-0.19088939678990902 -0.35268483400448614 -2.010907913495074 97 81 59
-0.19203749193515973 -0.35272430147339695 -2.016212098272329 96 80 57
-0.19469727752010257 -0.35247198757929854 -2.020443494958025 104 86 63
-0.19749485291220348 -0.3521929650656405 -2.0245744614480174 108 90 67
-0.2074862110659631 -0.35052305604130013 -2.0235448024806266 106 88 65
-0.21656836434423865 -0.34981113372165057 -2.0415005216575235 110 92 69
-0.2159615969566251 -0.35019072872765233 -2.0480831101213908 108 90 65
-0.23258698943314193 -0.3472297473446515 -2.042097242226192 109 92 66
-0.2385288251505414 -0.34633848025740277 -2.0438714530595288 112 95 69
-0.2407124194270388 -0.3461758911673515 -2.0483895011722266 113 95 69
-0.24432936588157084 -0.34573499299529936 -2.0518517217899515 114 95 70
-0.24794232654284865 -0.3452946022489321 -2.05531063258036 111 94 68
-0.2505368383548028 -0.3450518859946283 -2.0595180073510377 104 88 62
-0.253557666155099 -0.3447261969597436 -2.0634067469639343 102 86 60
-0.24484898232662844 -0.3466822561940759 -2.076035672004343 92 76 51
-0.2479453633235542 -0.3463426554442439 -2.0798865285608814 93 77 52
-0.25410160922349767 -0.3454070292821514 -2.081438867903719 88 72 47
-0.26602644649726526 -0.34334677429610616 -2.078635075653538 89 75 49
-0.27077471078049187 -0.3426835478581786 -2.081201508891279 91 77 52
-0.26831477290994477 -0.343425558195009 -2.0892099102000055 93 79 53
-0.26612713132542665 -0.3441153238605714 -2.097032410309737 94 78 52
-0.26883194948818157 -0.3438508785157154 -2.1011512359675892 95 78 52
-0.2716079567708579 -0.3435724320436557 -2.105213437154974 99 79 52
-0.2724053445869369 -0.34368049329338946 -2.1107876333425897 111 88 56
-0.28238648581665815 -0.34199345101736367 -2.1093174344292076 112 89 55
-0.2847241931663569 -0.3417998952512159 -2.1136975131870286 114 91 57
-0.29928795319247814 -0.3392138422277214 -2.1086356088155056 114 91 57
-0.30203154705878665 -0.33893958732749746 -2.112672418716288 115 92 58
-0.30225776675960714 -0.33915832292664144 -2.118662015449174 116 93 59
-0.3095545518437324 -0.33799178043635236 -2.1191524528003414 117 94 60
-0.31358045274996993 -0.3374655764481887 -2.1221751348947144 118 95 61
-0.31856674651873274 -0.33675061518192456 -2.124436913829819 119 96 62
-0.3238581329639566 -0.3359752292316795 -2.126446162381503 121 98 64
-0.3283309922269798 -0.3353599652283758 -2.129086272032886 122 99 65
-0.33250669868924354 -0.3348026314400924 -2.131950731432239 119 97 62
-0.3376762267222242 -0.33404956335822716 -2.134018266215864 120 98 61
-0.33429262048679276 -0.3349779231917222 -2.1428712141486503 120 98 61
-0.3381255158877253 -0.33448750245370573 -2.1459964104241633 124 101 64
-0.3398218011813431 -0.33441734788347527 -2.15082221458099 128 103 68
-0.3351913212366 -0.3355933312995703 -2.1607230612357107 131 105 68
-0.3441535067744964 -0.33409226134799447 -2.1597251171940828 133 107 69
-0.3612071054781244 -0.33099467456190623 -2.152170780461689 135 110 71
-0.35360347514901 -0.3327576307613166 -2.164488721020254 136 110 73
-0.371306096916062 -0.3295285236207757 -2.156327354017918 136 110 72
-0.3735414313124843 -0.32935022009641113 -2.1606744373657145 134 108 72
-0.36742596529390625 -0.33082151580674257 -2.171832687876479 134 109 73
-0.3710748847691072 -0.3303646262855206 -2.1750420563377726 132 108 71
-0.3745034429245455 -0.3299510139930016 -2.1784252406932247 134 110 72
-0.37692933803457485 -0.32973551285269914 -2.182627334802506 134 110 72
-0.3792306416198402 -0.329544618680482 -2.1869309423259664 138 112 76
-0.3826368468394583 -0.3291348831758815 -2.190319730863984 142 116 79
-0.38914704733192873 -0.32810988007225866 -2.1911273281797827 142 117 77
-0.39569395298361876 -0.32707672790124526 -2.1918839307076547 147 123 80
-0.39611868007976714 -0.327256951870919 -2.197728051088294 152 126 83
-0.39764494576467047 -0.3272189341516531 -2.202658579387297 152 124 82
-0.4040735251310177 -0.32620774223901683 -2.2034785589545214 155 127 84
-0.414096922622882 -0.3244816145768268 -2.2012534519757683 159 131 91
-0.4150311369338183 -0.32456028388867636 -2.2066606519120024 150 122 82
-0.4169715847813892 -0.32443911534456227 -2.211222090359542 150 122 82
-0.4146388192468914 -0.325168111601207 -2.2194105367368073 153 125 86
-0.4161397854338178 -0.3251349327234609 -2.224357978886231 157 129 90
-0.4214440062975159 -0.3243444817930552 -2.226063087762891 152 123 86
-0.42390206893019367 -0.32412047731945615 -2.230188576015515 160 131 92
-0.4282493090838002 -0.3235198012734027 -2.23269145361766 153 128 89
-0.42924148775515214 -0.3235878466866853 -2.238070741902858 137 116 80
-0.43343436072133357 -0.32301741538245066 -2.2406936988750776 109 93 60
-0.4356672777490034 -0.3228378806845594 -2.245002705431651 95 84 51
-0.4368014218981856 -0.322877815872252 -2.2502646397573183 81 72 45
-0.43726371437287004 -0.3230522344840945 -2.2561159784173723 87 80 58
-0.43582260888749413 -0.32360761021741574 -2.2636361320063165 104 98 81
-0.4353692366092715 -0.3239661106373417 -2.270309395049965 128 124 112
-0.4411842749765661 -0.32307039288227535 -2.2714956516472786 154 152 145
-0.4462164024809263 -0.32233071255890255 -2.273352886563349 173 172 172
-0.4517907127846047 -0.3214817914077239 -2.2747177620554435 183 184 186
-0.45797506193556226 -0.32050985519716896 -2.2755262584062894 192 193 195
-0.4766792185756239 -0.3170257804541422 -2.265209074731536 197 198 200
-0.460585661134159 -0.320521808016243 -2.2857639387790787 200 201 203
-0.01037131972284211 -0.36055618326792066 -1.6258142897552925 157 150 142
-0.02135775859395861 -0.3587742543259154 -1.6256088575900258 134 126 119
-0.029823926442333448 -0.3574551616348292 -1.6267372397696496 124 117 110
-0.03906283207070993 -0.3559926661830438 -1.6274211304630843 130 123 116
-0.04657024325196524 -0.3548482641327276 -1.629024061855013 134 127 119
-0.05325179763708476 -0.3538553321621623 -1.6310594303947887 134 127 119
-0.06142090573135939 -0.35258719232358204 -1.6322593308728763 133 126 118
-0.07118728708277633 -0.3510232297008255 -1.6325546192954739 139 132 125
-0.07970180005096283 -0.3496892439796786 -1.633514272083978 147 144 136
-0.08696551744295267 -0.34858533712374695 -1.6351448369079293 157 154 148
-0.09368410967944052 -0.3475813707881479 -1.6370598734348063 180 177 172
-0.09784884261812077 -0.3470489409403031 -1.640386757306953 203 201 198
-0.056395801252623334 -0.3667029758993554 -1.9488985013476623 122 111 95
-0.0735563417141476 -0.36371805673193736 -1.9437799429484401 118 106 90
-0.11053376654909153 -0.358262417962246 -1.9559842496395914 116 102 88
-0.12560708064997417 -0.35617365773117626 -1.9641756558877124 106 93 78
-0.1267872530259413 -0.3562065152658613 -1.9694910942116044 102 89 73
-0.12922849987584462 -0.3559999477828357 -1.9739526757441404 101 88 71
-0.13441429999547927 -0.3552716183995761 -1.9765396153971007 105 88 69
-0.13950921068925515 -0.3545600510394638 -1.9791763369783313 106 89 70
-0.14653813694535978 -0.35347998455879215 -1.9804723644433158 110 93 73
-0.1519114038137982 -0.3527142379196822 -1.9828889347394831 114 97 78
-0.16061169912352546 -0.3513142943048213 -1.9829925074227852 114 97 79
-0.15811076314761552 -0.35204748061724395 -1.9908346717754977 113 96 80
-0.17639877194025821 -0.34881851837443123 -1.9842391226613327 112 95 79
-0.18943346224491908 -0.34709951422098684 -1.9933993001626449 107 90 72
-0.1911014617477853 -0.34703700348615557 -1.9983189800414192 107 89 69
-0.19517708461219885 -0.34651454285189376 -2.001540818481008 107 89 67
-0.19719027308842563 -0.34638601998453944 -2.0062154647271124 106 88 66
-0.20416013208081596 -0.34530951819070377 -2.007369430116211 100 82 58
-0.20538195920970226 -0.34533204406476 -2.0125989952845846 98 80 55
-0.2037834790128178 -0.34589467228607057 -2.019848689578391 103 85 60
-0.2071464845278248 -0.3455077060140393 -2.0235577509145033 103 85 60
-0.21715158946498936 -0.34384774663666484 -2.022485428649549 108 91 66
-0.22408869358174321 -0.3427745459784414 -2.02359213488905 109 92 66
-0.22380644354508605 -0.34308519594986125 -2.0299010897866707 110 93 67
-0.2293778393821665 -0.3422729992333922 -2.0319732754288715 109 92 66
-0.22662998138751267 -0.34305739083039033 -2.0400855625169587 108 91 65
-0.22001698409397052 -0.34458510901020584 -2.051040954945828 109 92 66
-0.2246284867871884 -0.3439574035040225 -2.0538165685296303 109 92 66
-0.24902175384241743 -0.3395259177473328 -2.0420545488834616 112 93 67
-0.2523345440977913 -0.3391453185674936 -2.045722246437424 114 94 69
-0.25290911963781604 -0.3392914791742134 -2.051407879497208 108 90 64
-0.2552350915281364 -0.33910072083332776 -2.055802891818172 101 85 59
-0.25795059689229605 -0.3388348992934681 -2.0599078065608003 99 83 57
-0.2475502998243332 -0.34109675195762607 -2.0737865502001194 98 82 58
-0.25176462853435777 -0.34054294960467896 -2.0767953034632285 92 75 51
-0.25885233943679986 -0.33943445841286635 -2.0776406621686387 88 72 48
-0.28182985610086075 -0.3352582207723835 -2.066514909223538 93 76 50
-0.2682805101509126 -0.33813143088047576 -2.082846773589716 95 79 53
-0.2733866477128186 -0.3374034676472429 -2.0851364151830234 101 84 58
-0.27194078934669186 -0.33794137293198956 -2.0923840013164776 102 85 59
-0.2745466556351329 -0.3376964339418336 -2.096564738602033 100 82 58
-0.2768334134495991 -0.33751315586928726 -2.100987139127887 95 74 51
-0.2770979301276859 -0.33772130193795413 -2.1069569220415616 105 83 52
-0.2837039317294938 -0.33670169929245036 -2.1080673286092546 112 89 55
-0.2850003720371297 -0.3367100297582636 -2.1132456720434556 113 90 56
-0.2905649798254081 -0.33589113562949735 -2.115132390272176 114 91 57
-0.2950094683239345 -0.3352888450954826 -2.117871295648002 113 90 56
-0.29966246986860356 -0.33464566549334174 -2.120438052078275 114 91 57
-0.30891961121043265 -0.33310818455731095 -2.119407408588155 116 93 59
-0.31368329688659846 -0.3324421283090738 -2.1218548992856596 119 96 62
-0.32047979605337507 -0.33138054791233473 -2.1226980434325706 121 98 64
-0.3254026162478626 -0.3306823699515321 -2.1249923595966305 123 100 66
-0.33087888230166085 -0.3298760100718193 -2.126838029290158 123 100 66
-0.3366170135597013 -0.32901805363686343 -2.128461666439953 118 95 61
-0.3419868104525464 -0.3282311297831082 -2.130360909536255 118 96 59
-0.3369835204795214 -0.3294643273347942 -2.140490443638372 123 101 64
-0.3437142118563953 -0.3284119258283136 -2.141299245724362 122 99 63
-0.3456483624719303 -0.3282939620902078 -2.145921576914097 128 102 66
-0.3724356817480018 -0.3241003101306771 -2.1490161801113254 141 113 74
-0.36582471128007965 -0.3256511382635643 -2.16052935344727 142 114 75
-0.37540689335293065 -0.3240366135051528 -2.158913735947589 138 110 72
-0.37607178679056197 -0.3241655532359993 -2.1645364713733466 136 109 73
-0.3770918726786431 -0.3242252445170741 -2.1698755787559714 134 108 71
-0.38058135648560065 -0.32380146820556377 -2.1731944436603383 141 115 76
-0.38364931802079016 -0.323460035399033 -2.176853790282786 143 118 78
-0.38604017020717973 -0.32325118222890026 -2.18106739086842 143 118 77
-0.38928284188911433 -0.3228751820739883 -2.1845751906274735 144 119 78
-0.39377571966163416 -0.3222535936605135 -2.1870407049502893 142 118 75
-0.4010899865565317 -0.3210775224484361 -2.187148004491564 151 127 82
-0.4094215711239567 -0.31970056483370063 -2.1863822738732654 158 132 89
-0.4062645627160435 -0.32058060265688865 -2.195199159623773 158 130 87
-0.4121056329593933 -0.31969211770127737 -2.1964916717731024 156 127 85
-0.42146742893267164 -0.31811015916464674 -2.194804518700637 159 131 90
-0.4188026141452522 -0.31889431869059326 -2.203230281073461 154 126 86
-0.40986426359846484 -0.32091506368629863 -2.216986743061195 147 119 80
-0.4152680607425242 -0.3201117687153104 -2.21862697596297 150 122 84
-0.41799227461518884 -0.3198361258826475 -2.222531605636159 155 126 87
-0.4231431877400368 -0.31908167834949835 -2.2243629445836817 155 127 88
-0.4242701914261364 -0.31912078245858033 -2.229622805744133 152 126 86
-0.4267595165486652 -0.31889108623234785 -2.233718630602373 148 124 84
-0.4323684328862891 -0.31804501305119415 -2.2351287177652286 141 118 76
-0.43470527745342646 -0.3178450008470003 -2.239345262641803 118 98 65
-0.4367311228791516 -0.3177064516927097 -2.2438299125105243 98 85 52
-0.4389143968181266 -0.31753677543663983 -2.248178505277826 80 70 41
-0.440294559655361 -0.31752607642557656 -2.253225572931411 78 70 48
-0.43901696719974437 -0.31804193932801617 -2.2605949400238146 95 88 70
-0.43736739145069226 -0.3186322101606005 -2.2683062263685407 117 112 96
-0.4425502730979338 -0.3178685909536242 -2.270042090515146 145 141 131
-0.4471248377387561 -0.31722502418037335 -2.272298328721537 166 165 161
-0.4529427173898559 -0.31633419676176955 -2.273446009179658 179 180 181
-0.4588390467761364 -0.3154270388338272 -2.2745063920766593 188 189 191
-0.45650648212205924 -0.31615400214392386 -2.2828472286787913 194 195 197
-0.4668098872625749 -0.3143701092273473 -2.279971281401957 198 199 201
-0.010916327336301768 -0.35513678068530785 -1.61960247133641 130 116 97
-0.018005979313904574 -0.35408070167664163 -1.6215074949916541 128 113 95
-0.028944844316617813 -0.352321611026354 -1.6213134785918226 128 113 98
-0.04380675960453406 -0.35008036656206326 -1.6246445497093986 130 115 99
-0.05108562860019217 -0.3489862893020932 -1.6263632388368519 127 113 98
-0.05629787101101924 -0.34826909204780615 -1.6291952602315298 128 115 101
-0.06529522957566203 -0.3468593730538574 -1.6299337876392643 129 117 103
-0.08219102419400415 -0.3440038572300048 -1.6262867502537148 128 115 102
