ply
format ascii 1.0
element vertex 684
property float x
property float y
property float z
property uchar diffuse_red
property uchar diffuse_green
property uchar diffuse_blue
end_header
-0.36757140033158436 0.6259742032622982 -2.947155754676655 215 215 215
0.17271046905754084 -0.7679803995209017 -0.0647446516101404 176 176 176
-0.1515816841182361 0.07359592570222079 -0.8993599974203335 177 178 180
-0.14864939387246062 0.06604384277797926 -0.9064312638452462 177 178 180
-0.1474408050447302 0.06294205187055732 -0.9121184968595943 177 178 180
-0.14414031331791027 0.0544395875138049 -0.9195488091706312 177 178 180
-0.1441543959785397 0.054494554595496625 -0.9242635984695774 177 178 182
-0.14446257047957822 0.055308802397432355 -0.9287391081486746 178 177 177
-0.1435012446164151 0.052845615410212876 -0.9342823337006056 147 140 135
-0.14309170283452555 0.0518070079226684 -0.9393750543183229 105 92 84
-0.14127463057208203 0.04713468809687382 -0.9456696323925095 102 86 77
-0.14428555985593738 0.05492658056842664 -0.9478759654149811 105 88 73
-0.1466472898341985 0.06104241147272166 -0.950617829378342 116 98 76
-0.15071357141786296 0.07155865340953263 -0.9518793974316245 133 114 85
-0.1533048632961503 0.07826697459362225 -0.954386668535538 134 115 85
-0.15557521275007158 0.08414669769482727 -0.9571563263332032 74 56 32
-0.1571909397131433 0.08833642842696424 -0.9604838774667246 64 46 27
-0.15790580251187808 0.0902005203221233 -0.9645939504577783 64 47 27
-0.15760877819933045 0.08945241279182439 -0.9695962659820703 62 45 25
-0.157752790461511 0.08984287361019372 -0.9742165072880368 59 41 17
-0.15772622647291668 0.08979301503436293 -0.9789935977497171 71 51 25
-0.15765529675348502 0.08962865343161017 -0.9838168359433044 73 51 27
-0.15762926924425585 0.08958023127646395 -0.9886065313973336 77 56 29
-0.1582035150321964 0.09108139556132597 -0.9928601485041261 80 59 32
-0.158315040357148 0.09138809395474048 -0.997535199523478 74 52 29
-0.15602612369485996 0.08549833356007658 -1.0044062809560526 62 39 21
-0.1564066296588582 0.08649945481730087 -1.0088558203841191 66 43 22
-0.15579777290584607 0.08494668996458804 -1.0142199795449953 66 43 19
-0.15598385515980706 0.08544597804940329 -1.0188597750414794 63 38 17
-0.1565381346086687 0.08689571974507981 -1.023161670511743 54 29 8
-0.15542491218611526 0.08404113809122182 -1.029023788394007 63 38 17
-0.15580051381050786 0.08502970143012673 -1.0335037351724807 63 38 15
-0.15580895233531894 0.08507052999814652 -1.0383331938514595 67 44 20
-0.1550117895389431 0.08303192404089432 -1.0439328161349866 68 46 22
-0.15559810138501812 0.0845644423454277 -1.0482279454597043 67 47 22
-0.15690228209088364 0.08794993965829623 -1.0518371140026224 71 49 25
-0.15719437719467544 0.08872302260077264 -1.056414249394707 70 48 24
-0.15710753677993655 0.0885180194670635 -1.061361269657319 58 36 13
-0.15830775628404087 0.09163515594414912 -1.0650662537407742 58 37 13
-0.1580139280986316 0.09089592129263346 -1.0702237357608368 64 44 20
-0.157910271735197 0.09064758012184565 -1.0752040094096267 63 43 19
-0.15689367237010832 0.08804286207011625 -1.081090128195057 64 44 21
-0.15653429048659057 0.08713454433243023 -1.0863421429418625 66 45 24
-0.15567859658550492 0.08494524687597366 -1.0920968193835423 64 42 23
-0.15539799080003758 0.0842403402867859 -1.0972919828517178 62 40 18
-0.15647024595438658 0.08702725534317729 -1.1011403224245653 77 56 29
-0.15772996086202387 0.09029799523574988 -1.1047967255502944 78 57 28
-0.15760425560889985 0.0899929428006746 -1.1098493258853248 82 61 32
-0.1583983212661495 0.0920618352215472 -1.1139752387227273 82 61 31
-0.15848534816402204 0.09230588148939134 -1.1188219619399724 87 67 34
-0.15918913513169075 0.0941417765826667 -1.1230422748098063 83 63 28
-0.15759015497907466 0.09003438992656326 -1.1296336165638134 82 62 29
-0.15816586946325878 0.09153978378170219 -1.1339972103973288 76 55 25
-0.15779921594088597 0.09061303038223101 -1.1393410165016993 94 73 42
-0.15711008202330462 0.08885403422660804 -1.145031265886776 75 54 23
-0.1570096912288113 0.08861455180791211 -1.150117527200649 70 49 18
-0.1573211781768627 0.089438089915853 -1.154777853550071 78 57 28
-0.1574611966153392 0.08981911324851866 -1.1596232447285906 75 54 23
-0.15726948629906026 0.0893440309017497 -1.1648262397087175 82 62 28
-0.1569380214939153 0.08850830548556216 -1.1701867312197702 90 71 37
-0.1568565357019344 0.08831775629361766 -1.1752892698235389 68 48 23
-0.15686255504639524 0.08835306537157961 -1.180305163446171 82 63 34
-0.15683348014977472 0.08829783196020385 -1.1853656505838828 65 46 18
-0.1562398720777202 0.08678572821586977 -1.1910456351523178 71 54 27
-0.1574706231513846 0.08998178639432858 -1.1947501286043238 72 56 30
-0.1574682229679657 0.08999546213012327 -1.1997992952971166 95 78 55
-0.15772881920134196 0.0906878684237235 -1.2045662660142251 110 91 72
-0.15723934337594833 0.08944462643736589 -1.210165362409062 100 81 56
-0.1543602280896699 0.08203467567235984 -1.2184241669736329 101 84 58
-0.1529127724039839 0.07831940233853968 -1.2251234320789264 99 81 64
-0.14960898092003352 0.06981377896011459 -1.2339178201060426 99 85 72
-0.14771262926381415 0.06494029560051995 -1.2411705296534132 118 106 96
-0.14628490110654757 0.06127621469470457 -1.2479198474695428 104 94 86
-0.14450735544562135 0.05670950005180403 -1.2550854581155917 104 95 90
-0.14062912712925527 0.046722046424439945 -1.2646621151812878 94 85 81
-0.14023950633365045 0.04573708600434445 -1.2703013061442856 73 64 58
-0.13997684171982208 0.045079774752413204 -1.2758057378354337 58 49 40
-0.13712314211154272 0.03773645425664057 -1.2843010324236621 69 60 49
-0.13734343722362535 0.03832551293906328 -1.2892788475703258 67 58 46
-0.13711979749269504 0.03776905445444434 -1.294776688757527 69 60 48
-0.13722787528562835 0.03806859558350906 -1.2998973610282982 75 66 54
-0.13906088186841822 0.042819131192688764 -1.3030065997000657 78 68 57
-0.139396880387526 0.04370680567064156 -1.307863592814369 85 75 64
-0.13873743803409933 0.042025918072317814 -1.3138983216737685 82 74 63
-0.13834383026695665 0.041031022542437345 -1.3196317772511805 73 64 53
-0.1352139852361706 0.032975846084012606 -1.328628851502755 65 53 38
-0.1338791418063301 0.029552432060916234 -1.3355207295396951 74 63 44
-0.1303678560241632 0.020513296190701857 -1.3450407503332662 98 85 67
-0.13186215501810544 0.024389968538659212 -1.348579366534003 99 82 58
-0.1349311965487164 0.032329808358833645 -1.3502086806335425 114 95 68
-0.13714521776422695 0.03806342897723064 -1.3528526535430356 119 99 68
-0.13905022867405362 0.04299968874135407 -1.3558587986277986 120 99 67
-0.1425760306069337 0.05211782334231885 -1.356872524737078 119 98 67
-0.14341969620799982 0.05431553199897082 -1.361151118000336 118 94 63
-0.14468280357482044 0.05759545279698303 -1.3649120214949266 119 95 62
-0.1504156152308956 0.07240770133518698 -1.3631390987474552 116 93 59
-0.15229412980200321 0.07727530656498072 -1.3661041218659438 114 91 59
-0.15693185602994025 0.08926184386976588 -1.3656182660431282 116 93 61
-0.1610658597682191 0.09994859933195294 -1.3657249380317067 119 95 64
-0.16397276134066036 0.10746925500468912 -1.367340315315642 121 98 65
-0.1656933613266523 0.11192914767256729 -1.3704308523465336 123 100 66
-0.16900679686141698 0.12049851666137507 -1.371494924619674 113 91 54
-0.16829621564986344 0.11868590493439168 -1.3776487765582752 128 103 64
-0.16890893980780852 0.12028742457964353 -1.3821282762616498 151 124 80
-0.16988729424877785 0.12283225368403855 -1.3861406701087677 170 139 90
-0.17076964037138595 0.12512937958874293 -1.390274164735372 174 140 90
-0.17201314668812634 0.12835825793758604 -1.393940069764923 172 139 92
-0.17357897034367326 0.13241865765900052 -1.3971833666352678 174 140 92
-0.17218290964744748 0.12883776822295823 -1.40427087784642 155 125 78
-0.17451952334117551 0.13488667919786668 -1.4065061217805375 151 126 81
-0.17288000517622948 0.13067780588296185 -1.4139364798073988 132 109 66
-0.17220936802860237 0.12896854942518077 -1.4201158527507183 164 143 98
-0.17595250541423846 0.13864593886725085 -1.4204809319257443 164 140 92
-0.1784422479239309 0.14508974557494309 -1.422477465540336 138 113 72
-0.18159988208852576 0.15325647451393987 -1.4235679701288948 124 100 64
-0.18440823932184827 0.1605220694573115 -1.4251007675416736 130 105 71
-0.186488701287671 0.1659098265143436 -1.4275885490485931 106 82 53
-0.18792162031468174 0.16962707238801045 -1.4309340863275024 142 121 87
-0.1891107848770174 0.17271548523994612 -1.4346017931622752 134 113 74
-0.19017011218725483 0.175468945723379 -1.4384409140972472 127 104 70
-0.19148148302586365 0.1788725718068866 -1.441933858629706 120 100 63
-0.19240900134424477 0.18128598591513329 -1.4459451327390047 138 114 80
-0.19416707842675285 0.185841891893068 -1.448816128828335 140 114 80
-0.19509740778966175 0.18826252528720094 -1.452815409858342 122 97 61
-0.1948573580518019 0.18766410113897214 -1.4584285451367245 127 103 65
-0.1945834384766474 0.1869783474692271 -1.4640984403473838 119 95 56
-0.19481203900197366 0.18758888885542196 -1.4690796434666242 118 94 60
-0.19448377454423896 0.18676302347342927 -1.4748432484731182 85 62 25
-0.19453255531116134 0.186909776881096 -1.4800894300344993 83 61 32
-0.19382133407149207 0.18509617159775993 -1.4864111389918093 78 55 23
-0.19548269415682565 0.18940252834659305 -1.4893996532985574 116 91 54
-0.19722450701527172 0.19391636846337496 -1.4922647838355005 198 170 123
-0.19991228152604812 0.20087017055420536 -1.4937751325997102 187 155 102
-0.2016942885105022 0.2054875859602202 -1.4965574904716863 172 139 92
-0.20492529156715691 0.21384242424549826 -1.4972548085257051 111 84 43
-0.2040123222190945 0.21150849808217165 -1.5038799847445097 91 66 26
-0.20415454552002632 0.21189630484327232 -1.5090006631496635 98 75 33
-0.20387778717226976 0.21120346138384893 -1.5147336453243418 102 79 37
-0.20315123619244757 0.20935052349353334 -1.5211301598402072 99 76 35
-0.19825851534813357 0.1967520646224729 -1.5336129034505286 92 69 31
-0.19767420349252446 0.19526619704456072 -1.5398530641423993 75 52 20
-0.19680485220747876 0.19304520788126917 -1.5465252227394766 77 53 20
-0.2018203036773831 0.20600228330658088 -1.5445470403134582 151 125 80
-0.20382094465877654 0.21118348957902994 -1.5469802721218198 183 155 101
-0.20552847123200058 0.21560865962794457 -1.549835102994628 171 143 95
-0.20496210339800225 0.21416913350383288 -1.5560641994569255 129 105 61
-0.2065166504944574 0.2181997205184309 -1.5591391134918346 83 62 34
-0.2070384639855992 0.2195667679434728 -1.563753334763702 79 58 31
-0.20765766509858372 0.221184992928388 -1.5682233131309598 101 79 42
-0.20814113477636753 0.2224531656151607 -1.5728993591764064 107 87 46
-0.20932744221565766 0.22553398235875932 -1.5765136058486473 151 127 89
-0.20949075453196922 0.22597647525064374 -1.5816778046318314 128 104 68
-0.2110434675655425 0.230002228605951 -1.5847291911702306 96 75 34
-0.21312548890897667 0.23539301273162377 -1.586962002572949 126 103 58
-0.2170414741992136 0.24551342142259552 -1.586364522838102 160 136 93
-0.21882234471684564 0.25012741228673613 -1.5890232450667359 165 141 102
-0.22059945182641977 0.25473165405068576 -1.5916766975125494 156 131 89
-0.22256821150715533 0.25983010047363253 -1.594021751919278 146 121 77
-0.2244779633698574 0.26477632258234246 -1.596445534790303 153 127 88
-0.2267491187182257 0.2706544951105552 -1.5982922805872337 138 114 79
-0.22944406322556643 0.27762547627754 -1.5994584220091383 148 124 88
-0.2321395641122133 0.28459780976115395 -1.6006027426773566 160 136 90
-0.23449387466757907 0.2906902086521742 -1.602264449844168 154 129 84
-0.23617591082054537 0.29504891106094566 -1.604973166098218 157 132 89
-0.23777933503262164 0.29920485418698084 -1.6077965196866697 171 147 101
-0.24160995709856442 0.30910405401631913 -1.6070603027148365 151 130 83
-0.2429909034795586 0.31268617503720875 -1.6102086575287833 184 164 121
-0.24364131599301808 0.3143844651503722 -1.6145222204570464 152 132 93
-0.24361496149161022 0.3143376163190261 -1.6199261903428284 97 78 40
-0.2440109915231763 0.3153799699177516 -1.6246558361931291 117 99 57
-0.24554768412986888 0.3193636527018153 -1.6275400996708604 97 79 37
-0.24556430989960332 0.3194276848663047 -1.6328876002566077 82 64 26
-0.2439717975848164 0.31534248788505564 -1.6408683180103902 72 55 21
-0.24327511105272578 0.3135673109616868 -1.6474075269774524 70 53 21
-0.2406849343825805 0.30690979752547715 -1.6570722362853418 87 68 34
-0.23607469013438476 0.2950436897819293 -1.670101929308042 114 90 55
-0.23227441623852774 0.2852662984966496 -1.681850464972161 126 99 61
-0.23086537116411437 0.2816547727857999 -1.6896816655387885 128 103 63
-0.22526122296014886 0.2672265526896246 -1.704518156516317 120 95 55
-0.22341805040585774 0.2624959427592222 -1.7131439523148413 121 96 56
-0.2226290540739832 0.2604835199429392 -1.7200320043455937 121 96 56
-0.2230794716263481 0.26166682692026694 -1.724853713381637 119 94 54
-0.22318860388978945 0.26197019514584313 -1.7302540955333596 116 91 51
-0.22347164529153243 0.2627219848063607 -1.7353672296607343 114 89 49
-0.22082745817260546 0.25592651510796793 -1.745453522722033 113 89 51
-0.2212710571251933 0.25709237051878026 -1.7503195279090644 112 88 50
-0.218624846210302 0.250291910153619 -1.7604669830091666 114 90 52
-0.22202404123715677 0.2590780857399793 -1.7602915419454839 116 92 54
-0.22157759329122664 0.2579492511743765 -1.7666985540183617 103 79 41
-0.21898493570609187 0.2512871255250856 -1.776820659411759 99 75 37
-0.21690126716971833 0.2459374068620525 -1.786099093971624 100 76 38
-0.22130257138050105 0.2573070412585299 -1.7841514140480872 111 87 49
-0.21355289712170583 0.23734974335713277 -1.8033242902382114 112 88 50
-0.21345405219163283 0.2371174644639914 -1.8092251899426488 109 85 47
-0.21537681591729335 0.24209709922786754 -1.8115923839053965 125 102 64
-0.21659005976545206 0.24524749664878198 -1.8151940531627972 109 86 50
-0.2185913685135522 0.25042953629849735 -1.8174005343249706 87 65 29
-0.22069193016164454 0.25586739657072893 -1.8194173984406286 101 79 38
-0.22458181057375373 0.26591805263921897 -1.8182428969367048 114 91 47
-0.22778539038941661 0.2741993051859728 -1.8182552089131474 110 86 47
-0.22974842343711205 0.279282380116531 -1.8204559430031235 107 83 47
-0.23347656410365 0.2889157227703022 -1.819479880077775 102 80 43
-0.22638179512511147 0.2706484835086775 -1.8379260333895646 102 80 43
-0.2336750895042454 0.2894723552789697 -1.8305146596462203 96 74 37
-0.22827277615287633 0.275568411398857 -1.8459953091511485 94 72 35
-0.23501082685833236 0.29296065314820735 -1.8395150902624806 94 72 35
-0.23250076841506798 0.28651269219731845 -1.8498015713904408 92 70 33
-0.22887350737012888 0.2771849582072823 -1.8621651863684638 95 73 36
-0.22885937984428104 0.2771712562550722 -1.867960371131332 102 80 43
-0.22631333219427258 0.27063093205954714 -1.8784165860592668 101 79 42
-0.22922611213210412 0.27816212541383023 -1.8788489747655925 103 81 44
-0.2300850360753058 0.2803989870533545 -1.8830540167910637 103 81 44
-0.23372182629065066 0.2897963003343213 -1.8821059233699158 103 81 43
-0.23593454700466943 0.2955227168005166 -1.883774009526751 103 81 42
-0.23413595295935613 0.2909093540251161 -1.892910915132528 105 83 47
-0.2364289238158802 0.2968425828183162 -1.8944182204924078 96 73 39
-0.23323937477175077 0.2886440447915218 -1.9062020597794085 93 70 36
-0.23204014501851258 0.28557587090519754 -1.9142827900807988 89 66 32
-0.2315039779719888 0.2842168606325491 -1.9211334480091458 93 70 38
-0.23098573276717366 0.2829041032585652 -1.9279651123416008 95 73 40
-0.22913807447193585 0.2781648414886271 -1.9373385570419237 93 73 39
-0.23014401469510926 0.28078078469329537 -1.9413014963293747 87 67 34
-0.23261830234446484 0.2871813152472496 -1.942453399115773 83 62 30
-0.23428322235516863 0.2914956773595961 -1.9451379023121194 81 60 29
-0.23568441132993673 0.2951302551213343 -1.9483192619108847 82 61 30
-0.23799566208495068 0.30111038325883455 -1.9497366813530785 77 56 25
-0.23935661665530558 0.304641181974206 -1.9529755075345454 81 60 29
-0.24102918351306013 0.3089750833201246 -1.9556021674677755 89 68 37
-0.2420011831689451 0.31150335898905473 -1.9595824545029459 92 71 40
-0.24140457907300283 0.3099888729993314 -1.9666243891189543 90 69 38
-0.24239881693477208 0.3125744787009726 -1.9705652116889911 88 67 36
-0.23895396281171755 0.3037194384662088 -1.9832271757430184 87 66 35
-0.24277349365602863 0.31358653624395266 -1.981619447677712 83 62 31
-0.24084815478836383 0.30864781284826465 -1.9913335932599001 80 59 28
-0.23989838168228705 0.3062234199601094 -1.9991449623614832 77 56 25
-0.2461986484025237 0.32248357111792003 -1.9925566016466683 76 55 26
-0.24686377761938297 0.3242209813989749 -1.9971438834569633 74 53 25
-0.24603681166701571 0.3221131077835294 -2.004717701898432 77 56 29
-0.24697203562186193 0.32454661806836405 -2.008773987870442 78 57 30
-0.2455627689256751 0.32093822812490086 -2.017547113028538 75 54 27
-0.24722376458829698 0.32524211649858303 -2.0201479654107373 77 56 28
-0.24658112196663023 0.32360945803511904 -2.0274023289833476 82 62 29
-0.24364746644589916 0.3160729514034287 -2.0393260125277592 103 83 48
-0.24546814148877127 0.320788363009321 -2.0416105363858272 92 70 26
-0.2480461269368855 0.32745526884102055 -2.0423352646927695 124 101 45
-0.2505793918891397 0.3340068473295876 -2.0431296963279824 178 152 99
-0.25388422197830096 0.34254658285519796 -2.042317232137997 121 97 53
-0.2557811800335643 0.347458293863154 -2.044375459729844 85 66 31
-0.2579764265381801 0.3531385938597317 -2.045803303722045 79 58 28
-0.25887027603023577 0.35546535623138265 -2.049911510974136 79 58 28
-0.2559249026161669 0.3478992086369735 -2.062000182373003 85 64 35
-0.25207458361959034 0.33800139763976245 -2.07602084775056 83 63 33
-0.25359691392993766 0.3419477839171065 -2.0788618854237155 69 50 19
-0.2546788983195717 0.34475948258683176 -2.0826171898847634 80 61 29
-0.2552453959053701 0.3462429096705363 -2.087452873592798 83 67 34
-0.25585037744366723 0.34782550677816115 -2.09220972301505 78 62 32
-0.2561345731905898 0.3485815573006045 -2.0976471636140825 62 45 21
-0.2571342317218619 0.35118111356613346 -2.101572294640029 65 50 21
-0.2581967159649391 0.3539425352743252 -2.1053607725672476 103 85 44
-0.2612888956588426 0.3619336178355624 -2.104813718724948 121 100 58
-0.2642250951951286 0.3695226952560137 -2.104571731518304 91 72 35
-0.2670669748301864 0.37686864832909994 -2.104505278155202 90 69 33
-0.26037727328638105 0.35965630048842306 -2.124932067500505 91 69 32
-0.2647575403280409 0.37096591314668065 -2.1215516906521685 92 70 33
-0.26330077954193865 0.36723648253131835 -2.130764407716524 89 67 30
-0.26387863237795095 0.36874921024202356 -2.135586752787335 88 66 29
-0.26523086687855923 0.37225707192524093 -2.1387250569052805 88 66 29
-0.26543359206573813 0.37280332471544764 -2.144366290929338 88 66 29
-0.2656026358568365 0.3732628293731334 -2.1500882279337246 88 66 29
-0.265610541165886 0.3733072160694228 -2.1561714546066515 90 67 32
-0.26685999396261084 0.37655025368303585 -2.1595294612709663 91 68 34
-0.2672544731996148 0.3775906094568925 -2.1647698495141423 92 69 35
-0.2707579739618572 0.38664063940337484 -2.1631278399392593 90 67 33
-0.27096701812597235 0.38720322940074553 -2.1687697723880777 89 67 30
-0.2714731870969844 0.3885313034308513 -2.1737566957885233 91 69 32
-0.27180886121187453 0.3894201631351743 -2.179127695255291 94 72 35
-0.27215760477799644 0.3903427129123693 -2.1844747556855797 94 72 34
-0.27158445238945195 0.38889035158769264 -2.1918982611596975 93 71 32
-0.27231375650809436 0.39079333243271097 -2.196404127011219 94 72 33
-0.2755889871821908 0.3992548465558554 -2.1951580238803725 92 70 29
-0.2775014658412883 0.40420569915192656 -2.1969676223634034 90 67 26
-0.27896573165452515 0.4080018803686559 -2.1997809159320885 95 72 31
-0.2797783049222101 0.4101192575071018 -2.20407009526241 100 77 34
-0.28079564118674694 0.4127640988077947 -2.2078906802929823 101 76 36
-0.2822997674804698 0.41666287987909706 -2.2105925100471375 106 80 43
-0.28375082929538314 0.4204249323825616 -2.2134066715513527 106 81 42
-0.283059310473678 0.4186678502790366 -2.221148823559735 105 80 40
-0.2834901346694352 0.41980187000393365 -2.2263162680079627 109 84 44
-0.2844396432009014 0.4222719651900468 -2.2302860718930404 103 78 38
-0.2855152840554652 0.42506694672795486 -2.233960307917616 111 86 45
-0.286706189168132 0.4281588108850326 -2.2373618461190774 104 81 39
-0.28704721233944747 0.429061539679961 -2.242743477905432 101 78 37
-0.2891425002765996 0.43448285375420825 -2.244020311006057 99 76 33
-0.2907910284469175 0.4387533650253189 -2.24632938387726 104 81 37
-0.2914131014835001 0.4403799815078575 -2.251045118323558 106 83 37
-0.2936999995480242 0.44629466566259524 -2.2518294529258736 105 85 42
-0.2947589090893864 0.44904639388865525 -2.2555028947381768 104 85 44
-0.29646199541587004 0.4534572681766456 -2.2576420627212643 101 85 51
-0.29839499616126053 0.4584602622751804 -2.259221105280172 131 121 103
-0.30316223297020417 0.47076299588712645 -2.254014641294471 170 168 165
-0.26561637785437026 0.3740858809100831 -2.3501047812793447 190 189 190
-0.3083888677385386 0.48427288059771373 -2.2537898705503636 198 198 198
-0.3110567375342589 0.49116817756880843 -2.253509218120106 203 203 203
-0.3349522943550445 0.5527347701473417 -2.2019383979696787 205 205 205
-0.33536245087869776 0.5538146871035543 -2.2069338579985964 207 207 207
-0.34695988346688467 0.5837065970355528 -2.184768209835599 208 208 208
-0.17972688513897045 0.15303846872715754 -2.597885808359786 210 210 210
-0.21317354546040124 0.23920379732714092 -2.523274378977884 210 210 210
-0.21406102044942027 0.24151627346732107 -2.5279392494530954 211 211 211
-0.18411904492604358 0.16443307522500872 -2.6082841721498977 211 211 211
-0.3606388484516151 0.6220977173774448 -2.954634560221286 215 215 215
0.1727836970393238 -0.7537760031637125 -0.06451471413652857 176 176 176
-0.13033599935901286 0.03150021470646175 -0.9083572079162052 177 178 180
-0.14756520418582791 0.07581086626358607 -0.8991542624523035 177 178 180
-0.14415541742441362 0.06707336150256307 -0.9066016079192956 178 177 182
-0.14192916695859084 0.06137801106096036 -0.9131161857244489 178 178 181
-0.13879814868119764 0.053357368103388425 -0.9203997407358304 177 178 180
-0.13893860700883293 0.05374518417249735 -0.925012558353344 172 172 175
-0.13809543261895083 0.05160494223392015 -0.9304474026773757 149 143 137
-0.1385107791765957 0.052699335643602796 -0.9348446949889058 115 101 87
-0.14174099594379025 0.061028250706029186 -0.9368818800632545 116 95 82
-0.14513996959711478 0.06979076102868534 -0.9387549561554092 114 95 77
-0.14345042189695503 0.065475363127724 -0.9449197559551852 118 98 73
-0.14657206205892293 0.07352497913095485 -0.9470046947929578 141 121 93
-0.1492283869364203 0.08037861391616283 -0.9494673431630263 134 115 87
-0.1510679909929372 0.08513319612703835 -0.9526162627792727 83 65 41
-0.15233792401786797 0.08842369300125971 -0.9562482832415631 62 44 24
-0.15349650729183872 0.0914280008202687 -0.9599722317175634 64 46 26
-0.1546540863857685 0.09442970560211877 -0.9636931094186894 66 48 26
-0.15331366126341153 0.09101181183666132 -0.9696042113197779 64 46 23
-0.1541733979893634 0.09324812124246468 -0.9735910037124487 64 46 21
-0.15481750566876937 0.09493029248349913 -0.9777677358417376 67 49 23
-0.15411632352773127 0.09315533063168868 -0.9831443045914813 77 55 31
-0.15463584494633031 0.09451738176909752 -0.9874396210579175 77 55 31
-0.1541549429194033 0.09330859607158845 -0.9926372075470613 76 54 30
-0.15236723131002394 0.08874171771569239 -0.9990274196790243 73 51 28
-0.15115822529355594 0.08566206829220141 -1.0049135159736193 56 34 14
-0.15269991705140185 0.0896509364533637 -1.0083039042451127 69 47 26
-0.1503559608093619 0.08365497591569393 -1.0152534104144741 67 45 20
-0.15147303759249098 0.0865527534285283 -1.019037886852662 53 31 8
-0.15153748868168718 0.0867456751526553 -1.0237942364709285 56 31 11
-0.1515961825264584 0.08692383564854927 -1.0285616766115049 61 36 13
-0.15098502838348657 0.08538081584733331 -1.0339615844279195 69 48 21
-0.15127519952442559 0.08615384742295612 -1.0385260077408742 73 52 25
-0.15021400112331068 0.08345454620945003 -1.0443704690717066 73 52 25
-0.15043915420570586 0.0840605918351065 -1.0490101308202575 71 50 24
-0.15123640481416428 0.08613664216956785 -1.0531087532721704 68 46 23
-0.1519555234718183 0.0880119336375052 -1.0572814771014998 72 51 26
-0.15279262302756183 0.09019036576257355 -1.0613406348752268 58 38 16
-0.15324767237927073 0.09138715917522444 -1.0657680443535005 53 32 11
-0.15361001292505216 0.09234576390424382 -1.0702878229996746 63 42 19
-0.15367244734447194 0.09253382873315358 -1.075103387001742 69 49 25
-0.15222832287877355 0.08885111806245094 -1.0814015438082456 69 49 24
-0.1514426814944976 0.0868603444030061 -1.087070722317052 70 48 26
-0.15189356620996544 0.08804659664701825 -1.0915302646762663 73 51 30
-0.14991332898765058 0.08298675588361526 -1.0984080460812753 63 41 20
-0.15132694788207826 0.08664655674186689 -1.101922366557502 69 48 24
-0.1526010442714123 0.0899478640588704 -1.105570321792941 71 51 22
-0.15307409174061434 0.0911911271636957 -1.110020131978956 90 68 37
-0.15353890022141745 0.09241323593331108 -1.1144805110921387 82 58 31
-0.1535173996966612 0.09238598149097427 -1.1194374600274974 64 42 16
-0.15362901113409833 0.09270073972136555 -1.1242652534718665 73 52 22
-0.15308243725675913 0.09132461961121402 -1.1297735167153427 75 54 24
-0.15321603056944427 0.09169592965287537 -1.1345927574496089 75 54 25
-0.152456436964064 0.08977267612767015 -1.1403414203499485 92 71 40
-0.15308786193568671 0.09142298505095536 -1.1446581692752038 71 50 19
-0.15258005053585763 0.09014666363905494 -1.1501647833089361 75 54 23
-0.1528044363037462 0.09075136107147491 -1.154915119445999 69 48 18
-0.15278745273676483 0.09073603258725937 -1.1599241684105503 65 44 15
-0.15281415837809176 0.09083297444639671 -1.1648938247724108 69 48 19
-0.1524167542383296 0.08984048234811592 -1.1703203346973594 78 57 28
-0.15209699373682278 0.08904750096235542 -1.1756743629067485 101 80 50
-0.15269259126365603 0.09060593512716841 -1.1800574218728435 89 69 37
-0.1526606858956535 0.09055247056194782 -1.1851168234223222 71 50 20
-0.15262866320471702 0.09049874439568445 -1.1901833658155831 65 44 20
-0.1533721043032454 0.09243699928996646 -1.194415433384818 65 49 22
-0.15365613362637692 0.09319517003027666 -1.1991480193556807 92 76 51
-0.15355058456474074 0.09295267091938997 -1.204311094155551 109 92 70
-0.1525070156458885 0.09030078931047408 -1.2105128874373403 103 86 60
-0.15288927780043604 0.09131139682130551 -1.2151574217660603 100 81 52
-0.15016156738724667 0.08433381653870942 -1.2232523157895594 98 80 56
-0.14797890296623403 0.07875639783244737 -1.2307728109415343 89 73 55
-0.146037200423597 0.07379805017136926 -1.2380512195696405 93 79 64
-0.1460751866580963 0.0739246715493983 -1.2431326096525974 104 92 81
-0.1444864584719611 0.06987316022670387 -1.2500540424064661 102 93 85
-0.1436145732310769 0.06766294431788145 -1.2561859670663904 91 85 77
-0.1420310628979514 0.06362506325998063 -1.2631417925819124 92 85 76
-0.1379596138272525 0.05319730504390541 -1.2729587577857875 78 69 59
-0.13788355006983852 0.05303141152551899 -1.2782426394867819 65 56 43
-0.13556592891241295 0.04710848441531296 -1.286113504256004 67 57 42
-0.13543175352266082 0.046793490009434335 -1.2914906072282026 66 54 37
-0.13547849150253313 0.04694317986344543 -1.2966661639059238 72 59 42
-0.13946089917259843 0.05720072132279008 -1.297263915869976 78 66 49
-0.13874605103605997 0.05539445170365814 -1.303324826015117 76 64 49
-0.1374170979152009 0.052011113952480925 -1.3101207761316742 81 69 54
-0.14137992627140247 0.06221811903876662 -1.3106969531818762 90 80 66
-0.13562270474353452 0.04746240551216263 -1.3227496699245107 92 84 68
-0.13472265394762323 0.04518085479156253 -1.32909104716235 72 62 44
-0.13189348099889955 0.037945223043807874 -1.33775041193003 73 60 40
-0.13273289399640045 0.04013096596241961 -1.3420483655668334 103 84 60
-0.13311811723287947 0.04115032606823732 -1.3468918759145654 111 90 61
-0.1327979776682812 0.04035832445314391 -1.352590836680413 125 102 68
-0.14037577179683539 0.05984817272151899 -1.348723256820559 129 104 69
-0.14227186553238078 0.06474727078927955 -1.3517068712433322 123 97 65
-0.14374750995766986 0.06856662081417775 -1.3551933181328208 119 93 61
-0.14151296641426808 0.06285852038692341 -1.363225246871744 121 94 62
-0.14614687005135077 0.07478791598239326 -1.3628250654698348 119 95 64
-0.14862458967528216 0.0811803407975219 -1.3650538556946046 116 95 63
-0.15465442993358286 0.09669388723953537 -1.3628558257876455 114 94 61
-0.15586756796577042 0.09983883744847755 -1.3666100010453681 115 94 62
-0.15831415854185948 0.10615098155913899 -1.3688162720027726 105 83 52
-0.1605119692566374 0.11182422965036654 -1.3713184656008084 130 104 72
-0.1651019147172922 0.12363971204781993 -1.3707900789040957 124 99 62
-0.16409949019533462 0.12109553691485947 -1.3773032085087686 157 130 87
-0.16464071709329972 0.12251502604698622 -1.3818717771077285 171 138 90
-0.16588567146130254 0.1257414376513406 -1.385544596939445 176 140 90
-0.16666204119516045 0.12776468239377609 -1.3898124909862504 182 149 100
-0.16835859112337326 0.1321505558632015 -1.392897208671966 166 134 83
-0.17031037266206564 0.13719169497907552 -1.3956431932827043 180 144 96
-0.16801829817591782 0.13133658814194543 -1.403874034650348 172 139 92
-0.17015047705423866 0.13684087870958106 -1.4063824768751358 159 131 87
-0.1698886338649443 0.1361985295212792 -1.4120015938082806 140 111 75
-0.17022451373651598 0.13709085114617164 -1.416847555364325 105 76 42
-0.17179733612402576 0.1411589296211797 -1.420070966872541 136 113 67
-0.17477985966501228 0.1488461976437322 -1.4214254418823733 143 116 75
-0.1780281655607248 0.1572156959634044 -1.4224055469587649 142 117 77
-0.18018876336532558 0.16279255584011593 -1.4248071979339048 147 119 80
-0.18204241706573818 0.16758131963842193 -1.4276043936517768 167 138 101
-0.18416424845186247 0.17305850366477965 -1.4300311493449356 128 104 66
-0.1859109964164639 0.17757268100691848 -1.4329484684880431 133 110 70
-0.18710899864667718 0.1806780558572918 -1.4365963407588929 135 110 70
-0.18871550421408995 0.1848321062552225 -1.4396861334388282 141 120 77
-0.18948885578426078 0.18684727364692255 -1.4439000613035684 106 83 43
-0.19069927764772926 0.18998445231429417 -1.4475170645439208 113 90 56
-0.1918226752162866 0.1928982040185221 -1.4512484623193211 119 99 65
-0.1912994526766652 0.19158494901492784 -1.4572397183561048 128 105 66
-0.19178278463936477 0.1928556298109833 -1.4618546989615586 113 86 47
-0.1916144900092798 0.19245359280649665 -1.4673746128142693 137 111 74
-0.19057863251607918 0.18982458958866483 -1.4741094697739086 85 62 25
-0.1906207958891811 0.18996291631122447 -1.4793583675049669 86 64 27
-0.1900142443886348 0.188436080914189 -1.4855224989079203 86 62 27
-0.19167052200250775 0.1927177679628313 -1.4885206664226736 134 111 66
-0.19233778160201356 0.19446072475793696 -1.492904192264887 203 178 123
-0.19437603187757796 0.1997227959614658 -1.495348062935121 200 170 112
-0.19617450916422904 0.20436934047741745 -1.4981192266962078 174 141 94
-0.19861074750382976 0.21065281570822614 -1.4999704262481521 119 90 53
-0.2003431373380965 0.21512958848185287 -1.502811140678345 104 76 35
-0.199644059816347 0.21336540244248053 -1.5091324364078056 94 68 28
-0.19699181230636428 0.20658811166419766 -1.5182824958253036 100 75 34
-0.20004549184876502 0.21445621475253251 -1.5192168991255208 98 73 32
-0.19370875984405256 0.19822242547516117 -1.533753524762977 92 66 29
-0.19459575491096648 0.20052950723161134 -1.5378436433271774 81 55 22
-0.19239045662653503 0.19489997280824295 -1.5464511310419526 73 48 17
-0.19899959093271893 0.21189326834031236 -1.542162590881801 125 99 58
-0.20056571322331088 0.21594323913704466 -1.5452350617870159 178 149 97
-0.20231116218652795 0.2204534011109529 -1.5480341084224176 188 164 110
-0.20252815865105606 0.2210407925499397 -1.553087868342217 152 128 82
-0.2044871631618344 0.22609895601380142 -1.5555562901640092 76 55 26
-0.20444141663788654 0.22601205328320062 -1.561003851271323 74 54 28
-0.20588209149195769 0.22973990527759375 -1.5642334790068722 91 70 35
-0.2033904423097218 0.22337602907347098 -1.5733651902310077 103 80 40
-0.20430730164252053 0.22575963974137753 -1.577390501137819 137 115 76
-0.20445052102086178 0.2261578611165206 -1.5825846089500843 139 117 83
-0.21021131642176016 0.2409722374012619 -1.5792549178158752 91 72 35
-0.20810580930510053 0.2355996285996249 -1.5878583644745552 102 81 45
-0.2125207401926539 0.24695989294203669 -1.5865223049026849 123 101 62
-0.21453380656433585 0.2521563609991857 -1.5888324821031954 144 123 80
-0.21647120296500258 0.25715857340495724 -1.5912456764678495 178 154 105
-0.2183667667904802 0.2620533670458309 -1.593710785847728 154 127 80
-0.22062928956287872 0.267889734807074 -1.5955948293352273 139 114 76
-0.2227750497590466 0.27342639284819165 -1.5976442766164363 147 123 90
-0.22541103853790284 0.2802208993199936 -1.5989137110698977 143 117 82
-0.22770589857681303 0.28613996026902183 -1.600697081602713 157 130 86
-0.2299983628295168 0.2920527793852907 -1.6024675753660957 166 141 90
-0.23195805225119398 0.2971116292125198 -1.604746020668933 155 131 86
-0.23374464878711926 0.3017262665485759 -1.6072851113033098 184 160 117
-0.2362021741817369 0.3080623514966201 -1.608748042942154 189 167 120
-0.2382432426229617 0.3133297723733118 -1.6108556387536648 192 170 120
-0.2390789792645412 0.3155044693692214 -1.6148749714545856 181 159 115
-0.24016865486772865 0.3183307089713403 -1.6184859697765486 107 85 46
-0.24053820023024297 0.31930925750467903 -1.6232513153724668 121 101 58
-0.24164704989934632 0.3221846691423171 -1.6268272971626074 120 96 53
-0.2424099944789222 0.3241725748218689 -1.630959190940557 115 94 53
-0.24060416247916178 0.3195698939423693 -1.6392638257821432 101 80 43
-0.23992719546220723 0.3178636063007806 -1.6457556451995385 104 82 46
-0.23631303143394689 0.308621761676094 -1.657065965074586 102 80 42
-0.23273464166998584 0.29947196374305296 -1.6683644474937944 113 88 50
-0.22540454304276314 0.2806973141543449 -1.6858855200198442 122 96 57
-0.2261399411265762 0.28261517304341444 -1.6901729042635818 130 102 63
-0.22380803641974026 0.2766639679827962 -1.699542897479633 122 96 56
-0.21953316261723224 0.26572838879214966 -1.7121763395397793 121 96 56
-0.21901402569390818 0.2644281060346249 -1.7186000995884514 119 93 55
-0.2171716345796911 0.25973325874234576 -1.7272518669056818 115 89 52
-0.21806247927127903 0.2620502598111204 -1.7313432302675942 112 86 49
-0.2176514187917926 0.2610274582143772 -1.7376257548589802 113 87 50
-0.21641715728088967 0.25789298597381516 -1.7453119230824616 114 89 49
-0.22249650646091523 0.27351987864493793 -1.7406214489174243 112 86 48
-0.22045389756375622 0.2683118367270339 -1.749685665627944 111 87 50
-0.2197596144526769 0.266562677486252 -1.7564799415541346 114 90 54
-0.2190768265057355 0.264843094902298 -1.7632703709676716 106 82 46
-0.21681167696523893 0.2590646454794756 -1.772793846851014 96 72 36
-0.2137616443410516 0.25127308554293015 -1.7837027451563687 95 71 35
-0.21062706533764208 0.2432648969920534 -1.7947997678796308 109 85 48
-0.21085515292695137 0.24388229793195626 -1.8001094980314694 112 88 50
-0.20863840450402596 0.23822872757247088 -1.8096775658278201 113 89 51
-0.21187446115502484 0.24656161748268507 -1.8097638103835152 124 100 62
-0.21233815237488382 0.24778340840818952 -1.8146754944235037 114 90 56
-0.21422182002288673 0.25264732281311214 -1.8170968278080752 90 66 35
-0.2162738922151715 0.25794310214246186 -1.8192088868084715 88 65 29
-0.21970045441191474 0.2667641489281724 -1.8188773778685559 106 84 43
-0.22407405099701366 0.27801398958972956 -1.8168370048243658 110 87 46
-0.22622918947951082 0.28357374626579607 -1.8187014182149213 103 81 42
-0.2303505186109149 0.2941761943892296 -1.8170422486987874 99 77 40
-0.2268844400166717 0.28531889013322104 -1.8289241162479355 101 78 44
-0.22852115980553944 0.28954891456685217 -1.831692322675238 96 73 39
-0.22355910858421388 0.27685533762127534 -1.8463344742140717 95 72 38
-0.22856618201211892 0.28972913230756286 -1.8430310329195674 94 71 37
-0.2275583713952961 0.28717696121334757 -1.8505798551289598 91 68 34
-0.22473744424453743 0.2799750661068597 -1.8614446166855396 95 72 38
-0.2177096162491728 0.2619847080159367 -1.880021433073592 99 76 42
-0.22176910117197604 0.2724281590998696 -1.8784051716387147 100 78 41
-0.224318594415018 0.2789990866562347 -1.8795220862466044 101 79 42
-0.22560558256103685 0.28233229751065264 -1.8829423628255286 104 82 45
-0.22799420652523247 0.2884905016784077 -1.8843225674432025 104 82 45
-0.23082246951036317 0.2957759931434144 -1.8848698557982264 97 75 38
-0.2308110482658465 0.2957794660014562 -1.8906688586974862 100 77 43
-0.23203626019053622 0.2989540821722112 -1.8941721303943677 96 73 39
-0.2304528184451083 0.29492653876201413 -1.902919991936107 91 71 36
-0.22973921970058372 0.2931296259701759 -1.9100637405439338 88 68 33
-0.2278479094740236 0.28831292282835885 -1.9194393275081427 89 69 34
-0.22715200292442048 0.28656160581559553 -1.926590273498981 90 70 36
-0.22723833841965838 0.2868161565271681 -1.9322777602383865 90 70 37
-0.2273558667521853 0.2871507327397949 -1.9379137901906025 83 63 31
-0.22864531465601293 0.29049023181666755 -1.941326074745263 79 58 27
-0.23137789686987645 0.2975299422431806 -1.941976322398866 78 57 26
-0.2323622078376874 0.3000869521524758 -1.9459523496780784 79 58 27
-0.2345889010264795 0.3058293761261925 -1.947538773511381 77 56 26
-0.2358526661070389 0.30910281718311355 -1.9509637065620669 77 56 27
-0.23817532803928465 0.31509113295011476 -1.95233593271862 88 67 36
-0.23838659699192138 0.3156660087527955 -1.9577833214580018 91 70 39
-0.23863091658702695 0.3163256569231352 -1.9631727762408933 88 67 36
-0.23928242475831218 0.31802929023918886 -1.9677739843469035 86 65 34
-0.2356979924443188 0.30887295398399983 -1.9806633373381843 84 63 32
-0.24007858400932588 0.3201371292459026 -1.9779745623795824 84 63 32
-0.24174151421035323 0.32443378571796094 -1.9805917719921209 80 59 29
-0.24048928322071067 0.3212568710452411 -1.9889527955085864 77 56 27
-0.24398459331840835 0.33025105893927165 -1.9879378285129818 76 55 26
-0.24376105245497967 0.32971140675623084 -1.9942754115863712 73 52 25
-0.24192057478418189 0.3250266908882531 -2.00384507456517 73 52 25
-0.23872369545049676 0.31686496569424233 -2.016155149401827 73 52 25
-0.24301762810913904 0.3279062168282412 -2.013503523577496 71 49 25
-0.24272358295756633 0.32718609480878885 -2.020029640987984 74 52 27
-0.2433150134705641 0.3287359024204235 -2.0247835805808885 79 60 28
-0.2391651597141552 0.3181319109117548 -2.0391239123083045 100 80 47
-0.23913063074538687 0.3180773379593149 -2.0451792420923285 88 69 31
-0.24116551559945493 0.32332741498880535 -2.047036056133503 116 93 43
-0.2459896754763914 0.3357271503755215 -2.0431890527046 181 153 98
-0.2503443837981008 0.34692328054062443 -2.0402534916840755 140 113 68
-0.2514232674718782 0.34972247166717746 -2.0439948681674043 90 69 35
-0.251808029925218 0.3507424716325384 -2.049160473206513 82 61 30
-0.25345523031696404 0.35499833005983583 -2.051725488283322 79 58 27
-0.24975173593618985 0.34553961202716227 -2.0653532169924196 79 60 28
-0.2472784954430033 0.3392344556830525 -2.0764813646785925 80 60 28
-0.24885356308833942 0.34330557509319526 -2.079221488494837 78 59 26
-0.24996933751144276 0.34619945843472716 -2.082910592322602 82 65 31
-0.2506179242810896 0.3478959197046373 -2.087573556069551 65 47 17
-0.25105944276954906 0.3490616817007865 -2.092672680005169 77 60 33
-0.2521827522540995 0.35197484234167464 -2.096339835808673 57 43 18
-0.25277513141756347 0.35352726348374613 -2.101123913422158 52 41 14
-0.25344502047750406 0.3552783425653938 -2.1057458450750324 66 53 22
-0.25602863545670984 0.36193395783001436 -2.106303498996088 92 76 42
-0.2592862710757364 0.37031681454313514 -2.1054028012950567 87 66 29
-0.2621782900780954 0.37776251394450827 -2.105252565242672 89 67 31
-0.2565167003214247 0.36328762108350054 -2.1234042812316827 89 67 31
-0.2621404304668974 0.37773381674265066 -2.1173839127125214 89 67 30
-0.25655319437433005 0.36344996850211636 -2.135464053317088 88 66 29
-0.25466938002896133 0.35865698260622575 -2.145618528441643 88 66 29
-0.25293029812118345 0.3542350697191121 -2.155492036207242 88 66 29
-0.2587549732911235 0.3691957448930574 -2.148955576986919 88 66 29
-0.2569333125159593 0.36456230927368527 -2.1590242301335874 89 67 30
-0.2566411242595933 0.363848278854705 -2.165781445413395 90 68 31
-0.2643571606990761 0.3836548529360074 -2.1549952839035806 91 69 32
-0.26841810367819186 0.3940951365170435 -2.152158270885684 92 70 33
-0.2676916599925956 0.39226817291852856 -2.1598351924982233 89 67 30
-0.2666917778577828 0.3897406761244135 -2.168135243190954 89 67 30
-0.26646356293517465 0.3891905393488897 -2.1747462718970274 92 70 33
-0.2671166754237402 0.3908986578167859 -2.1794099576916777 94 72 35
-0.26806693545978766 0.3933681408154205 -2.183412361237494 94 72 35
-0.2668648207009474 0.390322831824772 -2.1922254533217207 94 72 34
-0.2702671587216628 0.3990749494074863 -2.190737832918285 93 71 32
-0.2720634192304695 0.40371192802386413 -2.192828586505828 93 70 31
-0.27328271913471647 0.4068706154240622 -2.1962073225770964 95 72 32
-0.27478159934714613 0.41074556545036195 -2.1989479366025453 98 75 34
-0.2756595893710158 0.41302973907744955 -2.2030871932166614 100 77 36
-0.2765999324888969 0.41547365052126467 -2.2070830970325517 98 75 34
-0.2772904874243134 0.41727760841339756 -2.211646303709845 100 77 36
-0.2796349366566584 0.42331867526223393 -2.212428026471699 106 83 42
-0.2811227102297568 0.42716494462062804 -2.215154073080441 103 80 39
-0.2804033889834202 0.42535697462532757 -2.222946389518524 106 83 42
-0.2818125130200313 0.4290017343284541 -2.225849167450095 103 80 37
-0.28127926913597856 0.4276705849445159 -2.23323531735505 106 83 40
-0.2829170757201493 0.4319011393774114 -2.2356034700519434 105 83 39
-0.283551187539522 0.4335604873110484 -2.240294241060018 98 77 34
-0.28531647597605037 0.4381175122014622 -2.2423488580129227 96 75 30
-0.2871755739826708 0.44291476609894986 -2.244171074523589 101 79 35
-0.28842742186904835 0.4461564268084823 -2.247402852447875 104 82 37
-0.29011053541959075 0.4505027511582162 -2.2496141666874223 107 86 42
-0.2898763353531542 0.4499378198269334 -2.2563338998894107 106 87 45
-0.2907738302544347 0.4522717493102216 -2.2603908792721232 98 81 47
-0.2930916788754822 0.4582437908534877 -2.2610787080639656 124 115 95
-0.29919180754524866 0.47390358547039946 -2.2527547280151428 167 164 161
-0.25954730472132626 0.372395144713179 -2.353405766258807 189 189 191
-0.30247710746199796 0.48238802372617867 -2.257206620094742 198 197 200
-0.3048427935118587 0.48848203521421224 -2.2576819563370347 203 203 205
-0.32073385617493966 0.5292175916573012 -2.2256288340253034 206 206 206
-0.3297156870299073 0.5522561118629918 -2.2100278748054936 207 207 207
-0.33035861119020493 0.5539367401313426 -2.2144699326372494 208 208 208
-0.18371834018050975 0.1784070157821699 -2.5758048737090107 209 209 209
-0.20834853989576985 0.24152663203039482 -2.5229379790979327 211 211 211
-0.2090887374660353 0.24346102386720558 -2.527961668121844 211 211 211
-0.1772532806587786 0.16196883308016963 -2.6125689791757205 211 211 211
-0.35169175112006934 0.6131433656790684 -2.968727376993443 215 215 215
0.17422971230128304 -0.7431881770173594 -0.0643347453812034 176 176 176
-0.11956636602641268 0.016583852796981657 -0.9087570363486662 177 178 180
-0.1456780881483426 0.08343583574808883 -0.8925779444616501 177 178 180
-0.14124383223577724 0.07212364764499402 -0.9008078152393454 177 178 180
-0.1387477969183827 0.06577133736064683 -0.9075106344799931 176 179 182
-0.13643088375862306 0.05987756410725284 -0.9140947998933665 176 179 182
-0.13168220444683032 0.047761686565731265 -0.9226962402196484 178 178 180
-0.13309035060228527 0.05139977008929447 -0.9262759097545549 152 147 142
-0.1339421657507731 0.053614329677461936 -0.9303099752829832 125 113 97
-0.1369621755178199 0.061376554485631285 -0.9325393738646816 129 108 84
-0.1403445259964346 0.070065728273554 -0.9344460187815748 130 105 79
-0.14415743087778754 0.07985634760850485 -0.9359678790033271 140 117 84
-0.14766886646978705 0.08887544063425346 -0.9377176687131167 127 106 74
-0.14678049111934377 0.08663729113553631 -0.943178594173829 105 87 58
-0.1472590609452738 0.08789657462781536 -0.9474868591498208 74 56 32
-0.1486913344020075 0.09159589445323696 -0.9509791815921402 97 79 60
-0.14865636359790363 0.09154131457057627 -0.9557298605619973 80 61 44
-0.14943128817564558 0.0935588230516042 -0.9597853679525088 55 37 18
-0.15002185863781925 0.09510468029307698 -0.9640007618337284 64 46 24
-0.14923362336118517 0.09312308859375912 -0.969423491755263 64 46 23
-0.14914578007992219 0.09293341236155009 -0.9742433644773907 66 48 24
-0.1482154134326491 0.09058837862808916 -0.9798146093870406 65 46 21
-0.14970848914096885 0.09444321020088389 -0.9832481618590365 76 54 30
-0.14979409018251258 0.09469737108634427 -0.9879307974376726 75 53 29
-0.14944189316812356 0.09383160552083816 -0.9930114332235257 76 54 30
-0.14702841809229708 0.08769285323404336 -0.999958701508556 73 51 27
-0.14921482180427428 0.09332132674302929 -1.0027683253029567 58 36 15
-0.14805441365840236 0.09038827988523523 -1.0086100607153012 69 47 24
-0.14804394105382251 0.09039694832610778 -1.0134169050392607 73 52 26
-0.146589360605752 0.08671160872580685 -1.01955667862986 59 37 13
-0.14674820257512922 0.08715352223200229 -1.024226280752798 65 40 20
-0.1468170285034151 0.08736521492236665 -1.0289842428058287 64 39 17
-0.14739274673352482 0.08887354004317805 -1.033275538488854 72 50 24
-0.1470411110293604 0.08800980633132305 -1.0384362959203757 72 51 24
-0.1463067120665509 0.08616708910104515 -1.043966535644227 73 52 25
-0.14744519634329933 0.08911497025986881 -1.0477395028713468 77 55 29
-0.14786637308008166 0.09022810151380745 -1.0521898334537785 71 49 26
-0.1476758963329273 0.08977679088807178 -1.05722628509954 70 49 25
-0.1478842700761282 0.09034568937441856 -1.0618885089845325 60 40 18
-0.14824704339112654 0.09130952767911288 -1.0664065740439064 55 34 14
-0.14828974433281156 0.0914547534075974 -1.071237409387929 66 46 22
-0.14912726352773803 0.09363287096167155 -1.0753018281944668 73 53 29
-0.14695328056473933 0.0881087853851728 -1.0823052848100192 72 52 27
-0.14720189690696706 0.08878083253145808 -1.0869585927357204 70 48 24
-0.1478637490733705 0.09050977221767253 -1.091208963522871 76 55 29
-0.1474711569279632 0.08954198167563998 -1.0965034732160537 72 51 24
-0.14575739043292363 0.08519541466002178 -1.1031215358709547 75 54 28
-0.14769764822396553 0.09019390813481232 -1.1061120646360918 74 54 24
-0.14751487049542772 0.08976288371312502 -1.1112215343032141 95 74 42
-0.14883568072973172 0.09317713499933117 -1.1148238895085112 84 61 29
-0.14939312843908736 0.09463917898664298 -1.1191935551847867 54 32 10
-0.14908371164933767 0.09388440730534897 -1.1244461236620014 86 66 36
-0.14817166587273703 0.09158862584500921 -1.130323506676562 88 68 34
-0.14840377777085126 0.09221882363657996 -1.1350419433461025 89 68 35
-0.14827666348327567 0.09193044382609056 -1.140134980715263 85 65 33
-0.14825744580610947 0.09191802988297959 -1.1451240742645565 95 75 43
-0.148444219206823 0.09243241085331327 -1.1499057940570865 95 74 42
-0.14782043789146992 0.09087416546107269 -1.1555386894333666 91 71 37
-0.14779539651805662 0.09084702358782787 -1.1605560238162482 94 73 42
-0.14770236228706027 0.09064607301258903 -1.1656518234120994 77 56 28
-0.14729952810209676 0.08965302240222278 -1.1710828187595934 78 57 29
-0.14765791025915723 0.09060644507080506 -1.1757154573004576 84 63 33
