ply
format ascii 1.0
element vertex 673
property float x
property float y
property float z
property uchar diffuse_red
property uchar diffuse_green
property uchar diffuse_blue
end_header
-0.0520319176530987 -0.25290528706782717 -1.5844732412512843 92 68 33
-0.050819696950116455 -0.25584002237186576 -1.587994972613577 128 102 63
-0.04654476839841806 -0.26513105098492046 -1.587483696500388 130 104 64
-0.043053232981818776 -0.27279390281695104 -1.5879754662720067 135 106 67
-0.03962305725272232 -0.2803274752356306 -1.5885244003315973 139 112 69
-0.03602449760131035 -0.2882084232453159 -1.5888261238320782 139 112 72
-0.032880676939305575 -0.2951441410124517 -1.5897086632127455 123 97 63
-0.029295083308067002 -0.30299425399681007 -1.5899795005885102 121 97 60
-0.02642899769684398 -0.30935048261565956 -1.5911901057039883 136 110 65
-0.025687698589738156 -0.311300353906615 -1.5952400638787418 164 136 83
-0.022423566244315782 -0.31847926588845293 -1.5958847790705837 159 129 77
-0.017310567871740498 -0.3294878572504444 -1.5940041531507971 165 137 87
-0.016224354575978775 -0.3321497919661154 -1.5975539165916517 167 138 86
-0.013415618501301435 -0.3383798923475527 -1.598753224313649 168 138 86
-0.010556527785959113 -0.3447127726957679 -1.5998651468475018 153 127 82
-0.010061411328086564 -0.3461484289345324 -1.6041990658842298 107 84 48
-0.009401620274158931 -0.3479251702340135 -1.6083078577360688 72 51 22
-0.008350578106555262 -0.35051188974480973 -1.611876792540104 66 46 16
-0.007447732541015967 -0.3527915764684083 -1.6156473738200112 79 59 29
-0.006200259576301631 -0.3557843022205423 -1.6189373290387095 73 52 24
-0.005240660486684839 -0.3581809431076572 -1.622623022043937 80 58 32
-0.004307511321844204 -0.36052264465602896 -1.6263429874726292 56 33 13
-0.004426603451175071 -0.36068762146930394 -1.6315350482245374 58 37 17
-0.011411605627071497 -0.3466537003381926 -1.6463851715462785 85 66 35
-0.019039196995560115 -0.33129651161507767 -1.6622079301245352 98 80 45
-0.02683653953481302 -0.3155942957058028 -1.6783430584359054 105 88 52
-0.036810440858652926 -0.29539909861824015 -1.697640121767099 71 56 27
-0.037283756052654105 -0.2948461817612784 -1.7035094379691473 69 54 23
-0.0368561090317554 -0.2961557622021576 -1.7081026231379404 91 71 40
-0.0359390051333886 -0.2984767172860372 -1.7119970889802922 95 75 42
-0.0365070345011452 -0.2977298001454164 -1.7180224993622548 71 50 19
-0.03606093864035009 -0.2990781902657409 -1.722597759327524 76 55 22
-0.03271477750072779 -0.3064150413553995 -1.7229841591643047 84 63 29
-0.03547563180041771 -0.30114188862881075 -1.7321990825993927 85 65 30
-0.03452641941087847 -0.30352939362323883 -1.7360501983405379 90 70 35
-0.03458679460106032 -0.3038331106163656 -1.7413711688814144 94 74 38
-0.03443502409263019 -0.30457510778670155 -1.7463883061385514 79 56 22
-0.033910947002725345 -0.3060855800951071 -1.7508638267815455 100 77 43
-0.03353110441047136 -0.307298646001472 -1.755552923585877 96 74 40
-0.031150943675677528 -0.31263728727385354 -1.7572921380726725 82 61 28
-0.034287724870156494 -0.3065988110120029 -1.7671837450704775 84 64 31
-0.03368849709532529 -0.30826535923351783 -1.7715616433114512 85 64 32
-0.03356407723092783 -0.308953259076167 -1.776647364546642 85 63 31
-0.032207180003254426 -0.31218157012179953 -1.7798969293004128 83 60 29
-0.03086923649799536 -0.31537032911753715 -1.7831688159334047 81 59 27
-0.029417849984197164 -0.3187923154391704 -1.7862643140886054 87 65 33
-0.03039686897898508 -0.3172075797235127 -1.793015921396113 87 67 34
-0.02890261904966321 -0.3207175931414752 -1.796043603059234 85 65 32
-0.028973932234126337 -0.3210034031848785 -1.8014375417156532 83 62 30
-0.027970904628598164 -0.32350150861732285 -1.8052045155111298 83 59 29
-0.027245241954721666 -0.3254284631788488 -1.8093915546332588 83 58 28
-0.024959979996202225 -0.33056498458317046 -1.8111925873666053 81 57 26
-0.017683986551698255 -0.34596924412920466 -1.8053228981534344 80 56 25
-0.02233532873288871 -0.33683135935824543 -1.8177450704363871 78 56 25
-0.02136204449199025 -0.33926647887056544 -1.8215358530301877 76 53 22
-0.019435217704762087 -0.3436623291134321 -1.8238482081452414 75 52 21
-0.018478855899796892 -0.34606185749751184 -1.8276555251027962 74 51 20
-0.021579387735452288 -0.3401212099645596 -1.8377754788100367 78 55 24
-0.019523627308699054 -0.3447815042445406 -1.8398796571247102 82 59 28
-0.02132986546577495 -0.3415043286338224 -1.8480181347527047 80 57 26
-0.015968468203170244 -0.35295589251088655 -1.8449240408797605 79 56 25
-0.01603016643531671 -0.35326348859514073 -1.8503276924160224 80 57 26
-0.015280255825877248 -0.35523858961234495 -1.8544562006541243 83 60 29
-0.013833339122551441 -0.3586449494648845 -1.8574800058259042 80 58 27
-0.016325414873595623 -0.3539633993898664 -1.8667537504750356 82 61 30
-0.018669819785964492 -0.34958734946297404 -1.8758211472864992 83 62 31
-0.02282403950273018 -0.3414990956881758 -1.887807530974254 84 62 31
-0.02259808629215998 -0.3424026840700514 -1.8928202466199175 83 60 29
-0.01783602438578971 -0.3526131180499025 -1.8905486051855107 81 58 27
-0.017147280017681094 -0.35446499437384066 -1.8948030906089774 80 57 26
-0.015489930195210388 -0.358303372751696 -1.897492240497172 81 58 27
-0.01928318391234951 -0.3509644306888018 -1.909005362893056 82 59 28
-0.025588592208500183 -0.3384785750504457 -1.9246422769995888 83 60 29
-0.023974688336338396 -0.3422307404508053 -1.9274369447384274 83 60 29
-0.01662301813487027 -0.3577411246387458 -1.9208453297065609 83 61 30
-0.01495098820037416 -0.3616088133231145 -1.9235010186253798 84 62 31
-0.013281932022595533 -0.3654696573910464 -1.926152401993575 83 61 30
-0.011469969468474284 -0.3696224585622195 -1.9285590575432547 88 65 34
-0.010046606266511854 -0.3729785954797402 -1.9315975022574021 82 59 28
-0.011222458293902754 -0.371012283916313 -1.93893729224546 80 57 26
-0.007744186280462806 -0.37857490781882464 -1.9385583109825235 80 57 26
-0.008093492340347341 -0.3783013635009705 -1.9445331857784602 82 59 28
-0.009208058081865589 -0.37646260892298383 -1.9517967257910738 70 47 18
-0.009337381986653542 -0.3766409975983521 -1.9574255506892955 82 59 29
-0.008426192932662335 -0.37894846457169407 -1.9613129912459188 87 64 32
-0.008394135821526066 -0.3794577461499476 -1.9666800158340967 88 65 33
-0.00695660924715874 -0.38284145929177066 -1.969677596431027 85 62 31
-0.007493393185339009 -0.38218822975323663 -1.9760142271681305 83 60 29
-0.006848217653983968 -0.3839519241413678 -1.980353452691297 77 54 23
-0.005669733676188643 -0.38680555130535366 -1.9837841003252674 76 53 22
-0.00550439557720192 -0.38758864518193653 -1.9889414487990202 74 51 20
-0.0035312578138967654 -0.39206529146462565 -1.9910056881366471 72 49 18
-0.0039040331133445016 -0.39174937284323774 -1.997088844419777 73 50 20
-0.0009066826273688711 -0.3983165008763608 -1.997374919930608 75 51 21
-0.0024322211305801977 -0.39564725564680714 -2.0054537347764865 71 48 18
-0.0030905295791207044 -0.39475004077532816 -2.0120508734440072 77 54 23
-0.003967304025316004 -0.393407979020179 -2.0190401957531514 91 68 35
-0.0045901690958690955 -0.3925852467507669 -2.025601951019886 87 64 33
-0.005214494697276778 -0.3917605464080183 -2.0321786176430883 81 57 28
-0.005597551422579672 -0.3914290018605548 -2.038345097779073 76 52 22
-0.002774635626338673 -0.39763659273234525 -2.038891190763707 75 52 21
-0.0002643771369494341 -0.403204998313277 -2.0399674845039355 76 53 23
0.0012466441527254624 -0.4067348962593281 -2.0427907684561197 77 54 23
0.002368813967054434 -0.4094715701738675 -2.046294596694634 76 53 22
0.00236196446380732 -0.4099071222836681 -2.0517985790822886 77 54 23
0.006314695658390296 -0.41841070225836713 -2.0502605764942126 79 54 24
0.003112633941821763 -0.4123369092006887 -2.061461899612538 79 56 25
3.169826519400232e-05 -0.4065128562358279 -2.0724836508654656 79 55 27
0.015222578019636113 -0.437898350752937 -2.0507525206661805 78 56 29
0.009871984904982811 -0.42745225236937273 -2.0658425570404666 83 62 32
0.004464421648876088 -0.41689493757201646 -2.081093359463758 98 76 39
0.002013030463991594 -0.4123585320519915 -2.091055226473626 113 90 50
0.006101880123079412 -0.42113207012021314 -2.0891847770896432 89 66 33
0.0035485968667796353 -0.4163907495194534 -2.0993608408096454 77 54 24
0.003948623577817001 -0.4176587708002092 -2.1041829856960477 77 54 23
0.003467498144030051 -0.4171351758740435 -2.1106188564324024 77 54 23
0.006125869326873062 -0.4229954841829018 -2.1113108926370283 79 56 24
0.007310883541573221 -0.4258592933933416 -2.1146917601950475 80 57 25
0.008193429742479552 -0.42810798814592926 -2.1186251363833444 82 58 24
0.010324635882515948 -0.4328937109311165 -2.1202493932899347 84 60 26
0.011460619743714623 -0.4356564532505154 -2.1237032532439986 88 64 28
0.013408855218582982 -0.440068621346698 -2.125643946337269 88 64 27
0.016428821130369392 -0.44665617261131707 -2.125576329934946 81 58 22
0.01662983887401459 -0.4475184516726542 -2.1307494462511603 80 56 24
0.017943303264794735 -0.45063930253247925 -2.133844594674978 77 55 18
0.018821167524818327 -0.4528755803163344 -2.137751147488218 77 54 16
0.01952578447989292 -0.4547601563787188 -2.141981775526427 82 58 21
0.02033745713883628 -0.45686189744929323 -2.1460101415197603 85 62 26
0.02036267126281452 -0.4573683380752618 -2.1515249766682154 90 67 29
0.020954445691440116 -0.459024243844364 -2.1559716516634975 92 67 28
0.021467703981579905 -0.46052102629473285 -2.160568482860469 89 64 25
0.019563196701683355 -0.4571168570069385 -2.1697765166181058 90 67 26
0.02216143803845333 -0.4628405373427631 -2.1704031343204764 99 75 34
0.025282179528770155 -0.46962140799979296 -2.170009432352007 105 80 39
0.027922620269913878 -0.4754272577985965 -2.1705143796764954 102 77 36
0.029473534747600005 -0.4790246862326434 -2.173098656397555 97 73 31
0.031166608526694284 -0.48290928824617263 -2.175399689695893 93 68 27
0.02958058598270405 -0.4801539433452083 -2.1840398548393494 91 68 25
0.03189661456375853 -0.4852992531592663 -2.1851276364200998 99 76 33
0.03268841072729306 -0.48735838586391045 -2.1891655968793398 103 80 36
0.03440574515397499 -0.49129020896607467 -2.1913964547066427 103 80 36
0.034102876637632284 -0.4911342143693631 -2.1975688701560654 106 83 39
0.03589030287897493 -0.4952069285530336 -2.199651519920511 105 82 38
0.038975682571367964 -0.50190348834354 -2.1991709501406986 104 81 36
0.04079732343153769 -0.5060430202278561 -2.201157345836901 105 82 36
0.04256161377067663 -0.5100656794377869 -2.2032455487783893 105 82 38
0.04432250400659113 -0.5140805685658809 -2.2053295111610267 105 82 38
0.04491771870500691 -0.5157392156958884 -2.2097179177690927 109 86 42
0.04657234455881909 -0.5195381169509264 -2.2119974171443335 111 88 43
0.0474485456005416 -0.5217639759789474 -2.215821042611838 112 89 44
0.048906030050776816 -0.5251634764597131 -2.218479176461098 108 86 39
0.05066462271989172 -0.5291702420150219 -2.2205251721829633 108 86 37
0.05243348358029451 -0.5331968317014659 -2.22253948795827 108 86 37
0.05373993762517146 -0.5362893247443694 -2.225475162549987 104 82 36
0.054454826483763596 -0.538187694537152 -2.229600336158277 95 75 29
0.054478234755613475 -0.538691121703722 -2.2351265213992044 93 75 29
0.05494398904148093 -0.5400872330379615 -2.239760468788605 94 76 28
0.056157115325957574 -0.5429905421677104 -2.2428741017223643 94 77 32
0.056832199548148 -0.5448086929524419 -2.247080900679992 90 72 30
0.05903301062205085 -0.5497020963790065 -2.2481641925331974 83 66 28
0.061365594559828346 -0.5548597637742716 -2.248961378470524 83 68 36
0.05867953619657046 -0.5499046511399425 -2.2600669133156908 90 78 56
0.05744612307752425 -0.5478784799135188 -2.2682106744560824 116 107 93
0.055481172936466844 -0.5443806446033119 -2.2778865194498414 156 151 144
0.0554629183273182 -0.5448047059580112 -2.283554317823815 182 180 179
0.05533141089500751 -0.5450013600914018 -2.2894645381686636 195 194 194
0.061740335460993945 -0.5583623747416926 -2.281758705368485 202 202 204
0.06431444014831797 -0.564001966581065 -2.282001769469025 205 205 207
0.05801603001537478 -0.551790060993885 -2.3007989667008464 208 208 210
0.05839707072475478 -0.5530190640384504 -2.3056508162186353 209 209 211
0.06381627776947268 -0.5643799226897733 -2.2999066152432532 211 211 213
0.4714656033923147 -1.4093586830618974 -1.7502822501713273 214 214 214
0.4434006816940595 -1.3542946920931946 -1.8261077297896378 214 214 214
0.4387881564861368 -1.34552825139403 -1.8420326163903404 214 214 214
-0.20657459526424388 0.12357419582638934 -0.9656251319779985 179 180 182
-0.19304159085708053 0.0945218470504397 -0.9609453814827353 179 180 182
-0.1893683194715909 0.0863458684691632 -0.9631698414526209 179 180 182
-0.1857112851419992 0.07820603583468716 -0.9653844028695315 178 179 181
-0.18149408069491446 0.06888268212968002 -0.9671760407054637 178 179 181
-0.1794497323571828 0.06415847233245686 -0.9705075427451829 178 179 181
-0.1755737971212167 0.055560609218536394 -0.9725031317706241 178 180 180
-0.17161110979854244 0.04678117641325613 -0.9744125272065038 178 179 178
-0.16760606308736833 0.037914135003318916 -0.9762672142192761 178 175 171
-0.16462597140253143 0.03121632117326112 -0.978851018108473 135 129 118
-0.16006790306316754 0.02118379787593988 -0.9802528330780257 76 67 52
-0.15788076613011726 0.01616542843341401 -0.9833859684124686 72 59 38
-0.15628301775916975 0.012393678374148176 -0.9869476428614278 83 69 48
-0.1540570936423346 0.007294990654789613 -0.9900318605885249 87 74 56
-0.15277069015896144 0.004182405223093433 -0.9938122406766183 94 82 65
-0.15112384689190814 0.00030870819519879245 -0.99731541756194 91 79 62
-0.14749132358112066 -0.007758846031555466 -0.9993017853072632 94 79 62
-0.1469446570413287 -0.009307135768231667 -1.0036239518991337 92 76 59
-0.14596706206424187 -0.01176550950459343 -1.007616236016592 78 62 42
-0.14504491257139396 -0.014106626269636546 -1.0116490280462682 79 64 42
-0.14412312169631192 -0.01644683210736747 -1.0156802459392729 72 56 34
-0.143201689287956 -0.018786127425643062 -1.0197098906499282 69 54 32
-0.1422806151952865 -0.021124512632320236 -1.023737963132558 70 54 30
-0.14312695917168786 -0.01973310269261358 -1.0291532200749673 66 50 27
-0.14325848510746167 -0.019850822966096915 -1.0340152008185526 64 47 25
-0.1445363694888971 -0.01755066435513042 -1.0397924440113027 63 45 24
-0.14457095354333552 -0.017874194979169866 -1.0445931848312013 74 56 35
-0.14502816801202906 -0.017306831316248272 -1.0497375006406997 59 41 19
-0.145071463038115 -0.017612987514539047 -1.0545572184567755 61 43 21
-0.1451385746931426 -0.01786936799042299 -1.0594014641600904 55 35 13
-0.14478580613361944 -0.019011342275074616 -1.0639103524567493 61 41 19
-0.1444327056894913 -0.020154212757227064 -1.0684213377190057 63 43 21
-0.14407956410960615 -0.021297366694967013 -1.0729346581074664 62 43 21
-0.14325115665830357 -0.023442175606077198 -1.0770592838716242 63 46 23
-0.13942927587480242 -0.03189367172484292 -1.0787084953693742 62 43 21
-0.14014954062222526 -0.030775031014051213 -1.0841054978951323 58 39 16
-0.14230534723209598 -0.026633674028503584 -1.090710085700269 54 35 13
-0.14515351778194593 -0.0210360059234862 -1.0979157462916167 56 37 16
-0.14450145524949845 -0.02281063654922849 -1.1022024195140623 66 47 26
-0.14693332834056466 -0.01809267989655433 -1.1090957403140564 63 44 23
-0.14614786841425254 -0.02014909646031965 -1.113281042785011 62 44 23
-0.14563464425134803 -0.021632477449894383 -1.1176976569413157 55 38 16
-0.1450188588005698 -0.023331786685654166 -1.1220276635973185 59 42 19
-0.14440281668470392 -0.025031674084482036 -1.126357908477926 58 41 20
-0.14100617981565253 -0.0325812539698111 -1.1282864519735885 54 37 17
-0.1416161060578401 -0.0317016110542111 -1.133670888828434 53 35 14
-0.1405533025695446 -0.03434071891430063 -1.1376073473329051 58 39 18
-0.14105227108804488 -0.03369548290979962 -1.1429077314536233 56 35 12
-0.14198231523368865 -0.03214464941785844 -1.1485958658311899 71 51 27
-0.1418313414386334 -0.03286731582173069 -1.1533418832228095 69 49 27
-0.1422674931253894 -0.03235625400682962 -1.1586123638335208 81 62 41
-0.14340115902930156 -0.03038002998027528 -1.164512248934097 84 67 47
-0.14376037361969385 -0.030032250723988907 -1.1697334399559605 84 68 51
-0.14508542758402473 -0.02765597172726647 -1.1758296796849952 91 76 61
-0.1463056685690708 -0.025501126698430465 -1.181846621519199 105 93 80
-0.15032302260324826 -0.01747272687712853 -1.1904106138711288 126 117 104
-0.15129986559726188 -0.015832294560387428 -1.1962457690924708 151 143 134
-0.15152854436352592 -0.01576380278769446 -1.2014104571542044 177 171 166
-0.15325088948680887 -0.012560169847373459 -1.2079515765672209 189 185 182
-0.15433495812763676 -0.010697821710914546 -1.2139234181397227 198 197 195
-0.15624615752373666 -0.007100688567088509 -1.2206734428642352 199 199 199
-0.15684323883957638 -0.006262741111877745 -1.2262234306648958 198 198 199
-0.15925921200352033 -0.0016094388037808938 -1.2334786900780688 200 200 201
-0.15983144974443897 -0.0008258213763653321 -1.2390320824997945 200 200 202
-0.1624273975250686 0.004201599826222258 -1.2464970129792166 200 200 202
-0.16715043622594078 0.013687691084711795 -1.2559943396370654 199 200 202
-0.16781394093092744 0.01465828975210276 -1.2616870241930676 200 201 203
-0.17367113800292366 0.026516502437118283 -1.2723309554396325 200 201 203
-0.1747838025266695 0.02842521363596473 -1.2784935816247742 200 201 203
-0.20001427717337694 0.07609205386274254 -1.3654397387249855 200 201 205
-0.2326732748557751 0.14397584129634844 -1.4035537757729513 200 201 206
-0.27881102993727336 0.24003082826948363 -1.4555348849771836 200 201 206
-0.2638900495155144 0.20836161631775474 -1.4460072972350186 200 201 205
-0.2475076571390114 0.17364579714702788 -1.4348821898307635 200 201 205
-0.23350201365354234 0.14390916254730257 -1.426061759283212 199 200 202
-0.21929567092689387 0.11376163689799013 -1.4169315625663947 171 169 167
-0.20708957062897332 0.08780345083081298 -1.409753961182037 122 116 109
-0.19691920069449947 0.06610681798500806 -1.40458903423239 117 108 95
-0.18675470453234794 0.044428631887648784 -1.399355866452328 107 95 80
-0.17854152790744324 0.0268330166900429 -1.3960793496050572 103 91 74
-0.16928240384313625 0.007057626680719076 -1.391650887361497 106 93 75
-0.1649028932132245 -0.002521633751261243 -1.392272455393453 106 94 74
-0.1561753454838291 -0.02117744238438979 -1.3882877908574496 99 85 66
-0.1499656031640554 -0.03457147899859947 -1.3869001223948376 100 85 64
-0.14498532669329245 -0.04539550223116168 -1.3867728212442498 103 87 65
-0.13825860020804664 -0.059861672377482966 -1.3847523131269972 98 82 59
-0.1340529704014628 -0.06906298630620639 -1.3853778712666034 104 88 65
-0.1318714249193239 -0.07403890674378794 -1.3881464102440495 104 88 65
-0.12832584770785285 -0.0818593243499593 -1.3894346976490146 94 78 55
-0.12620686404337808 -0.08670233380484638 -1.3922416687925498 100 83 62
-0.1233755209813558 -0.09302996473253378 -1.394264698448341 100 83 62
-0.12399115888008219 -0.09216891390418225 -1.400022556262906 104 88 65
-0.12064957218088239 -0.09955857837211635 -1.4014676923380684 103 86 62
-0.11827464121461188 -0.10493155853809016 -1.4039515032894552 109 92 68
-0.11522618855652644 -0.11170709663593675 -1.405680602464071 106 89 64
-0.11433560100310372 -0.11398459019144602 -1.409774068587175 105 89 62
-0.11105162438004665 -0.12124839457017067 -1.4112128324564375 99 81 54
-0.11162745432257909 -0.12047013114707184 -1.4169247635757363 108 87 63
-0.10912063783543517 -0.12611311525702934 -1.4192049582498585 110 89 64
-0.10581255389281984 -0.13342345822277296 -1.4205726092175226 98 78 49
-0.10534315818527043 -0.13482164153882498 -1.425111432691268 106 85 56
-0.10368288797929193 -0.13869907419860794 -1.428307921732997 114 91 60
-0.1009021010629823 -0.14490811397317738 -1.4302273420255798 126 102 67
-0.09796297653692888 -0.15144525665071235 -1.4319497964422652 123 101 69
-0.09455649623110991 -0.15895332871780354 -1.4331208240564919 118 96 66
-0.09326059209128423 -0.16206870055781403 -1.436685920728375 128 104 73
-0.09147095815390573 -0.16621064904695704 -1.4396787699129667 134 109 79
-0.090077508460954 -0.1695278878744358 -1.4431193422317161 131 107 75
-0.0871357847116552 -0.17606412003476857 -1.444762759544172 127 103 70
-0.08547865776814993 -0.17992806596267752 -1.4478792070720243 124 99 65
-0.08503979113761166 -0.18125892232570318 -1.452407064172053 116 90 60
-0.08325683551245737 -0.1853834692207354 -1.455365326516759 124 99 70
-0.08223315736439597 -0.18792945175922782 -1.4592053761461776 107 83 50
-0.08117645479750751 -0.19054381110137092 -1.463003676490252 124 99 64
-0.07985333810395123 -0.1937113486727408 -1.4664840767877634 130 103 66
-0.07783439162578695 -0.19832369884453865 -1.4691342016348434 107 82 51
-0.0762900210693618 -0.20194958750776737 -1.472337863808889 112 88 54
-0.07903629168203193 -0.1966660395892051 -1.4806563634040937 118 93 54
-0.07842727200497188 -0.19835041160596895 -1.484983742321159 98 75 35
-0.0779361958623103 -0.19979001658619527 -1.4894534124345176 100 77 40
-0.0760660331017389 -0.20409178847833664 -1.4922612577064458 91 68 33
-0.07406937432700031 -0.2086552163940979 -1.494906141638951 95 72 38
-0.07118781143959216 -0.2150535866981953 -1.496465505234229 94 71 37
-0.0714731865981113 -0.21488129543439205 -1.5018654769322461 84 61 27
-0.06805141411442328 -0.2223980824329861 -1.5027409102108389 82 59 26
-0.06447350442228235 -0.23023674323539967 -1.5034020159984656 81 58 26
-0.0706464688228176 -0.2178573331270779 -1.5160414563137952 82 59 27
-0.0706796578956555 -0.21820985494502637 -1.5211546843691672 84 61 29
-0.06738544338123342 -0.2254591304498102 -1.522150398768263 80 60 27
-0.06711190960253524 -0.22644707401145142 -1.5268801367437204 105 83 51
-0.07003473663876573 -0.22081282969471516 -1.5356007642043181 96 73 40
-0.07465077259209978 -0.21167354173682568 -1.5464707532439153 93 71 35
-0.080378193866521 -0.20023603810922658 -1.5587806506811304 88 65 31
-0.06791827486213467 -0.2264659742950032 -1.5482269404943467 87 64 30
-0.06668316496742105 -0.22944688774317212 -1.5517655462423003 87 64 30
-0.061819658010588655 -0.23993870211265228 -1.5506970824056732 88 65 33
-0.060234132095375884 -0.24364285750275178 -1.5537651043753862 79 56 26
-0.05929252389491986 -0.24601382306227354 -1.55764760673228 83 59 30
-0.05733837322656005 -0.2504796452153411 -1.5602307390898906 84 61 29
-0.05750027574062597 -0.25056699394374926 -1.5655226627472474 86 64 28
-0.05841602778872755 -0.24909566426991725 -1.571793617586375 98 75 35
-0.05437799005541914 -0.257870108478153 -1.5716694762371597 102 77 39
-0.05075648097117212 -0.2657809373702418 -1.5720575098674416 98 74 35
-0.050999227578792494 -0.2657009461751022 -1.5774522037696417 97 76 36
-0.049165299157639425 -0.26991406680443714 -1.5801417857048548 137 115 76
-0.048083894306751626 -0.27257117023333116 -1.5838077089175195 125 100 64
-0.0452772173802118 -0.27879289286947834 -1.58520173991151 139 111 71
-0.044107392328817135 -0.2816314737645156 -1.5887366701864634 134 107 62
-0.0408390077693086 -0.2888044496325733 -1.5894903234952995 148 121 77
-0.037341820956667354 -0.296448115535668 -1.5899180887060198 147 122 80
-0.033925189224851424 -0.303923440730804 -1.590429006350913 144 121 76
-0.03254416480752455 -0.3071942565249068 -1.5936361218905273 135 109 60
-0.028706493170826755 -0.3155354960460095 -1.5935443892449288 170 142 91
-0.02609480810981095 -0.3213442720359261 -1.5950739591155092 170 140 93
-0.023205890527265696 -0.32772371794075217 -1.5962128687530532 149 121 76
-0.022522674112811836 -0.3295509870234656 -1.600317310591159 160 132 86
-0.02084240651393697 -0.3334349010294377 -1.603068082493567 186 156 109
-0.015933854565236785 -0.34397606887664695 -1.6014140218693464 145 118 75
-0.01169664718176415 -0.35312986602758817 -1.6006404905383929 96 72 38
-0.014023319509945883 -0.3487485030834882 -1.6088307564475224 75 54 24
-0.01315879297793103 -0.3509473492915513 -1.6126599493618063 71 50 23
-0.012233214368373088 -0.35327186946987815 -1.6164031254094253 67 45 19
-0.01100642510262373 -0.3562168691944836 -1.6197272916174938 58 36 14
-0.009799310891714208 -0.35912092100896303 -1.6230737923764011 84 63 39
-0.008819892795469783 -0.3615555459705293 -1.6267324180539233 70 49 21
-0.00974293577363193 -0.3600717681615609 -1.633044465252996 71 50 23
-0.017569215686308745 -0.3443742175401428 -1.6490385437266526 97 78 45
-0.024127571474890322 -0.3312931866903552 -1.663324892903564 102 84 47
-0.03117561051231965 -0.31720937690862266 -1.6783640065544567 103 86 48
-0.04254875163661197 -0.29422971773366735 -1.6995840880580095 75 59 28
-0.04313441555057684 -0.2934563866185194 -1.705612957379465 94 78 45
-0.04191082349070083 -0.29640625558602346 -1.709079481067374 90 71 39
-0.04196611346007109 -0.2967250689660685 -1.7143657336010885 93 74 42
-0.04092326560235551 -0.2993028779179899 -1.7180868710178543 70 49 18
-0.039546463930779235 -0.3025671174255421 -1.7213254117819294 79 59 26
-0.039689793126405054 -0.3027055970121388 -1.726746447862079 87 67 32
-0.040090004030073234 -0.30231663903244105 -1.7325456132179289 91 71 36
-0.03875415975642571 -0.305496366268515 -1.73583941981968 91 71 36
-0.03950016217949892 -0.30439780318975923 -1.742152222977035 94 74 39
-0.039868786075431845 -0.3040755814132118 -1.7479275347755077 87 65 30
-0.03905104425209682 -0.30619101503867585 -1.7519778539027888 91 68 34
-0.03802055439617966 -0.30874326768165733 -1.7557149854945022 85 63 30
-0.03670813978945686 -0.31187414920292117 -1.7590343814706826 83 63 30
-0.0393114812307207 -0.30696558244294914 -1.768123836602795 85 65 32
-0.0383975764744372 -0.30927897715150576 -1.7720388202725288 85 65 32
-0.03879033930062284 -0.3089105910967429 -1.7778905791536856 85 62 29
-0.03341937359071456 -0.3203694670545284 -1.7751737997022372 78 55 24
-0.034699369050343404 -0.31818036352758927 -1.782343317172035 86 63 32
-0.035012402006444066 -0.31797607879280515 -1.788082498791707 91 69 36
-0.03520453941858345 -0.3180204529364077 -1.7936489276267733 85 65 32
-0.03132115520818621 -0.3264219270698881 -1.7930851109122037 84 64 31
-0.03200358059576 -0.3254609699848969 -1.7993894155249492 82 62 29
-0.0335830728689997 -0.3226623352857831 -1.8070648627498829 81 58 27
-0.03306213405214051 -0.324169766052772 -1.811568958209491 82 57 27
-0.03260364521141723 -0.3255493569021378 -1.8161696067932886 80 56 26
-0.029639868061721225 -0.3320613085273183 -1.8169431187652494 79 55 24
-0.024441173557849916 -0.3431490551933598 -1.814270244318565 78 55 24
-0.025459597748403118 -0.34150200617792076 -1.8211147819482074 78 55 24
-0.025008166543954463 -0.34286564184943985 -1.8257081917467035 76 54 23
-0.025486689668295176 -0.34232577640591627 -1.8317416449707897 75 52 21
-0.02443893155376478 -0.3449105816874906 -1.835418407638953 81 58 27
-0.028238325824651994 -0.3375763535935948 -1.8466309632421611 80 57 26
-0.0271638864871101 -0.34021700364621604 -1.850281237133399 79 56 25
-0.022830135632182946 -0.34952445469620524 -1.848828992972235 80 57 26
-0.021529137229626155 -0.3526266346793159 -1.8521018516166905 81 58 27
-0.02022947255203411 -0.3557256153762774 -1.8553711254801146 81 58 27
-0.018000455122133496 -0.3607241169352459 -1.8571681936602813 81 60 29
-0.02122744194807441 -0.3545691066871533 -1.867585515406368 83 62 31
-0.02034428775982461 -0.3568168172259587 -1.8715151110480948 83 62 31
-0.017419564910479968 -0.3632358928190797 -1.8721933547389762 85 62 31
-0.015874257793773855 -0.36683523649763733 -1.875052914706958 85 62 31
-0.015244602089025089 -0.368563668493599 -1.879370256490584 82 59 28
-0.0070932961180863174 -0.3856525178917031 -1.8716132601598043 80 57 26
-0.011685152243767427 -0.3767169984197655 -1.8843031160084411 82 59 28
-0.027374298345128806 -0.3451315133460748 -1.914957476463208 83 60 29
-0.03087662806902483 -0.33843196560175814 -1.926030574085259 83 60 29
-0.02819194602025049 -0.34436103542202956 -1.9270965105233984 85 62 31
-0.015017378688206351 -0.37169059641944796 -1.911063964776836 84 63 32
-0.016125196525584057 -0.3698763915728591 -1.91823740764766 84 63 32
-0.01676995476063653 -0.3690079548169185 -1.9246690286225998 86 64 33
-0.018034499569566764 -0.36687671896525903 -1.9321305473728358 84 61 30
-0.02099552189383705 -0.3612883247307629 -1.9424035215224458 82 59 28
-0.017807992631961617 -0.36823555257612156 -1.942557067872811 79 56 25
-0.017088788580639558 -0.3701505194511404 -1.9467747555997406 79 56 25
-0.017735613105756554 -0.36928207650828715 -1.953260419658922 81 58 27
-0.016573991671557264 -0.3720987922334797 -1.9567469752402513 77 53 25
-0.014588890838636959 -0.37659239779044584 -1.958853983628418 86 63 33
-0.013932301842039502 -0.37837959610797695 -1.9631734071013407 86 63 31
-0.014051544017766288 -0.3785871981181211 -1.968795747025591 85 62 30
-0.012746035758600949 -0.3816956954283023 -1.9720265432199413 87 64 34
-0.014857184325290318 -0.37784994845169323 -1.98102033226775 78 55 25
-0.01482169090817484 -0.378374490272728 -1.9864056540205781 72 49 18
-0.010008861160409416 -0.38861890935363647 -1.983686088402044 74 51 20
-0.011563244582011217 -0.385908646951459 -1.991767824745955 75 52 21
-0.010752141790081826 -0.38801080714951386 -1.995832226925217 72 49 18
-0.010940614192815667 -0.3880804194446676 -2.0016065068048223 72 49 18
-0.005126787639553071 -0.4003528937612064 -1.9970857436352893 77 54 23
-0.007791465252321911 -0.3953885598491503 -2.007110259097986 79 56 25
-0.008566276560315972 -0.39426730602311283 -2.0139044147320173 85 62 30
-0.009342909824783252 -0.3931434881146886 -2.0207154198759927 97 74 39
-0.010121702414628675 -0.3920164249509979 -2.027543909866924 85 61 31
-0.010405633720230956 -0.3918955507509482 -2.0335250721615035 80 56 27
-0.010834876236034824 -0.39148037020336907 -2.0397689040555353 76 53 22
-0.00874936621964445 -0.3961714517455523 -2.0416235246875316 75 52 21
-0.008928550760521126 -0.3962645929402701 -2.0474378116571224 78 55 24
-0.002729898949583087 -0.40930151278954846 -2.0420413098376673 78 55 24
-0.0022437348352387365 -0.4107434823933401 -2.0466680968975344 75 52 21
-0.002234902778448733 -0.4112172894278402 -2.0521409059231495 76 53 22
0.0012147392630317 -0.4186702838011164 -2.0515184216339586 78 53 23
-0.00142457838715504 -0.41377385553700563 -2.061696253021612 78 55 24
-0.0007595265024831765 -0.41557936721134325 -2.0660145006982864 77 54 26
-0.002943760471658785 -0.41160935285251776 -2.0754264015340365 77 56 28
-0.00039651776920357484 -0.41723049563012415 -2.0763848594953584 83 62 33
0.0019052584710521347 -0.42235278487478517 -2.0777665945318895 103 80 45
-0.0005515560604307246 -0.4178337408640411 -2.0877078430402425 106 84 44
-0.003021861183188451 -0.41328987444211673 -2.0977035843655134 84 62 29
-0.0024537183267559493 -0.41490144347426083 -2.102225085955339 79 56 25
-0.0017975141723420018 -0.41669139485297485 -2.10658773260498 73 50 19
0.000268778433342054 -0.42133569687806477 -2.1083824954999644 75 52 21
0.00316892563073784 -0.4276664609844356 -2.108641217291879 77 54 22
0.003706513396688288 -0.42921499966526544 -2.1132041602787544 80 57 24
0.0047458042498827735 -0.431778606855374 -2.1168474841816156 83 59 24
0.006786293085592698 -0.4363669628051176 -2.1186445351559824 85 61 25
0.00717093592052781 -0.43760575284929665 -2.1234841716383146 88 64 27
0.01096421324573274 -0.44573638615540095 -2.1220196846191732 88 64 26
0.0109073615896354 -0.44608183768703497 -2.127667533482982 83 59 24
0.010993481058522492 -0.4467168279468132 -2.1330566041943015 79 55 24
0.01223297085105926 -0.4496827928935938 -2.136300533517706 82 60 23
0.012499842631255947 -0.4506834297133903 -2.1413575670140967 87 63 25
0.014901772761293813 -0.45599675971558123 -2.1424161273982154 84 60 22
0.01386729802823114 -0.45436928602728327 -2.149916705722402 84 61 24
0.015923439610368878 -0.45898307419341267 -2.151609976937081 94 70 32
0.01491160305358874 -0.45740282606165833 -2.159086190613319 93 68 28
0.01665581925621354 -0.46138610525659485 -2.161358354212182 91 66 26
0.013920713015308644 -0.4563303620793856 -2.1721269750647885 93 70 29
0.017930045535694994 -0.46488324429895567 -2.1700872752607183 100 76 34
0.021058797372818183 -0.47165733169584007 -2.169695818438769 102 77 35
0.023727168571454238 -0.4775010441930109 -2.170161337044491 102 77 36
0.024799013897145283 -0.4801243470296652 -2.1736707080943845 101 76 35
0.026164463995272197 -0.483339144626209 -2.176611327038339 95 70 29
0.02656232552050372 -0.48460340186377143 -2.1814113544624227 91 68 25
0.02753841747919869 -0.4870329523394501 -2.185096002638087 100 77 33
0.029150341682651904 -0.49074311891762523 -2.1875450033881885 104 81 37
0.030204197936921362 -0.49332853263223203 -2.191069376431515 104 81 37
0.03158853310610393 -0.49657909962213065 -2.1939460072791244 105 82 38
0.03380307693217874 -0.5015004801617917 -2.195193695105855 106 83 39
0.03425618930688987 -0.502875148356944 -2.1998758936003324 105 82 37
0.03405482112833433 -0.5029329212227636 -2.205845388795258 105 83 36
0.03902578925984307 -0.5133980898639905 -2.2016416564726815 105 82 38
0.037465027130718254 -0.5107206492160133 -2.2102855941775394 102 79 35
0.03853346008722383 -0.5133327839451751 -2.213749885546635 109 86 42
0.038668450287548395 -0.5140676793926025 -2.2190617488769333 112 89 45
0.03812100637393978 -0.5134311106075348 -2.2257360811651257 111 89 44
0.04148613933095416 -0.5206594651080069 -2.224622526057398 109 87 39
0.04670340874600726 -0.5316074123100027 -2.2197801267477337 108 86 37
0.04633382737889688 -0.5313271928490814 -2.226086178050245 107 85 36
0.047672363199603496 -0.5344788511641201 -2.2289715715730893 103 81 34
0.04835746277476807 -0.5363176982110571 -2.2331660783550493 95 75 30
0.04932381207189701 -0.5387212275913135 -2.236792627604479 93 75 29
0.04977370680585946 -0.5400877816841128 -2.2414614132802027 94 76 29
0.051567929233541504 -0.5441525427905161 -2.2434048337184067 92 74 29
0.0525050959363593 -0.5464966330931472 -2.247080112809234 84 67 26
0.05440304810708349 -0.550767951703866 -2.2487935094510805 81 65 29
0.05724026213924285 -0.5569221103953761 -2.2485743553266886 84 69 39
0.05898931861917797 -0.5608923737669342 -2.2505630522063416 93 82 61
0.05181474054573734 -0.5469711228724363 -2.2708733448891154 123 115 102
0.0503126928579197 -0.544426718933648 -2.2795811294912345 161 157 151
0.05019916995764878 -0.544666772585515 -2.285444360466659 186 184 184
0.04998747983793839 -0.5447108076111598 -2.291518805641047 197 196 197
0.05083624994857161 -0.5468798620923 -2.2954020098193877 202 202 204
0.053284354790386956 -0.5522518017061357 -2.295956819158425 207 207 209
0.055923566232370936 -0.5580048793663376 -2.2960949061066707 209 209 211
0.05897120396136765 -0.5645738944322345 -2.295359033826144 210 210 212
0.059430760470687904 -0.5659609650183466 -2.300021767409431 212 212 214
0.05891026556581247 -0.5653871121741676 -2.3067453189162364 211 211 213
0.47458095854055937 -1.4221958570962365 -1.7350970123380667 214 214 214
0.4424471564619231 -1.35942134750429 -1.8209660185587047 214 214 214
-0.20671518312619536 0.11223260328468859 -0.9673849715428624 179 180 182
-0.19940354863641027 0.09640783459661695 -0.967076550335651 178 179 181
-0.19494457347708077 0.08660041971342641 -0.9687483686003711 178 179 181
-0.19099087978475515 0.07786025605910762 -0.9707541055154703 178 179 181
-0.1900560752360551 0.07548400855156545 -0.9749038919582979 179 180 182
-0.1861084963399633 0.06675977221211854 -0.9768779311727672 179 180 182
-0.1821801092331246 0.05807794723473236 -0.9788424078702139 178 180 183
-0.17813749248908606 0.049157471247008755 -0.9807002587243809 179 181 183
-0.1747961498278734 0.04171603588646383 -0.983047474454637 180 179 179
-0.17176673470713566 0.03493309517345494 -0.9856050548051568 174 171 168
-0.16857163856540122 0.027802735459897532 -0.9880231087078527 146 141 131
-0.16626314496594014 0.0225404308830644 -0.9910818946518927 115 108 98
-0.1637787854399469 0.016908934229450112 -0.9939975158936404 91 83 73
-0.16235360753506856 0.013507738547161807 -0.9976949067225858 85 77 66
-0.15936074898527483 0.0068080779753580956 -1.0002046666700208 84 76 62
-0.15800958777535723 0.0035640141830173278 -1.0039415444176123 90 79 66
-0.1571376325133581 0.0013284820381610496 -1.0080383399026116 93 80 67
-0.15585559239502245 -0.0017695064176689868 -1.0118199669987358 100 89 73
-0.15330429502748902 -0.007536505759457135 -1.0146215421912967 102 92 75
-0.15287814312476788 -0.00883359245357801 -1.019050645682625 97 87 70
-0.1521338123706037 -0.010799798693415796 -1.0232346484508543 86 76 58
-0.1531980993451324 -0.008963910357448257 -1.0288281104065307 83 69 50
-0.1524967540631506 -0.010840233768209973 -1.0330513276114823 80 67 47
-0.15134530703733778 -0.01366245870485977 -1.0369201373857486 75 62 40
-0.1512068730669343 -0.014355784120172355 -1.0415863030748924 72 58 36
-0.15110329648649157 -0.014976205721567215 -1.0462840682999592 76 62 40
-0.15053029660597073 -0.016583068975462745 -1.050611445006145 75 61 39
-0.15089867021592251 -0.016212797925747757 -1.055694159134054 70 56 34
-0.15127405175654995 -0.015828455709270828 -1.060790178127077 65 49 27
-0.15301977870334663 -0.012567436149405142 -1.0670024866218901 73 57 35
-0.1524128639557361 -0.014247055138041975 -1.0713207534456288 71 54 32
-0.15181803399165728 -0.01590134929556103 -1.075649386389735 68 51 29
-0.15731271665755675 -0.004775164993922887 -1.0849722760123015 64 48 24
-0.15501210777224678 -0.010010974915627802 -1.0879194973754622 62 45 22
-0.15018984572085278 -0.020536586106308374 -1.088768165271168 59 41 18
-0.14965107968591862 -0.022073515538841015 -1.0931463443798046 53 36 15
-0.1491122692658095 -0.023610623290378996 -1.0975254977066744 58 40 20
-0.1485733173718321 -0.02514811306785414 -1.1019055449160273 63 46 25
-0.1555369833006755 -0.010953438963760553 -1.1126060602502517 62 45 25
-0.15511683266111603 -0.0122443761599913 -1.117116575229713 63 48 28
-0.15469660624062262 -0.013535634918541262 -1.1216289565738673 65 49 31
-0.15442479390773634 -0.014515986721843788 -1.1262699396333586 69 53 35
-0.15339212248580059 -0.01709108523322489 -1.1302617477019086 71 57 36
-0.15155378136879466 -0.021354104738408763 -1.1335572724397518 68 55 34
-0.15146677209150278 -0.02194732851080672 -1.1383584925685248 66 54 34
-0.15226485330177542 -0.020686928398179705 -1.143932796939567 73 61 42
-0.15314388788197442 -0.019257914684994826 -1.149588788163391 81 68 53
-0.15437704118213516 -0.017088339397841268 -1.1555666734218133 105 93 80
-0.15446151746314177 -0.017325018029466066 -1.1605484478611532 113 103 92
-0.15560245334046485 -0.015350555869508786 -1.1664693335329732 129 121 111
-0.15614135073633323 -0.014637386560959142 -1.171869802613825 148 142 134
-0.15699624968228282 -0.01326366650044869 -1.1775610431203734 164 160 154
-0.15787252625233628 -0.01184619283229682 -1.1832830248164041 186 183 179
-0.15929906320972165 -0.009278479674917961 -1.1895112374153962 194 194 192
-0.16098578733160868 -0.0061678420720796545 -1.1959901989993436 197 197 199
-0.162722745579926 -0.0029536528006908758 -1.2025326468904411 196 197 199
-0.1645066876585946 0.00035724059843184053 -1.2091362229860998 196 197 199
-0.1650561889727255 0.0010854802194102398 -1.2146306489442167 197 198 201
-0.16616241271566495 0.002976790273931662 -1.2206452846862326 198 199 203
-0.1694771645198896 0.009483310954372215 -1.2287083068172955 196 200 203
-0.16881198749742934 0.007669516597802517 -1.2331199599007792 199 200 202
-0.1708774594773868 0.011561673578149967 -1.2400683802928119 199 200 202
-0.172099871670081 0.013690668384827687 -1.2462514995206762 199 200 202
-0.1740995432797891 0.017442092271853005 -1.25317720322286 199 200 202
-0.17656413612926702 0.022162831291056506 -1.2605607121010638 199 200 202
-0.18136860232384427 0.031767922880916954 -1.2701777164035568 200 201 203
-0.24195189040868997 0.15148923543564263 -1.4080217865067453 200 201 206
-0.28002130519060486 0.2298652342277212 -1.4573157389682656 200 201 205
-0.2658253480145077 0.1998324421737222 -1.4485063566452334 201 202 206
-0.2518776571099257 0.17032540959937037 -1.4398447431263612 201 202 206
-0.23682819318399034 0.13853340058528296 -1.4299544900282726 199 201 205
-0.2245355044347083 0.11248895226325506 -1.4227793492587675 173 172 172
-0.21274620996411098 0.08749976033673057 -1.416031916735961 116 110 104
-0.20179576444839623 0.0642633538482349 -1.4100645967157783 110 102 93
-0.19303104899574508 0.045581063613916895 -1.4062841587740706 109 100 88
-0.18386909047433578 0.026077775991114827 -1.402026935325953 101 91 76
-0.17684484012833326 0.011026115712108986 -1.3999374071872117 104 92 74
-0.1677098595444572 -0.008410578309384964 -1.3955839616046053 102 89 70
-0.15895207845289092 -0.027057422658154917 -1.3915612897172653 107 94 73
-0.15555387074108995 -0.03455734915242914 -1.3931397180457328 108 94 72
-0.1490948002173315 -0.04841743020492201 -1.3914496665029061 92 76 54
-0.1439028440932713 -0.05964042037701761 -1.3910633243952937 102 85 64
-0.14206656485836516 -0.06388793316698382 -1.3942278793639677 101 85 61
-0.13427370881445033 -0.08050936395305475 -1.3909935072684454 87 71 46
-0.13066938594667077 -0.08842584675418047 -1.3922126493433582 88 72 49
-0.12841101171794683 -0.0935450952522962 -1.394863184641825 102 85 63
-0.12615807241624433 -0.09865200623924231 -1.3975071312012843 95 78 57
-0.1240277370733398 -0.10350332384681554 -1.4002720879983432 97 80 61
-0.12518408387636784 -0.10153115392247924 -1.4066166283296915 98 81 61
-0.12223031586175552 -0.10809064625046344 -1.408468684416771 98 81 59
-0.11965491437196622 -0.11386345169466672 -1.4107190683679132 97 81 58
-0.11685415071117151 -0.12010256506247247 -1.412705412068615 92 74 51
-0.11558839411025412 -0.12315593956109877 -1.4163765225345 85 67 46
-0.11368802325893242 -0.12752518899358173 -1.4193368951958323 100 80 58
-0.1107561804761497 -0.13403266711727913 -1.421135754378881 100 80 54
-0.1090624913943599 -0.13797137727294806 -1.4243040587622737 107 87 57
-0.1080054151054594 -0.14058963427552357 -1.428180186319831 121 99 67
-0.10612053845175311 -0.1449234753717238 -1.4311189765519055 114 90 58
-0.1031141344213253 -0.1515807861895575 -1.4327777229705911 101 81 51
-0.10085268701238212 -0.15669289867025882 -1.4352645186377513 119 99 69
-0.09883812849187587 -0.16129244229865108 -1.4380201777540562 133 110 79
-0.09710492082207908 -0.16530828261888592 -1.4410871236308873 132 107 76
-0.09523349253717087 -0.16960966735327426 -1.443986731531192 133 108 79
-0.09280787355274352 -0.17505781477974414 -1.4462377414305212 124 99 68
-0.09318532055788921 -0.17470133679384586 -1.451717550426137 134 109 78
-0.09125304289382466 -0.17912681130953956 -1.454524308002272 116 89 60
-0.08976342248182584 -0.18263525654061397 -1.4578365764940786 111 85 55
-0.08824133041370377 -0.18621033871356002 -1.4611042528610572 133 107 74
-0.08661560562820529 -0.189999256919889 -1.4642434437502974 120 94 59
-0.08558948543435493 -0.19254713525768274 -1.468080773194401 127 103 63
-0.08389492255042443 -0.19647733057919015 -1.4711255560820364 97 75 41
-0.0828105771783159 -0.19914490185802308 -1.47488536829654 102 79 46
-0.08342317073589244 -0.19830352913909483 -1.4806603624174228 104 80 42
-0.08449919268704355 -0.19650499902141155 -1.4869990290295099 109 85 46
-0.08265432257538337 -0.20074501616728307 -1.4898536313941604 99 77 39
-0.08106590845646458 -0.20445423051326184 -1.493006839810005 90 67 33
-0.07884264711019127 -0.20947457017832338 -1.4953869549847443 91 68 34
-0.08036228467079667 -0.2067613339096548 -1.5022833545214624 91 68 34
-0.07810306384290165 -0.21185509789153495 -1.504609694942641 86 63 29
-0.07386531072399158 -0.2210338620862638 -1.5045125826560717 84 61 28
-0.07181461340630976 -0.22569415974187534 -1.5070595002121812 83 60 28
-0.0760175186953962 -0.21744278989954718 -1.5172651946841316 81 58 26
-0.07639155628801651 -0.2170982662769026 -1.522799153078039 84 61 29
-0.07347566355782857 -0.22354431618063475 -1.5242793882017889 77 56 24
-0.06655588563235537 -0.23825072498887678 -1.5207804869818304 94 73 38
-0.06955391581040803 -0.23249106369917094 -1.5295584073489539 92 69 34
-0.06750754368475022 -0.23713944805714038 -1.5320752216880937 93 70 36
-0.06905742872719958 -0.23436984875270017 -1.5390809121864595 93 70 36
-0.06825393814854876 -0.23645464698984747 -1.5431502889907691 89 66 32
-0.07070832927885252 -0.2318224928474385 -1.5513225589872568 89 66 32
-0.06763102301836234 -0.23859543459961385 -1.552529462499566 86 63 29
-0.06756634484284464 -0.23915758928192576 -1.5575364751572345 88 65 33
-0.06461524188612557 -0.24566814146278493 -1.558876335800104 85 62 31
-0.0643155943651355 -0.24671424464552927 -1.5635814934609535 88 65 32
-0.06524040394127596 -0.24523827028995898 -1.5698578033160262 92 70 34
-0.06603899156698693 -0.24402339117553484 -1.5759853169897373 104 81 41
-0.06276569314041203 -0.25119461582437447 -1.5768765089873469 97 72 33
-0.05908929479431339 -0.2591939420809364 -1.5772245484083165 87 63 23
-0.059207146650700745 -0.25938048537239256 -1.5824699873798658 121 101 58
-0.05651842154009841 -0.2653440684098035 -1.584068956356494 132 112 70
-0.05359797733935738 -0.2717830570478999 -1.5853483091683096 129 103 65
-0.0502328420897816 -0.2791353879721166 -1.5860260783575348 143 115 75
-0.048140694227538805 -0.2838670998583437 -1.588354107932417 143 116 71
-0.045954557350379496 -0.28879110837449856 -1.590546140485166 130 103 59
-0.04208921236218574 -0.29716717832636774 -1.5905041198481569 136 111 69
-0.03879176142927844 -0.3043733380961279 -1.5911885396191892 137 114 67
-0.03612103302900016 -0.31028925953254444 -1.5926848993746265 145 120 69
-0.03410281903252249 -0.314862601583703 -1.5950355947919153 159 131 82
-0.03117872526713336 -0.3212965368117811 -1.5961610937667852 165 137 91
-0.02859868024260903 -0.3270219552678365 -1.5977296959814185 160 130 89
-0.023294572606889524 -0.33834193806074 -1.5956091790103692 145 116 74
-0.020654840269572636 -0.3441862036169441 -1.597052612584229 155 127 83
-0.018022652317077906 -0.35001354625717307 -1.598489310870214 124 97 57
-0.016571636044379362 -0.35341429822328024 -1.6015167317743524 77 53 21
-0.017154975027191252 -0.35263830025406423 -1.6073149167573566 89 68 37
-0.01674256578870993 -0.35390692997660106 -1.611759868153029 69 48 20
-0.014538962694220378 -0.35885144323175205 -1.6137458962780094 66 45 18
-0.013087965544135341 -0.3622506819493491 -1.6167558519379253 63 41 15
-0.012292640045421285 -0.36430431133367674 -1.620665409662568 70 49 22
-0.011386006726638781 -0.3665861294262308 -1.6244193542781609 71 50 20
-0.014976451626154894 -0.3596458268574845 -1.6344271789274638 67 47 17
-0.02222529655244647 -0.3452078404071687 -1.6495767606166885 99 81 46
-0.029436081315453222 -0.33085362796025164 -1.6647413425564683 108 89 52
-0.03636530205127908 -0.3170822328568516 -1.6795786402401747 122 104 66
-0.04838896146192499 -0.29287688904687015 -1.7016568713846572 86 69 37
-0.048363435158548004 -0.29336752250926407 -1.7068223679602998 98 81 45
-0.047478601749906035 -0.29561888740145387 -1.710775748487854 94 75 42
-0.04697523384269536 -0.2970888193706997 -1.7152695264382847 97 77 45
-0.045761787505648494 -0.3000129241777159 -1.7187523462036502 80 60 28
-0.043466360116677025 -0.3051518397709889 -1.7206830534774868 88 68 33
-0.043730904093199935 -0.3050493145326127 -1.7262719445581238 79 59 24
-0.04554816619608429 -0.30176964291628644 -1.7341031921929309 89 69 34
-0.04478644086751064 -0.3037690810784263 -1.7382340625469057 96 76 41
-0.04458208825498865 -0.3046281309565124 -1.743171032651794 87 67 32
-0.04461684737234134 -0.3049984191596643 -1.7484593063620701 92 70 36
-0.044777877197407195 -0.3051109883277871 -1.7539376947974676 90 67 33
-0.04417695475723599 -0.3067822018885033 -1.7583103723984832 88 66 32
-0.04218626155995303 -0.3112947340248666 -1.7606474440139457 84 64 31
-0.04455012424650906 -0.3069053994264734 -1.7693722793347542 81 61 28
-0.04430695380020147 -0.3078462352204767 -1.7742811663221538 81 61 28
-0.04543363047307586 -0.3059883860994254 -1.7812190325888815 82 59 26
-0.03942054063637393 -0.3187178964013923 -1.7775859681881832 82 59 27
