ply
format ascii 1.0
element vertex 697
property float x
property float y
property float z
property uchar diffuse_red
property uchar diffuse_green
property uchar diffuse_blue
end_header
0.3919687308059008 0.37261625270286225 -2.2281089295204586 80 71 42
0.39455215121354525 0.37155211807696176 -2.2321192404111962 76 67 38
0.3936369895022189 0.3722746043212083 -2.2392894540567725 76 68 39
0.39474991538199133 0.3719617055073138 -2.244635327760345 81 73 42
0.40087067116519026 0.36909040450002994 -2.2454319527234965 82 72 41
0.402330002785393 0.3686003074569715 -2.250457514910907 90 78 47
0.40353396001354747 0.36824083438989863 -2.255718999559659 103 90 63
0.41820079846433156 0.36125401478610736 -2.254980582753854 124 116 100
0.4204903544425661 0.3603385119089057 -2.259220607009129 137 131 120
0.4241236777339624 0.3587355484025776 -2.2622161413868453 148 145 137
0.42006452266833805 0.3615813100581795 -2.2850985424121943 178 178 178
0.42908211042813704 0.3572219934247605 -2.2830626880098444 185 185 187
0.4371972201050026 0.35332331201285494 -2.2818361482683183 190 191 193
0.4506718145681391 0.34667840761446045 -2.2755378431425206 194 194 196
0.46354176377060086 0.34034081473511757 -2.269749284013232 197 197 199
0.44439814801593613 0.35040377392227073 -2.294172727284522 199 199 201
0.5109245764162559 0.31731869268406454 -2.2561642284504217 204 204 204
0.5144347976837118 0.31576958754723583 -2.25904702544787 204 204 204
0.5131255250401424 0.31669256749705316 -2.2665541301011296 205 205 205
0.25671065695677786 0.4287814866795927 -2.171598622927586 124 108 94
0.2634820755092978 0.4256106115375379 -2.172361283537571 124 108 93
0.2746612257520863 0.4202094426835402 -2.169415455146713 124 108 92
0.2873758095377067 0.4145332123794314 -2.1778697144247414 120 105 87
0.2915035248592541 0.41269617883318965 -2.1807590342033656 121 104 85
0.2971018624477122 0.41011419129263726 -2.182390159474413 120 102 81
0.30545764169089384 0.4061352122790155 -2.181657340696612 117 100 80
0.311790453898928 0.4031795514827406 -2.18261911502306 112 95 75
0.31285960065366314 0.40288942461352306 -2.188063680358817 108 92 71
0.31989095325543593 0.3995786435199423 -2.188395704451331 103 87 67
0.3219314778274832 0.39879602550953974 -2.192998256813453 101 85 62
0.3234785791138579 0.3982634879555566 -2.198026333351848 98 82 59
0.3345226398561991 0.3929164711990911 -2.194834983414377 95 79 56
0.33933392400959483 0.39072803364704567 -2.197009549900634 92 78 54
0.33053330315367935 0.3954423843584519 -2.2110215767800545 92 78 55
0.3484856571966949 0.3873422560970906 -2.220794372371341 91 77 55
0.36314062649169077 0.38015472970504727 -2.2142259376320577 91 76 53
0.3685858466890215 0.37764093400127474 -2.2157510766554362 90 77 51
0.376104639184737 0.37407337191794365 -2.2154165896452698 91 77 51
0.3803087007755621 0.3721884158510901 -2.21800669195546 91 77 51
0.3877429357712442 0.3686619103445574 -2.217699618182614 89 76 49
0.38647728926290725 0.36955516241185477 -2.2251587436730995 87 75 48
0.3896055337031915 0.36821585076830804 -2.2286865045590836 86 74 46
0.39656323466420484 0.3649295822233678 -2.228757928950679 83 71 43
0.40078929907629823 0.3630312112462766 -2.2312718185534517 82 72 43
0.4023165999283689 0.36250484508604475 -2.2362192510744974 84 73 43
0.4048254232766233 0.3614793020012774 -2.240276869996558 86 73 41
0.40755455033824584 0.3603415595130779 -2.244130757405064 93 78 45
0.4116600556029094 0.35850327183911657 -2.2467228363835354 96 79 46
0.4119127824639114 0.35862545176684546 -2.2528341175067035 101 86 56
0.4253140787751434 0.3520545349295219 -2.2468717395214193 111 97 72
0.42587042200709446 0.35202146462168815 -2.252686559458262 120 108 90
0.4275386944085492 0.35142240387633095 -2.257480899756463 131 123 109
0.4286735121146904 0.35109511847124175 -2.2627708409909197 143 138 129
0.41820801915623407 0.3566780092605492 -2.278844237586321 153 151 145
0.42170364679977657 0.3551492283286446 -2.2819724879088357 166 165 162
0.42819250202355197 0.3520945493907337 -2.282295635863136 174 174 174
0.43969911678209794 0.34648098487552603 -2.277893261839552 183 183 184
0.4449191360070781 0.3440708649888954 -2.2793480258016494 188 188 190
0.4538836617143357 0.3397504211753618 -2.2772573019580573 192 192 194
0.46004356454594386 0.33685912440715293 -2.2777796699195476 195 195 197
0.44736902807718215 0.34357612153999983 -2.296124891604438 198 198 198
0.45102835270624386 0.3419610472798839 -2.299027826873033 200 200 200
0.5079862055436603 0.3136359799471516 -2.26363346209814 203 203 203
0.5268552346596489 0.3042468789178471 -2.251767462396664 204 204 204
0.23780194926583575 0.4320270864115919 -2.172957298187138 124 111 96
0.24853140637885307 0.4268768195285552 -2.1705002240033284 124 111 94
0.26151928144423287 0.42058802883060403 -2.1661247717050687 125 109 94
0.2719247623714739 0.41559735639109174 -2.1638469218472003 124 108 93
0.28690524967316644 0.408547889769772 -2.164053247139514 122 106 90
0.28923714542905277 0.40762021729609677 -2.168450895118952 120 105 87
0.29668610738179146 0.40411414896547404 -2.1685339025389436 119 103 85
0.3032021501780323 0.40107719134539876 -2.1693785721274623 119 102 82
0.30469198452280377 0.4005728711641827 -2.174461867521034 119 101 79
0.3091701742591084 0.3985620465439913 -2.1770067178377746 117 99 77
0.316084460309785 0.395322334514814 -2.1774618961126175 115 97 74
0.32355404324863934 0.39180160778131967 -2.1774177014926552 111 94 70
0.32868850779014813 0.3894577556399755 -2.1793489113729905 106 89 66
0.3355820711906873 0.38622575413691845 -2.1797512863567015 106 89 63
0.3474732907165651 0.38047079721158616 -2.175818048634215 104 87 61
0.3451424049845794 0.3818922892456992 -2.184138912310224 100 84 58
0.336283664927596 0.38661006775390305 -2.1981446113782623 98 82 57
0.35919026552069233 0.3755357606290616 -2.1908696522466595 94 78 54
0.3616609538750226 0.37453314663775994 -2.195021452737322 93 78 55
0.3639691238359246 0.37361253611352907 -2.199313205086672 92 77 54
0.3685479629309776 0.3715444455155309 -2.2016046381570376 92 77 55
0.3681549542616991 0.3719886833058563 -2.208271092675088 91 76 53
0.3713577009189677 0.3706156771770023 -2.211766485621184 92 76 51
0.3742451065384309 0.369401862472004 -2.215535408100495 91 76 50
0.3828849198961999 0.3652788167266635 -2.214178707000702 91 76 50
0.38833635877499895 0.3627671548723921 -2.215634432526763 92 76 50
0.39371214135071586 0.36029307396364413 -2.2171400332885223 91 75 49
0.4008454781452053 0.35692898195719436 -2.2170501714828523 91 76 49
0.40331829475705894 0.355922565199156 -2.2211299232528603 90 75 48
0.40531510440485885 0.35515699486492447 -2.2256366457312944 91 76 49
0.4066689252981317 0.354716955406537 -2.230725168863768 95 81 52
0.40885100553846065 0.35385759712438136 -2.23506451968335 95 80 50
0.41676855306066773 0.3500931711660473 -2.2341800207645033 97 82 50
0.419046322086575 0.34918466132827713 -2.2384146112029586 99 82 52
0.4212449860754024 0.3483161616422079 -2.2427197762785083 101 85 54
0.42930497804623313 0.34447708703700486 -2.241641233283847 97 80 52
0.43180002571866205 0.34345765049693655 -2.2456554629930126 104 87 64
0.4323436253178249 0.3434274804863754 -2.2514686774504513 114 101 82
0.43325137013163295 0.3432129265831022 -2.256951748848777 124 116 103
0.4223986967394888 0.34896346720397203 -2.2733605938998975 135 131 121
0.4236449769815861 0.34857876179639335 -2.2785692885104702 149 146 140
0.43242926738106846 0.3443693888534185 -2.2767426864092504 161 160 157
0.43941804185094435 0.34106985978173854 -2.2765616845037955 172 172 173
0.4446943389765442 0.33863856553165994 -2.277962249985756 180 180 182
0.45230529118136986 0.3350212715938026 -2.2771470005463708 187 187 189
0.46086403732748105 0.3309215237483647 -2.27540707254874 192 192 194
0.4720106163587643 0.32550603976765535 -2.271182152176611 195 195 195
0.4501560683720621 0.3368536008832862 -2.2982410641565374 197 197 197
0.4551722801911513 0.3345526297302313 -2.299842169306159 200 200 200
0.5147425440094078 0.30452584409139466 -2.249345178111351 202 202 202
0.5231163791221004 0.3005112851503065 -2.2475557218868047 203 203 203
0.5181495359430122 0.3032780547236332 -2.2585383304068447 203 203 203
0.24757887094908138 0.42133096251942737 -2.16341166553865 125 111 97
0.2572354355119463 0.41673642141407685 -2.161819504535226 125 111 95
0.26601488617612856 0.41258006092237065 -2.160918072342198 126 110 94
0.27694924819054945 0.40734220343840266 -2.1581896030172794 124 108 93
0.2803406420166177 0.4058845828640202 -2.1617151923782005 123 107 91
0.28623718844024426 0.40317042609488707 -2.1631361259287796 122 106 88
0.29260594049208044 0.40021869207767935 -2.1641412806320415 121 105 87
0.31138634411497945 0.3912806888886887 -2.1609822367221163 119 101 81
0.31325869512536586 0.39058242903036783 -2.165716934599722 115 97 75
0.3193699941929595 0.3877564697892004 -2.166850431092342 115 98 73
0.3255587597107805 0.384890836303073 -2.1678974100625896 112 96 70
0.3303828313995625 0.38270966077992036 -2.1700897024992005 107 90 65
0.33437695947885293 0.38094476222907786 -2.1729790800114794 106 88 63
0.3382107062672043 0.3792600392572724 -2.1759961655394497 108 88 61
0.3448830630466063 0.3761487930366645 -2.1765569248467935 108 88 59
0.3405015981612699 0.3785913241642479 -2.1866503304690244 107 87 58
0.33744010572285543 0.3803716307404519 -2.1956308102475397 104 87 60
0.3484940137672188 0.3750570497054647 -2.192362977188632 101 84 58
0.35764681378541896 0.3706966039931113 -2.1907074129631474 98 81 55
0.3642655844445932 0.36760912627001563 -2.1912317703390647 96 79 54
0.369171427831121 0.36538233571583106 -2.1932349071922155 93 78 53
0.37341381016639585 0.36348875248497337 -2.19580664767385 93 78 52
0.37314245483606134 0.36386595070982797 -2.2023480048523707 92 76 50
0.37497743459653476 0.3631835027267495 -2.2070372986581974 92 76 50
0.3820987401168974 0.3598400796704773 -2.2070377639640375 93 76 49
0.38538803207844563 0.358424957327415 -2.2104209392893077 94 77 50
0.3873903952305392 0.35765762551799984 -2.2149453197889915 96 79 51
0.3945551424189748 0.3542901785110235 -2.214850775683595 98 79 51
0.4026958358603884 0.3504300741731955 -2.213854043042857 100 80 53
0.405678089082139 0.34916787748637623 -2.2174669143563204 102 82 55
0.411221439454167 0.346614799107498 -2.2187635515097766 101 83 54
0.4108942958723376 0.347020044049126 -2.2253534647066484 100 82 52
0.41282360456790124 0.3462881385286227 -2.2299073666233653 102 84 54
0.4220699834441104 0.34186662486780495 -2.2278031507941813 98 82 50
0.4245926803990935 0.34083472659415315 -2.2317967113291424 99 82 52
0.42950265873421245 0.3385984632545116 -2.2336026251175394 98 81 52
0.43147032109680994 0.337846127637737 -2.23809307376226 92 72 46
0.4340962199800219 0.3367616087138424 -2.2419775008761182 87 67 43
0.43712368458462936 0.3354742633316967 -2.245487667396683 89 72 52
0.43737651310179637 0.33558743120616363 -2.2515595783579863 105 94 73
0.4355966198995327 0.33672731564209235 -2.259526281617188 118 110 94
0.43492056347094865 0.33731045516771396 -2.2664849185220084 131 126 115
0.4294392567446219 0.34032139181506604 -2.2779408589106667 145 141 137
0.4352299901919301 0.3376388102014283 -2.278887713013643 158 157 157
0.44013432905475414 0.3354033812722256 -2.2806461422214177 169 169 171
0.45043980208717405 0.33043746307585264 -2.2773069210410384 179 179 180
0.45605364097838086 0.3278416316845205 -2.2783506272509215 188 186 189
0.4678423655993045 0.32212285718856504 -2.2735325880049353 192 192 194
0.4858889594307294 0.31323731914007824 -2.262725540223582 194 194 196
0.4680652025945329 0.3224928227152132 -2.2859604369456488 198 198 200
0.5053849689035821 0.3038535376355316 -2.2566911338960143 199 199 201
0.5226065173013531 0.2953774397453103 -2.246462358964611 201 201 203
0.25788986473360287 0.41041876610481126 -2.15343845839982 122 109 92
0.27531203139657834 0.40196560088495603 -2.1453989096856527 123 108 92
0.2809277151864076 0.39940106474482884 -2.1470774796122027 123 107 91
0.2903061055463655 0.3949579247367524 -2.145608049229001 122 106 89
0.2903565517412471 0.39540718777642414 -2.1582140571885877 120 105 84
0.29523443737196453 0.3932090921590537 -2.1604587225940435 118 102 81
0.3002393491534949 0.39094701686931177 -2.162582200574136 114 97 76
0.3143889633475926 0.38411613381357723 -2.156971257500637 111 93 70
0.31041170691724296 0.3863399761433143 -2.1666467407985417 110 92 68
0.3144285535786223 0.38456997385471825 -2.1695638733213136 108 90 65
0.3201843363654133 0.38193042100513785 -2.170990083377013 105 88 62
0.32580582636599653 0.37935729989703765 -2.1725122113265245 104 87 60
0.32986026853449146 0.3775670435225857 -2.1753583339418228 105 86 59
0.33887493999837426 0.37329575230483014 -2.1739334161057435 102 83 54
0.3420953771545884 0.37192142035090275 -2.1774647995926255 103 84 53
0.3358450065600307 0.37528502845444084 -2.1891718616365186 104 85 54
0.3422553082049433 0.37231493933525583 -2.189950374196868 103 85 55
0.349091704244584 0.36913076429777203 -2.1903364114812964 102 84 55
0.35815212425904785 0.3648323860159237 -2.1887600202073076 102 84 54
0.3716659483542205 0.358302999269196 -2.1832562148171233 100 82 54
0.374345481617291 0.3571968289939245 -2.187189616709894 97 80 52
0.37825465139362247 0.35547464730859235 -2.1900385047264113 96 79 51
0.3781039270856843 0.3557858933515514 -2.196455905304117 97 79 50
0.37785131152866147 0.3561485830008634 -2.202973811709411 102 82 51
0.384911457949103 0.35284697994186187 -2.2030202623270347 105 84 53
0.3904082105918092 0.3503280297388581 -2.2044306371599105 104 84 52
0.39442835115319663 0.34854866866600875 -2.2071393620672914 105 85 54
0.4026980834632654 0.344638067741799 -2.206038174509821 104 85 54
0.40667661840137925 0.3428783705508528 -2.2087521560538783 103 84 53
0.40733690431372727 0.3427827568153239 -2.214439127746009 106 87 55
0.41188328214088143 0.34073769753549255 -2.2166285667355927 110 92 60
0.415125538010536 0.33934654871046555 -2.2199837841692958 113 93 63
0.4183405478980051 0.33796882008474616 -2.223356921030481 107 88 57
0.42231156579088314 0.3362113290654901 -2.226035954306463 102 84 51
0.43008468038734926 0.33254444280289663 -2.22523745148459 101 84 51
0.431728798670289 0.3319543338615044 -2.2300133995960323 99 81 51
0.4339134368640777 0.33109278058962954 -2.2342950284811267 93 73 45
0.4362811452169537 0.3301392023939748 -2.2384068702797553 89 69 42
0.4394121476574425 0.32880199711894775 -2.24181246202857 85 66 41
0.44177455597625714 0.32785082933463355 -2.245922453664925 92 77 51
0.4411853967404762 0.32838323770323297 -2.252767050948667 105 92 71
0.44067018327622265 0.3288789519865295 -2.2595557748738755 115 106 92
0.4400007743877441 0.32945267586316207 -2.2665008168618024 128 121 113
0.43765469966808324 0.331108338683763 -2.2813754978645693 156 154 151
0.4442807635080075 0.3280129008073759 -2.281503628395098 169 167 166
0.4549634077357695 0.3228750479733512 -2.2777823257195555 179 178 179
0.4657361165239394 0.3176901423320182 -2.273930053063747 186 186 188
0.4719378391457848 0.3148047627614579 -2.2743651556688063 191 191 193
0.4791113760125576 0.31142918090176785 -2.273853773281254 195 195 197
0.48652510138166694 0.3079315892632194 -2.273085697234872 198 198 200
0.5047564380194551 0.2989835805075942 -2.2619472309865105 199 199 201
0.2608849378388596 0.4027251915852884 -2.1368224060092054 123 108 92
0.2677899823608966 0.39953000575731834 -2.137486678783409 120 105 89
0.27053412310041647 0.3984003718281352 -2.1415559039630496 118 103 87
0.2762560675531993 0.3957914659359951 -2.1431602752091474 119 103 86
0.28324072742733 0.3925545599624145 -2.143699738286388 119 102 84
0.289527916285234 0.38966332745939253 -2.1447946332182077 119 102 83
0.2957538473954864 0.3868017633909886 -2.1459195380759746 118 102 81
0.29130556480862413 0.38924535720131737 -2.155949717568412 117 101 78
0.29169769387665745 0.38928360363119074 -2.1619517036736546 112 96 72
0.31046792058879114 0.3801834593217814 -2.152503149722902 107 91 66
0.3149095300627376 0.37820660709332404 -2.1550594408601036 104 87 61
0.3071589844430388 0.38229416786709924 -2.1679184563179685 102 85 59
0.3092065014862394 0.3815086525569954 -2.172511628400596 106 87 62
0.31427018059873246 0.3792222149624277 -2.174537742380524 105 87 60
0.32095014587608495 0.3761307677574386 -2.175169156520007 103 84 56
0.32658050097739855 0.3735609597141716 -2.1766755778411766 99 79 50
0.3346541666555749 0.3697739707277432 -2.1760665312424656 95 75 44
0.34016168646438916 0.36726376701237234 -2.1776361852047703 100 80 48
0.34300941734604196 0.3660776914562507 -2.181484426892164 104 84 53
0.33970554014831056 0.36795598804803586 -2.190654330901463 105 85 54
0.34769966439416766 0.36420590097010985 -2.190040225844618 104 85 54
0.3587740263712589 0.3589196592895185 -2.186713676338353 104 84 53
0.36234466556552325 0.35737192405889867 -2.1898944909544937 104 84 53
0.38329791477576014 0.3471580240287808 -2.17784341857876 106 87 57
0.383706501602908 0.3471847704237838 -2.1837415328266094 105 86 56
0.3848081413923743 0.3468661557378044 -2.18903677083912 106 86 55
0.38660193540082055 0.3462024364394136 -2.193724718579773 108 86 54
0.3927190821646058 0.3433817922219129 -2.194583477295284 109 86 54
0.3942208112402905 0.34286345841790433 -2.199521256877727 107 85 53
0.4028924296203047 0.3387667656061073 -2.198073537950342 107 87 55
0.4074139058462488 0.33674050479030304 -2.2002994784974303 109 88 57
0.40742482669667035 0.3369657812337099 -2.2065534456842624 109 88 57
0.4114609365666221 0.33518134530680666 -2.209200455493061 109 89 58
0.4123847969449823 0.3349509735883841 -2.214640899325199 109 89 58
0.41598005291597473 0.3333862657636856 -2.2176725541632734 109 89 58
0.4195930662079461 0.33181236910274514 -2.220679531010381 107 86 55
0.42227415634707066 0.3307038781416083 -2.224524625207389 105 85 52
0.427540849102379 0.32830285006063653 -2.226009682264697 104 84 52
0.42886434560631936 0.32787253328354604 -2.231080797666888 101 82 50
0.4301885729361985 0.32744196083392296 -2.2361542231683313 100 80 50
0.43689963636849094 0.3243174075879518 -2.2362805354224653 96 76 47
0.44206025390185544 0.32196750711193245 -2.2378108558489984 92 73 47
0.44558390402755366 0.3204359866504704 -2.240837062019475 91 73 47
0.4476339308078323 0.3196415725922673 -2.245220422922039 99 83 57
0.44638526021017255 0.3204981432969075 -2.252668271716923 109 95 75
0.4457238138842555 0.3210613494583472 -2.259585217803593 116 105 92
0.44424526730422353 0.32203416335999724 -2.2672789593465588 128 120 111
0.44501416697860674 0.32188212256038284 -2.2728843659964557 141 136 129
0.4457192315020373 0.32176227359228426 -2.2785556613591242 156 153 149
0.45508729009329385 0.317302642495195 -2.276070763057953 167 167 165
0.46379793593266927 0.31317099319211733 -2.274168078321431 178 178 179
0.4700310952821709 0.31027968814238305 -2.2745770823673013 185 185 187
0.480789287159367 0.3051192760615575 -2.2706643376659525 191 191 193
0.48483371421722454 0.30332322052600746 -2.273101183724087 194 194 196
0.2582243791841794 0.3983242423774296 -2.1375515055891596 119 104 87
0.2719208175578718 0.3917825253572945 -2.1326445755879933 118 102 85
0.27932133580558915 0.38835174351973145 -2.13286561126552 116 101 82
0.2850892996880987 0.3857273609269841 -2.1344086792662083 116 100 80
0.2872571950742051 0.38488297847794295 -2.138915413344101 116 100 80
0.2901944579550747 0.3836579471534233 -2.1427819653896836 113 96 75
0.29643320780457727 0.3807991794600933 -2.1438928916707316 110 94 71
0.3017946113417649 0.37837384250006323 -2.145716114114069 108 92 67
0.29992242884471776 0.37952833511351314 -2.15358521275804 103 87 61
0.3145740388742243 0.3725032093059651 -2.1475839357301285 104 88 62
0.3168499147436914 0.37160368174284886 -2.151953222713396 106 89 61
0.31950196299609457 0.370517800856876 -2.1560028657681922 105 88 60
0.31151435271130334 0.3747019142356133 -2.169070569528539 106 86 61
0.31665185660215034 0.37238539328486675 -2.1710259049956453 105 85 57
0.3280465575565321 0.36696782606387757 -2.167629152500674 102 82 53
0.33453295000425254 0.36398110750967383 -2.1683839019587188 99 78 48
0.3435409301330845 0.3597436643366389 -2.166953217252866 99 78 47
0.3458548516079083 0.3588236978087578 -2.1712461660631535 106 85 55
0.3478952045328666 0.35803931643502246 -2.175773263070186 107 86 55
0.3511596029021957 0.3566478463881002 -2.179240769589875 107 86 55
0.35884187649287635 0.35306467776701983 -2.1788682193833506 107 86 55
0.3614919380567785 0.3519771245099581 -2.18284608498314 106 85 54
0.3637593537851067 0.35107931958950234 -2.1871542971870714 107 86 56
0.39656173822763197 0.3350265046107051 -2.1647366060746935 108 87 58
0.3955434547812181 0.33575685130735844 -2.171848875448208 107 86 57
0.3966432571863142 0.3354361077709727 -2.1771114488303356 107 86 56
0.39616454527949285 0.3358993801195653 -2.183771475066821 109 87 55
0.4004678888460127 0.333987947565885 -2.1862102600014914 109 87 55
0.4033381774736531 0.33278797590575315 -2.1899091977020158 109 88 57
0.40696007658198097 0.33121438391461966 -2.192934144537667 110 89 58
0.4102088002694837 0.32982592882826334 -2.19628360718685 110 89 58
0.40878361385289685 0.33076036098128536 -2.2038110014147465 110 89 58
0.4133949669555087 0.3286944328808666 -2.2059352520868574 110 89 58
0.41651029342827284 0.32737187215686736 -2.20939281884744 110 90 58
0.41970741189479166 0.326008412602411 -2.2127703867053192 109 88 57
0.42320600125828445 0.32449476060225346 -2.2158683979104175 108 88 56
0.4223420639382286 0.3251511818221222 -2.2229196626595336 108 88 56
0.424825589565599 0.32414243451552294 -2.226936859444016 106 85 53
0.44096174899436913 0.31633883946197916 -2.218484062941936 103 83 51
0.441280219603319 0.3164063339898008 -2.2244429505366865 103 83 52
0.43986118271612373 0.31733917837701586 -2.232005457962484 99 79 49
0.4475494826457398 0.31373749879651736 -2.2311984376364107 97 77 50
0.44892241182512105 0.3132801662611566 -2.2361934252763525 96 77 52
0.45024517204151915 0.31284792256867444 -2.2412375545934773 93 76 51
0.45156882284506406 0.31241534182175473 -2.246283806986102 98 82 57
0.4509361764445087 0.31295776653726726 -2.2531546737243344 107 94 74
0.449379993894947 0.31396098507748554 -2.2609010032599004 114 104 89
0.44638996019529964 0.3156796638708735 -2.2700078539773063 128 120 110
0.4429825143684121 0.3176073915890283 -2.279532047781755 140 135 128
0.45310833308678233 0.3127868865477552 -2.276341453595175 153 152 149
0.4610112228101967 0.3090736482997779 -2.275206841521045 167 166 166
0.46616911843114883 0.30672876253505754 -2.2766398009395123 178 178 180
0.4735777483287067 0.3032601493205424 -2.275918868846001 185 185 187
0.477283310871082 0.30163866358861746 -2.278694425051659 191 191 193
0.48509361234929027 0.29796780099400705 -2.2775419199352083 194 194 196
0.4936829272539077 0.2939068658692221 -2.275612578392695 198 198 200
0.22436800897091191 0.4076861425131394 -2.119161653967926 124 109 95
0.2984230005525075 0.37349339399996906 -2.121954280195404 115 100 79
0.299126131804865 0.37336946990583053 -2.1276372371668977 117 102 81
0.30045931644221424 0.3729354465111664 -2.132803171087594 114 99 76
0.30227957993192356 0.37226159136089537 -2.1375665447558743 106 90 65
0.3093978329710404 0.3689774727332743 -2.1379062321051343 105 88 63
0.31109890833205867 0.36836193788790594 -2.142757784492409 105 88 62
0.3185185619573778 0.3649279467604214 -2.142807045383201 106 89 62
0.32423929001334995 0.36233049705471476 -2.144260740497435 107 90 61
0.32746763198762696 0.3609612386921669 -2.1478016873828802 107 90 61
0.3309033533094792 0.3594894914254543 -2.151160592951294 107 87 61
0.33651205784572413 0.3569457342415435 -2.1526655470925586 107 87 58
0.3404119503583265 0.35524429740657826 -2.155608777018539 108 88 58
0.34363015129581476 0.3538788568820196 -2.159124980216538 108 87 58
0.34571521409117245 0.35307237019218085 -2.163606167186209 108 87 58
0.34776342064966936 0.35228404796411605 -2.1681182911463166 107 86 57
0.3500196578084528 0.3513930105276922 -2.1724504947294196 107 86 55
0.352811352568269 0.3502375384172541 -2.1763181228843744 106 85 54
0.37892877788421175 0.3375629653877972 -2.159955269656285 106 85 54
0.382476748110557 0.3360315907171978 -2.16309861309205 107 86 55
0.3880069502345975 0.33352069047714783 -2.1645050976774223 107 86 56
0.39158555086682856 0.33197342690862774 -2.1676003886700177 107 86 57
0.39731236139446435 0.32936425536686315 -2.1688031339331855 107 86 57
0.3984759057251397 0.3290099057174849 -2.17400063585373 107 86 57
0.3985469301439899 0.3291957890169281 -2.1801655946446092 108 87 56
0.3970578913822296 0.33015337531513134 -2.1877198576126973 109 88 57
0.39768557630751245 0.3300647621533986 -2.193413376762947 109 88 57
0.400001952652968 0.3291411006436098 -2.1976109914553836 111 90 59
0.4034505116310182 0.3276572534173814 -2.2007964397327644 111 90 59
0.40946847008797627 0.3249017668932368 -2.201675222530614 111 90 59
0.41419796729257075 0.3227832008765893 -2.2036892763344813 111 90 59
0.41624486483309786 0.32199198534010454 -2.208102785969716 110 91 59
0.4234805999462635 0.3186318566717041 -2.207833538130462 109 90 58
0.4241687113342105 0.31851295140099223 -2.2134619314653503 109 90 58
0.429653742461373 0.31601854159055764 -2.2147436802124263 107 86 55
0.4370549289657083 0.3125743135770816 -2.2142634906720744 104 83 52
0.44542855628205213 0.30864729986104816 -2.212867794078842 102 81 50
0.444792233617471 0.309183831024444 -2.219683827555735 103 82 51
0.4467127078324913 0.3084536135354876 -2.224166562639739 103 82 51
0.4527894290466956 0.30566307890372446 -2.2248244866534286 100 81 51
0.45373793461305867 0.3054143791883271 -2.2301931599634672 99 80 54
0.45469030787305575 0.3051639332996977 -2.23556309567672 97 79 55
0.45563676026590916 0.3049165955930875 -2.2409433584555187 91 75 48
0.4565872558632046 0.30466742511789474 -2.2463247336235153 93 77 54
0.45445485662335683 0.30594807415380953 -2.2545876839563284 100 87 68
0.45149262884739827 0.3076412775933297 -2.2636479728819703 112 101 89
0.45061286428142533 0.3083017320051351 -2.2707794862180974 125 117 108
0.44991045761206794 0.3088746499596172 -2.2777585678400696 139 135 130
0.4577728151070525 0.3051952921058428 -2.2766702471161118 153 151 150
0.46448679555836847 0.3020851535768662 -2.2766373386489613 168 167 166
0.4707784230548082 0.2991839158944646 -2.276979966408424 178 177 179
0.476404282465437 0.2966126278972063 -2.2779329591167166 185 185 187
0.4845435841223005 0.29279168519280435 -2.276468626203973 191 191 193
0.496245543851228 0.28719891802501896 -2.2715634564155756 195 195 197
0.4933321911241063 0.2888695696928333 -2.280626007382863 198 198 200
0.20513999881684575 0.41068029548055185 -2.114019537138954 109 93 72
0.22174989339504592 0.4027767551676844 -2.107158526849452 110 94 72
0.22884113791015048 0.3995277652283564 -2.1078274807114745 111 95 73
0.23436958725296997 0.39704265104237074 -2.1097235397516982 113 96 75
0.23891115652081218 0.39503993997753145 -2.1123952957286645 114 98 74
0.2405274243991069 0.3944687277381792 -2.1174112823516373 114 98 74
0.31224060625473804 0.36152155744444425 -2.121579660262415 114 98 73
0.3156629456420096 0.3600605844019781 -2.124977178763238 111 93 69
0.3179688028243708 0.35914700100037344 -2.1292992248705023 113 94 69
0.32303694458066745 0.35687820529951264 -2.1313075431021526 114 94 69
0.33219911886175435 0.3526000364567995 -2.1298640020373876 109 89 63
0.33273149388867673 0.3525558026594131 -2.13565018350245 108 88 60
0.3360873777198412 0.3511259000125242 -2.139059314488159 109 89 62
0.3376913978807097 0.35055579915053525 -2.143944878121861 109 89 63
0.33720226700727784 0.3510135270180866 -2.1506096025186006 108 89 60
0.3392936220536822 0.35020438669039755 -2.155088498456119 108 88 59
0.3420333220944537 0.3490767599552679 -2.159012840876513 107 86 57
0.35103929102459985 0.3448705377839331 -2.1575654276746516 107 86 57
0.3536391888053273 0.343810787870783 -2.1615864191482728 107 86 57
0.35708684568363636 0.3423342938780105 -2.164873687226039 107 86 55
0.3572651799399851 0.3424645173073074 -2.1709782572216114 107 86 55
0.37442042484266624 0.33424886400099707 -2.162380542820185 107 86 55
0.36544914179801 0.33887714472546693 -2.1764114355333177 107 86 55
0.3846345663056685 0.3296600489178721 -2.165957802557389 107 86 55
0.3860729345683218 0.32916936998026974 -2.170929004947372 107 86 55
0.3855039211765684 0.32966633824452596 -2.177662047783133 108 87 56
0.38314652060806553 0.33104372159523976 -2.185979512982172 109 88 57
0.38207953631008396 0.3317867836656163 -2.1931808767595253 109 88 57
0.4069176715520568 0.3197791301838415 -2.1774965098763346 109 88 57
0.40706044728664337 0.31992538486278677 -2.1835902405216414 111 90 59
0.4072173979963005 0.3200649682089784 -2.1896802298826197 111 90 59
0.41379101002557583 0.3170447071494895 -2.190058073431287 110 89 58
0.4145899418133455 0.31686811360930833 -2.195575494885435 111 90 59
0.41828917348195993 0.3154800482677677 -2.2047375977868753 110 91 59
0.42289923569856946 0.3134255597732685 -2.2068299343606186 109 90 58
0.42712842797025796 0.31155833520807585 -2.209252904785317 109 90 58
0.42790116770641184 0.31139480217738646 -2.214798307477427 107 86 55
0.43725843545138177 0.30699835253780117 -2.2125431572401943 105 84 53
0.44193983748438115 0.304906708496964 -2.214513826762622 104 83 52
0.4453965702048851 0.3034186825060373 -2.2175901394065027 104 83 52
0.44897146883069483 0.3018720769095662 -2.220550070227392 103 82 51
0.44049162055571034 0.306273783054231 -2.234586696606586 102 81 52
0.4576479366065337 0.2980244647688525 -2.2250361481330385 102 82 54
0.4588755524938469 0.2976355427269044 -2.230136743710187 100 80 54
0.459053113133877 0.2977651878570159 -2.236214447421772 94 76 50
0.46097123934155415 0.2970356050089994 -2.2406824411400876 90 73 49
0.4599136721857221 0.2977757563512299 -2.247925021035283 97 82 59
0.4588312284611735 0.2985287277069866 -2.2552061110353603 107 94 76
0.4486870875555963 0.30397951672404355 -2.277317085630586 124 118 109
0.4541226646218799 0.301513119453809 -2.2785197389870353 140 136 130
0.4611446425094745 0.29826181636565574 -2.2782040954324385 155 152 148
0.46914236193381675 0.2945271189734199 -2.2769366380676073 169 167 167
0.4753672938961332 0.291668041403071 -2.277322637563009 179 178 180
0.48307665432070646 0.288073915503406 -2.2762708283680215 186 186 188
0.48885380828839 0.285434650136815 -2.2770355285811337 191 191 193
0.4965120252842973 0.28186387921107353 -2.2759766722746404 195 195 197
0.4989445376461027 0.2808783274758694 -2.279910271078029 198 198 200
0.20558877661365105 0.4042586356279011 -2.0995611641897516 106 91 72
0.21270753268399256 0.40100920057160505 -2.1002675719238626 109 91 70
0.22026312652576885 0.3975462286955182 -2.100603223198408 109 91 68
0.22988551769775356 0.3930758120434874 -2.099268367993779 110 93 68
0.2363578992072224 0.39013848415045016 -2.1004104156958654 112 94 69
0.24291647579962505 0.387158434229583 -2.1014620898017005 112 95 69
0.2480131957075996 0.3848899275743215 -2.1036652175621415 113 96 70
0.2510570282940756 0.3836213481110172 -2.107506013630705 113 96 70
0.2555836270379399 0.3816298739083683 -2.11014449792327 114 96 70
0.2572109551515861 0.381051361490609 -2.1151185559065295 114 94 69
0.3318415683293171 0.34677229100314877 -2.1162822666970884 114 94 69
0.3318747871550818 0.3469681165876499 -2.122465732495524 115 93 68
0.3372362716689503 0.34456147164605705 -2.124188872727567 110 89 63
0.3300194014160148 0.3482996615100178 -2.1364772497258406 108 87 59
0.33271192826816043 0.34719711701926403 -2.140449489710633 108 88 61
0.34834348562303563 0.3397706583236788 -2.1334691691721166 109 89 63
0.34834646340455533 0.33998148358065117 -2.1396846612148437 109 89 60
0.3483491955674488 0.34019275142318617 -2.145909808843972 110 91 61
0.3492671156485816 0.33995682552380546 -2.151363253252783 111 90 61
0.3486182382989347 0.3404873484902863 -2.1581629021859308 108 87 58
0.35855458434601384 0.3358404617144796 -2.1558878391375593 107 86 57
0.3612249880521712 0.3347470281232241 -2.1598289597733062 107 86 55
0.36156526248197873 0.33479366289877477 -2.1657783382863722 107 86 55
0.3863351276969781 0.32330808865245986 -2.1629903452994217 107 86 55
0.3852798554900161 0.3240371306372733 -2.1701309125395207 108 87 56
0.40046735067705885 0.3168117535370688 -2.163059206502392 109 88 57
0.4009786743029793 0.3167730438653442 -2.168812693106963 110 89 58
0.4039947867834063 0.3155074190164652 -2.17236665407795 110 89 58
0.4062024274275067 0.3146377613358148 -2.1766292446551545 111 90 59
0.4069175482306985 0.3144995263246095 -2.182212563948207 110 89 58
0.41167601141465027 0.31237952946556424 -2.1842095629840035 109 88 57
0.4157794508384287 0.3105801770163352 -2.1867757688354734 109 88 57
0.41743661782541697 0.3099799799640256 -2.1915165710856614 109 88 57
0.41417764594064477 0.3117908884962868 -2.2006635415224944 110 89 58
0.4196398024033108 0.30932475735274023 -2.202000259106854 110 91 59
0.42482800754609273 0.30699241354694995 -2.203565776710298 109 90 58
0.42583217184098865 0.30671260102277864 -2.208895396537208 109 90 58
0.43181013215969977 0.3039918786336068 -2.2097224585127715 110 89 58
0.43760794613827936 0.30135887531805305 -2.2106924333612583 107 86 55
0.4421634562122455 0.2993351125124626 -2.2127745623823887 104 83 52
0.4481071394978605 0.2966292274004461 -2.2135745304498133 103 82 51
0.4517003168812138 0.2950770467092468 -2.2165077105006787 105 83 53
0.4552517418481298 0.2935450769670858 -2.2194705086175355 105 84 53
0.45596203688565395 0.29340868775424356 -2.2250428926927968 105 84 54
0.46257213686730103 0.29037335953362686 -2.225169385945153 104 84 56
0.4627521666021107 0.2904974814382405 -2.231230036781498 99 79 55
0.46462445023743826 0.2897900370352579 -2.2357269519415683 99 78 56
0.4661209642975346 0.28926734564632106 -2.2405740706718342 93 76 51
0.4651297147708341 0.28996807841156397 -2.247747782214896 95 80 58
0.4532352729746 0.2960319214320319 -2.265152718138753 103 91 73
0.45807810175024166 0.2942950425370774 -2.2795081816947675 139 136 129
0.4655843870285451 0.2908161772398776 -2.27871412219309 156 153 151
0.4738245723252196 0.2869750255422022 -2.277193536156895 168 167 168
0.4806023045083382 0.2838528102097304 -2.277032924863062 180 180 182
0.4894025258656891 0.2797337229222578 -2.2749146852697164 188 188 190
0.49553831299365814 0.27692576483201514 -2.275312356813092 192 192 194
0.49991721620733287 0.2749825544046388 -2.2773751511927305 195 195 197
0.17917103126462275 0.4102429723232769 -2.087142245598259 125 118 113
0.22259919221190638 0.390472641280452 -2.09103991781348 124 107 89
0.23162520880988546 0.3863079163602755 -2.090185645895741 121 103 84
0.23754521338121903 0.383648023009019 -2.09176702243549 117 99 78
0.24382309353213028 0.380813957921461 -2.093044318457596 116 96 74
0.2513974341084195 0.3773504116711618 -2.093264355290289 115 94 71
0.2570411489536296 0.37482249701037346 -2.0950061892718814 114 96 71
0.2635596873996293 0.3718695574132719 -2.096026701513452 116 97 73
0.2661245697731428 0.37083439714419975 -2.1002154708626923 116 96 72
0.26960071385664386 0.3693568781235511 -2.1036639087598727 115 94 71
0.2719977979206224 0.36840290189896374 -2.107980897961559 114 94 70
0.26934665794037715 0.3698997174706329 -2.116405308458244 114 94 69
0.3376580089935317 0.3385890827210266 -2.1161889657593638 110 90 65
0.32028764838233703 0.3472438419464844 -2.13695146630396 108 88 61
0.3271163495868946 0.34413175918066086 -2.1374636493702006 107 88 59
0.3356957059923519 0.3401672447830557 -2.1364758239460184 108 89 59
0.34144014331517114 0.3375809600361481 -2.1378526910852034 109 89 60
0.3440963160734951 0.3364968858852694 -2.1418298970178977 110 91 61
0.3475669075218383 0.33501630573470753 -2.1451108396339866 110 90 60
0.349968599535766 0.3340558039764562 -2.1492959398063607 109 88 59
0.34971356218701144 0.33438871986107993 -2.1557513923315126 109 88 59
0.3638936123133757 0.3276927146267836 -2.1498334871756906 108 87 58
0.3645904335298361 0.32756156363640176 -2.1554558374142707 107 86 56
0.35921819064611205 0.33038699941590033 -2.1663210253917518 107 86 55
0.38960797343043363 0.3159971980281662 -2.1524624214854198 107 86 55
0.39305491816437854 0.3145246147793455 -2.1556585316261567 108 87 56
0.39307567397031973 0.31472189177184406 -2.161837360710644 108 87 56
0.4060507878165248 0.3086037173742413 -2.156686587162104 109 88 57
0.40893083651572837 0.3074062820090797 -2.1603419561376205 111 90 59
0.409401686302018 0.30738366549643614 -2.1661132283071507 112 91 60
0.410031544818076 0.30728372487649935 -2.171751265227087 110 89 58
0.4113913195007538 0.3068278890799876 -2.176749448974912 109 88 57
0.41386382875725036 0.3058291745476668 -2.1807624086274044 109 88 57
0.41645419080895063 0.30477284580194675 -2.18466754167918 109 88 57
0.4057607103192916 0.3102006149533411 -2.2004300055075983 109 88 57
0.40854264200493007 0.30905164811950153 -2.2041901580561203 110 89 58
0.4211405684423206 0.30310941067300845 -2.1991317847490253 110 89 58
0.4235890007868861 0.3021221896372416 -2.203158499684937 110 89 58
0.42438360206548464 0.3019427166894205 -2.208675832309097 110 89 58
0.4306299207031258 0.2990999841813399 -2.209261993810575 109 88 57
0.436392974527421 0.29649265189447405 -2.210264865030231 104 83 52
0.4424363311068421 0.29374766919497014 -2.2109927557674616 100 79 48
0.4487246241924763 0.2908822499910945 -2.2114757692314435 105 84 53
0.4529083925393502 0.28904496604428354 -2.213863496753298 108 87 56
0.459743338445345 0.28591091725730794 -2.2138048403401034 110 89 58
0.4620549550092029 0.2849882205241362 -2.2178862068486453 112 91 60
0.4664931442579813 0.28302523416293124 -2.2200015757353193 109 88 57
0.46702923360084214 0.2829708592652045 -2.2257171926203903 104 84 57
0.46955868609112783 0.2819413163799711 -2.2295886899464326 98 79 53
0.4696822128812548 0.2820891445418957 -2.235697168058813 93 77 51
0.46897669210593695 0.2826430919318904 -2.2425888484792336 91 76 50
0.4620273096585472 0.2862543756560326 -2.2553403673025016 98 83 62
0.46253378586992344 0.28684786513703403 -2.2800086852061314 142 137 133
0.46973287198746705 0.28353136812654367 -2.2794844247035835 157 155 154
0.479311173157284 0.27904787576792317 -2.276667476821932 172 171 172
0.48529517780093745 0.2763249364864816 -2.27724135534355 180 180 180
0.493427045873977 0.2725482205139911 -2.275737763974879 187 188 189
0.4999551930117042 0.26955682065826486 -2.275740650263703 192 192 194
0.5015574095623512 0.2689805590274378 -2.280460118030207 196 196 198
0.513409529214309 0.263376303749841 -2.275288777214287 199 199 201
0.18335279225706858 0.4022394736616728 -2.076181385447935 134 128 122
0.23229999429614223 0.37987265207229703 -2.0757131948731278 129 113 98
0.23760693864444626 0.3775171956159894 -2.077784521994832 128 112 96
0.24248376041086261 0.3753688068823295 -2.0801807308221205 127 111 93
0.24931431495499468 0.37227690460223867 -2.0810111017951156 125 109 91
0.25623930581837895 0.3691386533570331 -2.081743131505616 125 108 89
0.2565965011810206 0.36937591637677897 -2.093951357595245 118 101 77
0.26151763204871414 0.3672042775076277 -2.0962555832018253 117 99 75
0.2743867815520634 0.3611925834303721 -2.0921370649917477 117 97 73
0.2781923313973732 0.3595584040551584 -2.0952961541436848 114 94 70
0.2818981387636701 0.3579721335932581 -2.098527267491611 113 93 66
0.2790445960904252 0.3595558764118967 -2.1070860291786757 114 94 66
0.29930030870655355 0.3499693039906871 -2.0968128326199515 114 94 68
0.3013703897291563 0.34917225800963736 -2.1013331235248796 115 97 72
0.3039470972537781 0.3481302069557488 -2.1054369876720256 115 97 72
0.30460753863523815 0.3480148376328724 -2.11111513945729 113 95 70
0.30536643558657917 0.34785204644439627 -2.116718199176949 112 94 69
0.3093482321121892 0.3461302090712455 -2.1196584795295323 113 93 68
0.31358637734762806 0.34448851916687256 -2.1286120229158394 111 91 67
0.3166498033428783 0.3432105289762387 -2.1322986993609896 108 88 62
0.32174616103103004 0.34094818159826723 -2.1342768993441954 106 86 59
0.3257593709264185 0.33920978627711396 -2.1371496944936514 106 87 58
0.3397438026698365 0.3326422186190624 -2.131610669545266 107 88 58
0.3467945253772976 0.3294311130917083 -2.131871916410903 108 89 59
0.3436470066342734 0.33115960213016127 -2.1407509568264658 108 89 59
0.34507174235191795 0.33067356434588335 -2.1457687209569998 106 87 57
0.3494105645984765 0.328775442708482 -2.1483049679018915 108 87 58
0.36134016905678235 0.3231978294859033 -2.1443402162932497 109 88 59
0.3673260672344987 0.32049987528354296 -2.145421855479145 109 88 59
0.36774013461511756 0.32050272003104296 -2.151274078832317 110 89 58
0.36420609464932985 0.3224203371869405 -2.1605380919834793 108 87 56
0.38633126710017074 0.3120969955440451 -2.1538296944442887 107 86 55
0.3926268395288204 0.30924588863017666 -2.1545533056202912 107 86 55
0.39682724871974584 0.3074107408565099 -2.1570824879619352 107 86 55
0.4019617482359231 0.30512187445557704 -2.158783156482865 110 89 58
0.4055664270440803 0.30357507272965545 -2.1618096360722863 114 93 62
0.4075257838970444 0.30282678607316826 -2.1662749726948065 112 91 60
0.40204570308080745 0.30569090746281136 -2.177303118361855 110 89 58
0.4028685078500279 0.3054951888804808 -2.1827920084418992 109 88 57
0.41736149138508616 0.2986594756052726 -2.176157762261564 110 89 58
0.41288747786192703 0.3010363063762095 -2.1863359243579548 111 90 59
0.4164189565809593 0.29952426793462184 -2.189403167877792 112 91 60
0.41821480917600073 0.29885545495449994 -2.194015182401691 110 89 58
0.42288235864168255 0.2967908064881888 -2.1960508911600853 109 88 57
0.4256219985902997 0.29566296137386383 -2.1998073938213154 109 88 57
0.4302731303584266 0.2936055349366551 -2.2018347166302172 109 88 57
0.434525896794675 0.29174138299761365 -2.204208526176415 107 86 55
0.4404872627812465 0.2890457656392986 -2.2050198338430276 105 84 53
0.4455550582136275 0.2867841800245404 -2.2066235602022544 105 84 53
0.44922032892510433 0.28520449187876795 -2.20949094868225 107 86 55
0.4547343938880891 0.28272477822285424 -2.2106573721270175 108 87 56
0.45939659878062533 0.28065908952193164 -2.212586944090408 111 90 59
0.4656191286945963 0.2778333292909036 -2.2130663819432135 111 90 59
0.46826941277546874 0.2767461937389559 -2.216820009305748 109 88 57
0.4720248432971178 0.27512072924092046 -2.2195469704683504 104 84 56
0.47361502880780504 0.2745495882035557 -2.224273489122658 100 81 55
0.4739539450035657 0.274588065389315 -2.2301658115863403 95 78 52
0.47106531718473676 0.2761994115784885 -2.2390777299956786 92 75 49
0.47037603844335474 0.2767397545050991 -2.245956355443867 91 76 53
0.46772030694450384 0.27823901464152984 -2.2546933945442644 98 85 67
0.46341772965976635 0.2805418862929694 -2.265003473819687 104 93 79
0.4611801511701983 0.282045507875635 -2.2796958718637246 126 120 114
0.4674880072661032 0.27917568858315955 -2.2800199425658105 143 139 137
0.4765810473625177 0.2749463803193193 -2.2776713799609385 159 158 156
0.4841098525723907 0.27147907156340156 -2.276777298401795 174 173 173
0.4922239336590698 0.2677251695690844 -2.275293797597144 182 182 183
0.4964967561157091 0.26584511608790035 -2.2774619971641323 188 188 190
0.5042424403726731 0.26226924321261136 -2.2762774024255203 193 193 195
0.5092606628755354 0.2600241032304427 -2.277692335245313 197 197 199
0.18830157363096434 0.3939029004393102 -2.064674748621976 134 126 117
0.19296813573990523 0.3918658029367355 -2.0673641724273986 131 121 112
0.23390841113337224 0.373418981216721 -2.0730553500623166 129 114 100
0.2366469440629403 0.3723042838176003 -2.0771474822547256 127 111 96
0.2528620094732079 0.3647143869307996 -2.070569266410699 125 109 94
0.25757728464573004 0.36264851214466765 -2.073052906129134 124 108 92
0.2629287632600601 0.36027644293945293 -2.0750168912608076 123 106 89
0.2608611757414272 0.3614701982999362 -2.0828897772341786 122 105 87
0.266309667183268 0.3590510172203073 -2.0847614110822783 120 104 82
0.27011300918081105 0.35742237614589156 -2.0879380941850014 119 102 79
0.28374757361724423 0.3510653272442157 -2.0831842046093234 118 99 77
0.29671475452548746 0.34502749957562473 -2.078913812811238 113 94 69
0.2905366418960189 0.34819845491138507 -2.0901090472220107 108 88 61
0.2996481601150436 0.3440138984063026 -2.0889133699139517 103 84 55
0.3008933995485893 0.3436137831199044 -2.094097109298448 113 93 67
0.3033855452621055 0.3426136205725761 -2.0982645024280813 121 101 75
0.3063576875544888 0.34138230574261474 -2.1020355452025115 123 102 76
0.30125271774122186 0.3440397141641402 -2.112445729808336 117 97 71
0.303405752723103 0.3432031440772529 -2.1169020626447392 115 94 68
0.30595731067425425 0.34217460262681704 -2.121027627905222 112 92 66
0.30740912829424905 0.3416757142534801 -2.1260628560719264 110 90 64
0.312436979044903 0.3394540383189289 -2.1281242189564513 111 91 64
0.314913398975179 0.33846130994269746 -2.13230027343969 109 89 63
0.31786889651801786 0.3372376123519285 -2.1360726590464387 106 86 59
0.33712780062317216 0.3281552626050994 -2.1261520892076375 106 87 57
0.3405028890421412 0.3267276850834891 -2.129521433868476 107 88 58
0.3527553761901626 0.3210194430013175 -2.1253870177824794 108 89 59
0.33976078070004767 0.3274850089017631 -2.1425841728953054 108 89 59
0.34551475611833615 0.3249099285310361 -2.143930021483211 108 88 59
0.3487569194426867 0.32354596452801154 -2.1473966969823763 108 87 58
0.3739334449651165 0.3115987283421786 -2.1321186459352033 109 88 59
0.3716751338804115 0.31288695857667775 -2.140230826231144 109 88 59
0.36681395067404365 0.3154321158926872 -2.1506000028793215 109 88 58
0.3858751060950806 0.30682752851239414 -2.152750599489557 107 86 55
0.39498794077059585 0.302625360491971 -2.151025339817654 107 86 55
0.39787124366186255 0.30143118227556154 -2.154693990772814 106 85 54
0.4003147971068378 0.3004493002945058 -2.158742126003153 108 87 56
0.4014144322836418 0.3001167185796486 -2.1639656220760513 113 92 61
0.4011215497365873 0.30045724791688566 -2.170417269886881 112 91 60
0.40845612739044346 0.2971112792049537 -2.1701554887970613 110 89 58
0.40906075920272145 0.29701800019056734 -2.175816477356342 111 90 59
0.42020527233434424 0.2918286170683628 -2.1721390822559306 113 92 61
0.41954251085462646 0.2923478244570218 -2.1789134351822796 114 93 62
0.4207862437062506 0.291945295970878 -2.1840007129971926 114 93 62
0.42259915024678774 0.29126752376711884 -2.188582318828411 111 90 59
0.42670623527704976 0.28947972544726114 -2.191107138913805 109 88 57
0.4275058806289518 0.2892921416537637 -2.1965948960050303 108 87 56
0.43449832748649275 0.2861073393046976 -2.196503752901364 107 86 55
0.43476548031207773 0.28617738295197803 -2.202468396432828 106 85 54
0.4392540021559238 0.28420380520459076 -2.204613170842721 106 85 54
0.44559328938018306 0.28133355468437493 -2.205061654370825 106 85 54
0.44986230185925935 0.27946529126678543 -2.207375391218409 107 86 55
0.4551942728918247 0.27708171628889733 -2.2087048852404783 108 87 56
0.45977835875624395 0.27505992771908805 -2.2107025766225235 108 87 56
0.46426063244072524 0.2730870307958844 -2.2127800385765624 107 86 55
0.4699278072967561 0.2705394201656602 -2.213751454945875 106 85 54
0.46550856487188896 0.2728805850929866 -2.2240306788644393 106 87 57
0.4671731030781423 0.27227316795125533 -2.228700718293414 102 82 57
0.4693601354853971 0.2714124198500737 -2.2328859893529445 95 77 51
0.47192395879151205 0.2703688769285608 -2.2367183128826578 92 75 49
0.4734242661447353 0.2698411127641942 -2.2415415270166528 91 74 51
0.4727756801482901 0.2703559802212769 -2.248381579218812 89 75 54
0.46981200312004856 0.27199466367763725 -2.257411454913011 93 81 63
0.46580505125464233 0.27454435054035087 -2.280021915210035 129 124 120
0.4747143328172274 0.2704205559944012 -2.277852996270138 146 143 139
0.48253514249546203 0.26682421807000284 -2.27668498543192 163 161 159
0.4898445818794789 0.2634752806360019 -2.2759747043599736 175 175 174
0.49528831458344347 0.26103185542478774 -2.277024232847901 184 184 186
0.5012146070121715 0.2583533427920697 -2.2775912210118543 191 191 193
0.5122522904206983 0.2531899863416593 -2.273210756986984 194 194 196
