ply
format ascii 1.0
element vertex 841
property float x
property float y
property float z
property float nx
property float ny
property float nz
property uchar diffuse_red
property uchar diffuse_green
property uchar diffuse_blue
property uchar class
property uchar detection
end_header
0.2623 -0.3206 -2.0319 0.551 -0.698 0.458 118 96 59 0 0
0.2554 -0.3429 -2.0678 0.209 -0.911 0.355 120 96 58 0 0
0.2065 -0.4938 -2.2202 0.226 -0.913 0.340 144 122 82 0 0
0.2057 -0.4969 -2.2295 0.131 -0.884 0.449 130 112 69 0 0
0.2021 -0.5110 -2.2773 0.315 -0.927 0.206 163 160 153 0 0
0.2011 -0.5139 -2.2806 0.050 -0.917 0.396 180 180 180 0 0
0.2004 -0.5163 -2.2845 0.062 -0.880 0.471 192 192 193 0 0
0.3428 -0.0430 -1.6030 0.151 -0.196 0.969 129 109 81 0 0
0.2699 -0.2514 -1.6241 0.583 -0.595 0.553 106 87 60 0 0
0.2701 -0.2525 -1.6452 -0.274 -0.752 0.599 113 95 71 0 0
0.2783 -0.2505 -1.9068 0.337 -0.911 0.239 123 102 71 0 0
0.2758 -0.2578 -1.9074 0.308 -0.946 0.106 123 102 71 0 0
0.2772 -0.2544 -1.9157 0.332 -0.885 0.326 123 102 71 0 0
0.2759 -0.2584 -1.9187 0.263 -0.955 -0.135 122 101 70 0 0
0.2640 -0.2955 -1.9616 -0.150 -0.975 0.166 125 102 70 0 0
0.2577 -0.3151 -1.9819 0.208 -0.976 0.065 121 98 65 0 0
0.2397 -0.3770 -2.1167 -0.013 -0.854 0.520 127 102 62 0 0
0.2158 -0.4486 -2.1634 -0.336 -0.942 -0.008 165 133 81 0 0
0.2160 -0.4486 -2.1694 -0.336 -0.942 -0.008 173 142 89 0 0
0.2148 -0.4531 -2.1835 -0.523 -0.848 0.086 165 133 84 0 0
0.2143 -0.4548 -2.1880 -0.566 -0.659 0.495 175 143 92 0 0
0.2136 -0.4581 -2.2032 -0.242 -0.925 0.294 189 156 103 0 0
0.2132 -0.4596 -2.2080 -0.242 -0.925 0.294 199 166 114 0 0
0.2039 -0.4864 -2.2138 -0.056 -0.936 0.347 156 125 86 0 0
0.1984 -0.5043 -2.2396 -0.119 -0.795 0.595 123 106 64 0 0
0.1966 -0.5123 -2.2749 0.315 -0.927 0.206 149 143 134 0 0
0.1962 -0.5136 -2.2798 0.085 -0.968 0.237 172 170 170 0 0
0.1959 -0.5149 -2.2847 -0.056 -0.937 0.345 188 188 189 0 0
0.2920 -0.1891 -1.8092 0.722 -0.639 0.265 136 118 93 0 0
0.2531 -0.3132 -1.9765 -0.113 -0.802 0.586 121 98 64 0 0
0.2292 -0.3933 -2.1260 -0.045 -0.908 0.417 138 109 67 0 0
0.2288 -0.3948 -2.1308 0.022 -0.901 0.433 139 110 68 0 0
0.2133 -0.4423 -2.1739 -0.304 -0.708 0.637 163 131 80 0 0
0.2125 -0.4449 -2.1776 -0.466 -0.838 0.284 168 136 86 0 0
0.2123 -0.4459 -2.1828 -0.599 -0.772 0.213 170 138 88 0 0
0.1953 -0.4983 -2.2320 -0.173 -0.915 0.366 133 113 70 0 0
0.1944 -0.5011 -2.2354 -0.402 -0.846 0.350 122 104 62 0 0
0.1937 -0.5034 -2.2394 -0.166 -0.812 0.559 128 111 68 0 0
0.1906 -0.5148 -2.2713 0.365 -0.931 -0.004 134 126 113 0 0
0.1920 -0.5115 -2.2807 0.342 -0.939 -0.013 164 160 156 0 0
0.3922 0.1257 -1.6373 0.499 0.134 0.856 207 206 205 0 0
0.3171 -0.0862 -1.5994 -0.078 -0.037 0.996 121 102 70 0 0
0.2555 -0.2639 -1.6202 0.445 -0.882 -0.154 112 92 62 0 0
0.2445 -0.3249 -1.9959 -0.096 -0.430 0.898 117 94 60 0 0
0.2414 -0.3377 -2.0451 0.364 -0.932 -0.009 121 97 59 0 0
0.2380 -0.3481 -2.0547 0.227 -0.895 0.383 122 99 58 0 0
0.2369 -0.3514 -2.0579 0.063 -0.485 0.872 122 99 58 0 0
0.2251 -0.3900 -2.1217 0.155 -0.642 0.751 131 104 62 0 0
0.2067 -0.4460 -2.1635 -0.541 -0.797 -0.268 168 136 86 0 0
0.2070 -0.4456 -2.1699 -0.516 -0.833 -0.202 167 135 86 0 0
0.2085 -0.4420 -2.1792 -0.516 -0.823 0.235 160 128 78 0 0
0.2083 -0.4432 -2.1842 -0.599 -0.772 0.213 165 133 81 0 0
0.1915 -0.4936 -2.2171 -0.195 -0.850 0.489 149 125 82 0 0
0.2633 -0.2257 -1.5995 -0.145 -0.219 0.965 132 107 76 0 0
0.2525 -0.2585 -1.6228 0.197 -0.980 -0.036 114 93 63 0 0
0.2447 -0.3040 -1.9231 -0.288 -0.659 0.695 118 95 61 0 0
0.2405 -0.3198 -1.9695 0.061 -0.685 0.726 125 102 68 0 0
0.2314 -0.3519 -2.0505 0.404 -0.814 0.417 122 99 58 0 0
0.2204 -0.3843 -2.0598 0.578 -0.812 -0.084 121 97 56 0 0
0.2211 -0.3829 -2.0668 0.557 -0.824 -0.104 136 113 72 0 0
0.2208 -0.3862 -2.0999 -0.063 -0.990 -0.129 122 98 58 0 0
0.2931 -0.1250 -1.5923 -0.057 -0.075 0.996 96 80 59 0 0
0.2440 -0.2679 -1.6108 0.001 -0.968 -0.252 127 104 70 0 0
0.2464 -0.2618 -1.6200 -0.089 -0.993 0.082 116 97 63 0 0
0.2443 -0.2680 -1.6215 0.529 -0.819 0.223 112 89 56 0 0
0.2429 -0.2721 -1.6244 0.432 -0.765 0.477 106 84 57 0 0
0.2523 -0.2641 -1.8759 0.368 -0.927 -0.077 121 100 67 0 0
0.2546 -0.2582 -1.8859 -0.337 -0.885 -0.320 123 100 68 0 0
0.2471 -0.2811 -1.9042 0.360 -0.642 0.677 123 100 68 0 0
0.2403 -0.3023 -1.9234 -0.288 -0.659 0.695 116 94 57 0 0
0.2407 -0.3036 -1.9575 -0.121 -0.960 0.250 118 96 59 0 0
0.2256 -0.3531 -2.0367 -0.379 -0.498 0.780 114 92 50 0 0
0.2291 -0.3439 -2.0500 -0.520 -0.543 0.659 119 96 55 0 0
0.2175 -0.3775 -2.0524 0.388 -0.721 0.574 120 97 56 0 0
0.2203 -0.3723 -2.0866 0.523 -0.841 0.136 121 95 59 0 0
0.1977 -0.4436 -2.1695 -0.308 -0.951 -0.008 168 136 88 0 0
0.1982 -0.4425 -2.1765 -0.275 -0.960 0.058 168 136 87 0 0
0.1983 -0.4429 -2.1823 -0.275 -0.960 0.058 168 136 88 0 0
0.1960 -0.4494 -2.1825 -0.175 -0.608 0.774 180 148 98 0 0
0.2390 -0.2681 -1.6099 0.001 -0.968 -0.252 124 100 66 0 0
0.2408 -0.2639 -1.6234 0.094 -0.977 -0.189 122 99 63 0 0
0.2378 -0.2726 -1.6234 0.009 -0.960 0.279 108 86 53 0 0
0.2596 -0.2233 -1.8114 0.528 -0.827 0.193 123 102 71 0 0
0.2385 -0.2907 -1.8962 -0.382 -0.920 -0.092 121 98 65 0 0
0.2357 -0.3006 -1.9179 0.088 -0.501 0.861 116 94 57 0 0
0.2251 -0.3409 -2.0515 -0.351 -0.924 -0.152 117 94 53 0 0
0.2116 -0.3805 -2.0549 0.024 -0.749 0.663 119 96 55 0 0
0.2092 -0.3874 -2.0551 0.284 -0.862 0.420 116 93 52 0 0
0.2127 -0.3786 -2.0743 0.519 -0.854 -0.028 126 102 62 0 0
0.2132 -0.3775 -2.0812 0.588 -0.796 0.142 127 101 64 0 0
0.2131 -0.3788 -2.0921 0.629 -0.760 0.165 115 92 52 0 0
0.1937 -0.4412 -2.1766 -0.133 -0.959 0.252 171 139 92 0 0
0.1934 -0.4425 -2.1815 -0.133 -0.959 0.252 162 130 83 0 0
0.1672 -0.5242 -2.2639 0.187 -0.863 0.470 108 98 77 0 0
0.3214 -0.0135 -1.5981 0.220 -0.164 0.962 113 97 72 0 0
0.2631 -0.1827 -1.5956 0.236 -0.253 0.938 129 106 74 0 0
0.2540 -0.2243 -1.8041 0.550 -0.756 0.355 119 98 67 0 0
0.2533 -0.2266 -1.8082 0.528 -0.827 0.193 120 99 68 0 0
0.2478 -0.2439 -1.8250 0.402 -0.850 0.340 120 99 68 0 0
0.2361 -0.2817 -1.8788 -0.443 -0.583 0.681 123 100 66 0 0
0.2316 -0.2975 -1.9135 0.136 -0.898 0.419 116 93 58 0 0
0.2150 -0.3522 -2.0059 0.181 -0.631 0.754 116 96 59 0 0
0.2074 -0.3794 -2.0727 0.467 -0.884 -0.014 117 93 53 0 0
0.2076 -0.3791 -2.0788 0.467 -0.884 -0.014 137 112 72 0 0
0.2078 -0.3789 -2.0850 0.467 -0.884 -0.014 118 92 55 0 0
0.1903 -0.4343 -2.1455 0.127 -0.983 0.136 145 116 74 0 0
0.1894 -0.4376 -2.1546 -0.361 -0.898 0.250 150 119 76 0 0
0.1883 -0.4426 -2.1804 -0.241 -0.866 0.438 162 129 83 0 0
0.1736 -0.4883 -2.2236 -0.160 -0.881 0.445 161 133 86 0 0
0.2467 -0.2296 -1.7883 0.498 -0.804 0.324 108 88 58 0 0
0.2478 -0.2274 -1.8011 0.550 -0.756 0.355 118 97 66 0 0
0.2477 -0.2281 -1.8063 0.433 -0.887 0.162 117 96 65 0 0
0.2121 -0.3447 -1.9874 0.262 -0.942 0.212 121 98 63 0 0
0.2064 -0.3657 -2.0472 0.064 -0.986 0.157 119 96 55 0 0
0.2028 -0.3776 -2.0671 0.297 -0.591 0.750 118 95 55 0 0
0.2008 -0.3837 -2.0740 0.369 -0.927 0.065 127 103 63 0 0
0.2011 -0.3834 -2.0802 0.428 -0.904 -0.015 129 104 66 0 0
0.1817 -0.4469 -2.1754 0.195 -0.677 0.710 167 135 88 0 0
0.1582 -0.5234 -2.2868 0.166 -0.659 0.734 182 182 182 0 0
0.2411 -0.2292 -1.7593 0.382 -0.924 -0.001 109 87 56 0 0
0.2412 -0.2293 -1.7649 0.405 -0.879 0.250 102 81 50 0 0
0.2394 -0.2355 -1.7777 0.457 -0.880 0.131 123 103 72 0 0
0.2404 -0.2330 -1.7851 0.540 -0.787 0.300 117 97 66 0 0
0.2404 -0.2334 -1.7905 0.316 -0.892 0.323 108 88 55 0 0
0.2395 -0.2364 -1.7942 -0.212 -0.862 0.461 109 88 56 0 0
0.2382 -0.2404 -1.7971 -0.066 -0.987 0.143 115 92 61 0 0
0.2373 -0.2432 -1.8009 -0.799 -0.584 0.144 117 94 63 0 0
0.2307 -0.2660 -1.8479 0.338 -0.930 0.142 118 95 61 0 0
0.2208 -0.2989 -1.9048 -0.098 -0.684 0.723 116 93 59 0 0
0.2205 -0.3000 -1.9098 -0.076 -0.858 0.509 118 95 60 0 0
0.2189 -0.3061 -1.9285 -0.203 -0.964 0.168 117 94 60 0 0
0.1956 -0.3839 -2.0669 0.345 -0.908 0.237 110 88 49 0 0
0.1952 -0.3855 -2.0715 0.133 -0.976 0.175 109 86 46 0 0
0.1875 -0.4107 -2.1099 -0.390 -0.870 0.301 123 96 54 0 0
0.1811 -0.4302 -2.1229 -0.547 -0.835 0.053 126 99 55 0 0
0.1766 -0.4471 -2.1742 0.195 -0.677 0.710 163 131 84 0 0
0.1532 -0.5234 -2.2857 0.166 -0.659 0.734 176 175 172 0 0
0.2195 -0.2669 -1.5969 0.183 -0.347 0.920 134 109 74 0 0
0.2339 -0.2387 -1.8032 0.028 -0.961 -0.275 117 94 62 0 0
0.2187 -0.2882 -1.8771 -0.369 -0.898 0.240 117 94 60 0 0
0.2183 -0.2902 -1.8872 -0.441 -0.823 0.359 118 95 61 0 0
0.2182 -0.2908 -1.8926 -0.109 -0.807 0.581 117 94 60 0 0
0.2174 -0.2934 -1.8964 -0.109 -0.807 0.581 118 95 61 0 0
0.2161 -0.2973 -1.8993 0.187 -0.765 0.617 119 96 62 0 0
0.2071 -0.3283 -1.9631 0.211 -0.965 0.154 120 97 63 0 0
0.1898 -0.3863 -2.0698 0.093 -0.968 0.231 105 82 43 0 0
0.1781 -0.4244 -2.1209 -0.272 -0.957 0.104 108 83 41 0 0
0.1771 -0.4276 -2.1242 -0.474 -0.827 0.302 121 95 50 0 0
0.1765 -0.4296 -2.1284 -0.461 -0.847 0.265 131 104 61 0 0
0.1629 -0.4765 -2.2312 -0.315 -0.868 0.385 171 140 91 0 0
0.1621 -0.4790 -2.2350 -0.294 -0.757 0.583 160 132 82 0 0
0.2151 -0.2656 -1.5969 0.247 -0.214 0.945 136 111 79 0 0
0.2299 -0.2326 -1.7610 0.184 -0.956 0.229 115 94 62 0 0
0.2126 -0.2913 -1.8740 0.418 -0.906 -0.060 113 90 56 0 0
0.1944 -0.3519 -1.9788 -0.500 -0.851 0.163 109 86 52 0 0
0.1941 -0.3531 -1.9838 -0.544 -0.687 0.482 106 83 49 0 0
0.1856 -0.3840 -2.0707 -0.229 -0.836 0.499 109 86 48 0 0
0.1841 -0.3902 -2.0953 0.167 -0.953 0.254 98 78 43 0 0
0.1428 -0.5252 -2.2939 -0.125 -0.733 0.669 192 192 192 0 0
0.2252 -0.2212 -1.5961 0.268 -0.227 0.936 121 101 70 0 0
0.2241 -0.2347 -1.7588 0.262 -0.959 0.107 116 94 61 0 0
0.2124 -0.2723 -1.8011 0.772 -0.503 0.388 119 96 62 0 0
0.2101 -0.2822 -1.8509 0.541 -0.554 0.633 116 93 60 0 0
0.1916 -0.3422 -1.9274 -0.017 -1.000 -0.019 112 89 57 0 0
0.1904 -0.3491 -1.9801 -0.573 -0.717 0.397 107 84 50 0 0
0.1888 -0.3540 -1.9821 -0.066 -0.630 0.774 103 80 46 0 0
0.1839 -0.3697 -1.9988 0.221 -0.931 -0.290 111 88 56 0 0
0.1788 -0.3907 -2.0939 0.167 -0.953 0.254 91 72 38 0 0
0.1683 -0.4226 -2.1026 -0.086 -0.887 0.454 108 87 52 0 0
0.1687 -0.4229 -2.1261 -0.447 -0.884 0.136 118 94 50 0 0
0.1386 -0.5236 -2.3004 -0.220 -0.890 0.399 197 196 200 0 0
0.1359 -0.5314 -2.2990 -0.282 -0.678 0.678 203 202 203 0 0
0.2200 -0.2217 -1.5950 0.262 -0.262 0.929 108 90 62 0 0
0.2085 -0.2704 -1.8242 0.217 -0.840 0.498 113 91 54 0 0
0.1897 -0.3346 -1.9554 0.422 -0.873 0.242 112 89 55 0 0
0.1870 -0.3438 -1.9716 0.378 -0.820 0.430 116 93 59 0 0
0.1780 -0.3722 -1.9959 0.187 -0.977 -0.106 105 82 50 0 0
0.1761 -0.3825 -2.0699 -0.110 -0.872 0.476 114 92 55 0 0
0.1761 -0.3827 -2.0757 -0.340 -0.930 0.139 113 90 53 0 0
0.2147 -0.2229 -1.5935 0.345 -0.363 0.865 101 83 54 0 0
0.2090 -0.2495 -1.7529 0.389 -0.919 0.067 105 85 49 0 0
0.2113 -0.2459 -1.8062 0.369 -0.903 -0.219 117 94 60 0 0
0.2072 -0.2587 -1.8144 -0.555 -0.731 0.395 118 96 60 0 0
0.2017 -0.2760 -1.8251 -0.035 -0.986 0.160 113 90 55 0 0
0.2013 -0.2772 -1.8299 -0.272 -0.769 0.579 113 90 56 0 0
0.1916 -0.3095 -1.8810 -0.087 -0.995 -0.054 107 84 50 0 0
0.1845 -0.3351 -1.9541 0.327 -0.722 0.609 110 87 53 0 0
0.1833 -0.3390 -1.9569 0.233 -0.729 0.644 115 92 58 0 0
0.1835 -0.3387 -1.9630 0.155 -0.869 0.471 117 94 60 0 0
0.1820 -0.3435 -1.9650 0.080 -0.844 0.530 116 93 59 0 0
0.1816 -0.3449 -1.9698 -0.249 -0.951 0.185 114 91 57 0 0
0.1814 -0.3458 -1.9749 -0.249 -0.951 0.185 113 90 56 0 0
0.1785 -0.3557 -1.9963 -0.647 -0.680 0.343 104 81 47 0 0
0.1722 -0.3745 -1.9931 -0.023 -0.996 -0.091 102 79 46 0 0
0.1729 -0.3727 -2.0004 0.079 -0.976 -0.201 109 86 55 0 0
0.1691 -0.3889 -2.0814 0.045 -0.948 0.316 126 102 67 0 0
0.1579 -0.4254 -2.1279 -0.293 -0.956 -0.016 117 94 52 0 0
0.1263 -0.5300 -2.2919 -0.113 -0.990 0.090 192 192 193 0 0
0.2356 -0.1431 -1.5580 0.244 -0.616 0.749 115 94 62 0 0
0.2092 -0.2243 -1.5920 0.345 -0.363 0.865 106 85 55 0 0
0.1928 -0.2739 -1.5942 0.046 -0.167 0.985 130 105 72 0 0
0.1787 -0.3167 -1.5997 -0.052 -0.926 0.375 139 114 83 0 0
0.2005 -0.2611 -1.7667 -0.004 -0.999 -0.047 108 88 53 0 0
0.1973 -0.2740 -1.8256 -0.058 -0.998 -0.022 110 88 52 0 0
0.1968 -0.2758 -1.8300 -0.221 -0.778 0.588 111 89 54 0 0
0.1675 -0.3741 -2.0041 -0.074 -0.994 -0.083 112 89 57 0 0
0.1678 -0.3736 -2.0103 -0.074 -0.994 -0.083 108 85 53 0 0
0.1552 -0.4165 -2.0928 -0.191 -0.853 0.485 107 84 53 0 0
0.1546 -0.4187 -2.0969 -0.191 -0.853 0.485 101 78 46 0 0
0.1548 -0.4186 -2.1088 -0.208 -0.959 0.193 106 85 50 0 0
0.1552 -0.4180 -2.1153 -0.120 -0.964 0.239 111 89 51 0 0
0.1548 -0.4200 -2.1314 -0.138 -0.986 -0.095 113 90 50 0 0
0.1524 -0.4271 -2.1313 -0.230 -0.732 0.641 116 91 51 0 0
0.1476 -0.4423 -2.1420 0.240 -0.965 0.104 127 99 56 0 0
0.1294 -0.5017 -2.2204 0.062 -0.929 0.364 156 128 80 0 0
0.1214 -0.5299 -2.2909 -0.021 -0.992 0.123 189 188 190 0 0
0.1218 -0.5292 -2.2977 -0.069 -0.897 0.438 197 197 199 0 0
0.2074 -0.2148 -1.5915 0.178 -0.122 0.977 105 85 58 0 0
0.2045 -0.2238 -1.5915 0.384 -0.386 0.839 112 91 62 0 0
0.1878 -0.2743 -1.5932 0.095 -0.231 0.968 128 102 71 0 0
0.1952 -0.2609 -1.7492 0.440 -0.796 0.416 112 90 55 0 0
0.1946 -0.2629 -1.7535 0.392 -0.891 0.231 98 78 45 0 0
0.1945 -0.2635 -1.7587 0.239 -0.962 0.129 97 77 45 0 0
0.1954 -0.2614 -1.7657 -0.020 -0.995 -0.099 99 79 46 0 0
0.1957 -0.2606 -1.7718 -0.686 -0.613 0.392 102 82 49 0 0
0.1953 -0.2622 -1.7763 -0.483 -0.854 0.195 96 75 45 0 0
0.1837 -0.3003 -1.8289 -0.173 -0.674 0.719 110 87 53 0 0
0.1824 -0.3042 -1.8318 -0.119 -0.783 0.611 109 86 52 0 0
0.1819 -0.3068 -1.8470 0.063 -0.882 0.467 114 91 59 0 0
0.1812 -0.3090 -1.8510 0.063 -0.882 0.467 115 92 60 0 0
0.1804 -0.3116 -1.8548 0.185 -0.794 0.580 111 88 56 0 0
0.1801 -0.3129 -1.8596 0.180 -0.923 0.341 105 82 48 0 0
0.1796 -0.3146 -1.8640 0.180 -0.923 0.341 108 85 51 0 0
0.1710 -0.3456 -1.9499 -0.201 -0.785 0.585 107 84 50 0 0
0.1624 -0.3743 -1.9971 -0.074 -0.994 -0.083 112 89 55 0 0
0.1377 -0.4597 -2.1855 -0.176 -0.971 -0.160 152 119 74 0 0
0.2134 -0.1805 -1.5677 0.220 -0.970 0.105 113 93 60 0 0
0.2140 -0.1789 -1.5740 0.324 -0.718 0.616 106 87 54 0 0
0.2105 -0.1904 -1.5890 -0.026 -0.705 0.708 89 73 42 0 0
0.1724 -0.3062 -1.5888 -0.116 -0.362 0.925 127 103 70 0 0
0.1894 -0.2631 -1.7469 0.430 -0.884 0.183 126 104 67 0 0
0.1809 -0.2936 -1.8271 0.199 -0.891 0.408 109 87 51 0 0
0.1803 -0.2956 -1.8313 0.102 -0.943 0.318 111 88 54 0 0
0.1785 -0.3013 -1.8330 -0.355 -0.901 0.249 107 84 50 0 0
0.1768 -0.3070 -1.8459 -0.093 -0.915 0.393 113 90 56 0 0
0.1763 -0.3088 -1.8503 -0.093 -0.915 0.393 113 90 56 0 0
0.1704 -0.3301 -1.9089 -0.260 -0.960 0.106 112 92 55 0 0
0.1703 -0.3305 -1.9143 -0.251 -0.937 0.244 111 91 54 0 0
0.1643 -0.3526 -1.9842 0.120 -0.740 0.662 110 88 52 0 0
0.1618 -0.3608 -1.9952 -0.484 -0.720 0.497 108 85 52 0 0
0.1595 -0.3683 -2.0010 -0.436 -0.871 0.227 109 86 52 0 0
0.1312 -0.4640 -2.1805 -0.383 -0.791 0.477 144 112 70 0 0
0.1105 -0.5293 -2.2225 -0.334 -0.757 0.561 145 123 72 0 0
0.2193 -0.1453 -1.5329 0.572 -0.687 0.448 111 90 59 0 0
0.2159 -0.1559 -1.5323 0.190 -0.360 0.913 111 90 59 0 0
0.2075 -0.1832 -1.5653 0.339 -0.932 0.129 112 92 58 0 0
0.2068 -0.1854 -1.5695 0.265 -0.873 0.409 119 99 66 0 0
0.2053 -0.1902 -1.5721 0.494 -0.825 0.275 105 85 52 0 0
0.1836 -0.2657 -1.7444 0.375 -0.925 0.064 112 91 59 0 0
0.1712 -0.3085 -1.8383 -0.040 -0.907 0.418 115 93 57 0 0
0.1705 -0.3110 -1.8421 -0.116 -0.977 0.181 112 90 53 0 0
0.1639 -0.3347 -1.9103 0.108 -0.837 0.536 111 91 54 0 0
0.1411 -0.4140 -2.0918 0.160 -0.684 0.712 90 67 34 0 0
0.1322 -0.4430 -2.1262 -0.316 -0.754 0.575 106 83 41 0 0
0.1312 -0.4465 -2.1351 -0.158 -0.859 0.486 119 91 46 0 0
0.1290 -0.4545 -2.1579 -0.331 -0.910 0.251 148 117 73 0 0
0.1287 -0.4558 -2.1627 -0.386 -0.895 0.225 150 119 75 0 0
0.1055 -0.5331 -2.2844 0.212 -0.803 0.557 172 169 167 0 0
0.2551 -0.0175 -1.4757 0.879 -0.205 0.431 132 123 114 0 0
0.2261 -0.1071 -1.4884 0.611 -0.742 0.278 105 86 60 0 0
0.2147 -0.1430 -1.5119 0.424 -0.883 0.203 111 90 63 0 0
0.2038 -0.1793 -1.5669 -0.866 -0.359 0.348 117 95 61 0 0
0.2006 -0.1895 -1.5718 -0.222 -0.963 0.152 119 97 61 0 0
0.2000 -0.1915 -1.5760 -0.359 -0.883 0.303 107 85 50 0 0
0.1999 -0.1922 -1.5810 -0.207 -0.931 0.300 97 77 42 0 0
0.1954 -0.2060 -1.5837 0.149 -0.658 0.738 97 78 45 0 0
0.1665 -0.3094 -1.8708 -0.341 -0.810 0.477 107 85 49 0 0
0.1578 -0.3384 -1.9123 -0.325 -0.266 0.908 106 84 48 0 0
0.1552 -0.3480 -1.9453 0.071 -0.901 0.428 106 83 49 0 0
0.1504 -0.3656 -2.0012 -0.203 -0.890 0.408 105 82 50 0 0
0.1517 -0.3622 -2.0097 -0.699 -0.694 0.174 103 80 48 0 0
0.1343 -0.4195 -2.0861 -0.257 -0.940 0.223 95 73 39 0 0
0.1277 -0.4416 -2.1264 -0.019 -0.784 0.620 103 82 40 0 0
0.1247 -0.4517 -2.1414 -0.198 -0.899 0.389 124 95 52 0 0
0.1235 -0.4555 -2.1440 -0.158 -0.684 0.712 134 106 62 0 0
0.1247 -0.4522 -2.1529 -0.183 -0.907 0.378 137 108 63 0 0
0.1003 -0.5310 -2.2306 -0.060 -0.957 0.282 140 119 69 0 0
0.2109 -0.1394 -1.5078 -0.369 -0.504 0.781 99 79 51 0 0
0.1602 -0.3132 -1.8615 -0.342 -0.897 0.280 112 90 53 0 0
0.1621 -0.3079 -1.8711 -0.351 -0.774 0.528 107 85 48 0 0
0.1590 -0.3180 -1.8865 -0.040 -0.864 0.501 104 84 48 0 0
0.1459 -0.3641 -2.0014 -0.134 -0.917 0.376 103 80 48 0 0
0.1363 -0.3962 -2.0516 -0.173 -0.916 0.363 95 74 40 0 0
0.1299 -0.4183 -2.0980 -0.047 -0.951 0.306 101 78 46 0 0
0.1289 -0.4216 -2.1070 0.024 -0.852 0.522 101 78 46 0 0
0.1268 -0.4285 -2.1130 0.288 -0.824 0.489 96 73 41 0 0
0.1823 -0.2158 -1.5764 0.260 -0.670 0.695 93 74 41 0 0
0.1814 -0.2186 -1.5801 0.046 -0.562 0.826 94 77 44 0 0
0.1443 -0.3349 -1.6155 0.028 -0.920 0.391 106 87 57 0 0
0.1464 -0.3423 -1.9018 0.069 -0.998 -0.001 107 87 50 0 0
0.1454 -0.3456 -1.9051 -0.311 -0.898 0.311 105 84 47 0 0
0.1336 -0.3890 -2.0447 0.190 -0.887 0.421 87 67 32 0 0
0.1304 -0.3993 -2.0539 -0.276 -0.814 0.510 91 69 35 0 0
0.1283 -0.4063 -2.0657 0.028 -0.570 0.821 93 70 39 0 0
0.1261 -0.4134 -2.0716 -0.069 -0.887 0.456 125 102 69 0 0
0.1256 -0.4153 -2.0758 -0.171 -0.935 0.310 109 86 54 0 0
0.1251 -0.4168 -2.0805 -0.171 -0.935 0.310 97 78 43 0 0
0.1247 -0.4183 -2.0851 -0.209 -0.945 0.253 97 76 41 0 0
0.1254 -0.4165 -2.0925 -0.125 -0.930 0.346 100 76 43 0 0
0.1237 -0.4227 -2.1109 -0.234 -0.932 0.276 92 69 38 0 0
0.1226 -0.4264 -2.1138 0.010 -0.827 0.562 98 75 43 0 0
0.1223 -0.4273 -2.1189 -0.187 -0.861 0.473 95 72 41 0 0
0.1126 -0.4603 -2.1795 -0.365 -0.810 0.460 137 108 68 0 0
0.0892 -0.5377 -2.2825 0.066 -0.995 0.074 171 169 165 0 0
0.1852 -0.1906 -1.5581 -0.082 -0.926 -0.368 121 98 60 0 0
0.1781 -0.2133 -1.5718 -0.052 -0.677 0.734 110 88 52 0 0
0.1750 -0.2229 -1.5768 -0.120 -0.414 0.902 97 79 43 0 0
0.1455 -0.3286 -1.8712 0.039 -0.912 0.408 103 81 44 0 0
0.1416 -0.3415 -1.8901 -0.001 -0.993 -0.120 102 80 45 0 0
0.1344 -0.3688 -1.9958 0.045 -0.868 0.495 109 86 54 0 0
0.1783 -0.1959 -1.5382 -0.294 -0.917 -0.269 125 101 63 0 0
0.1789 -0.1942 -1.5445 -0.294 -0.917 -0.269 123 99 62 0 0
0.1763 -0.2029 -1.5610 -0.073 -0.949 0.306 125 100 60 0 0
0.1740 -0.2105 -1.5672 -0.079 -0.831 0.551 110 86 49 0 0
0.1729 -0.2142 -1.5705 -0.272 -0.618 0.738 113 91 55 0 0
0.1445 -0.3133 -1.8080 0.142 -0.808 0.572 105 83 45 0 0
0.1369 -0.3403 -1.8787 -0.163 -0.914 0.372 98 75 41 0 0
0.1295 -0.3670 -1.9614 -0.081 -0.928 0.364 104 81 49 0 0
0.1286 -0.3700 -1.9648 -0.191 -0.758 0.623 105 82 50 0 0
0.1300 -0.3660 -1.9738 -0.061 -0.845 0.531 103 80 46 0 0
0.1300 -0.3663 -1.9793 -0.104 -0.978 0.180 101 78 44 0 0
0.1295 -0.3687 -1.9949 0.078 -0.901 0.427 105 85 50 0 0
0.1102 -0.4341 -2.1169 0.086 -0.843 0.530 100 77 40 0 0
0.1716 -0.2022 -1.5606 -0.145 -0.957 0.252 128 102 60 0 0
0.1702 -0.2069 -1.5633 -0.094 -0.855 0.510 132 105 64 0 0
0.1693 -0.2098 -1.5669 -0.137 -0.898 0.419 127 102 62 0 0
0.1685 -0.2126 -1.5707 -0.272 -0.618 0.738 110 88 50 0 0
0.1676 -0.2155 -1.5744 0.010 -0.699 0.715 121 99 59 0 0
0.1532 -0.2611 -1.5845 0.328 -0.907 0.265 137 114 74 0 0
0.1242 -0.3682 -1.9596 -0.063 -0.856 0.514 104 81 49 0 0
0.1235 -0.3705 -1.9635 -0.063 -0.856 0.514 102 79 47 0 0
0.1171 -0.3942 -2.0492 -0.375 -0.827 0.420 96 76 41 0 0
0.1150 -0.4010 -2.0554 -0.426 -0.836 0.347 95 75 40 0 0
0.1665 -0.2014 -1.5230 0.456 -0.780 0.428 125 101 66 0 0
0.1674 -0.1992 -1.5402 0.424 -0.890 0.168 128 102 61 0 0
0.1630 -0.2142 -1.5690 0.125 -0.807 0.577 114 92 52 0 0
0.1624 -0.2164 -1.5731 0.000 -0.670 0.743 120 95 56 0 0
0.1611 -0.2205 -1.5760 -0.044 -0.537 0.842 139 114 74 0 0
0.1472 -0.2647 -1.5817 0.484 -0.833 0.269 147 119 80 0 0
0.1438 -0.2752 -1.5806 0.181 -0.460 0.869 127 103 69 0 0
0.1349 -0.3110 -1.7634 0.044 -0.935 0.351 114 92 54 0 0
0.1338 -0.3159 -1.7989 -0.425 -0.828 0.366 102 80 41 0 0
0.1337 -0.3162 -1.8042 -0.435 -0.656 0.617 102 80 41 0 0
0.1184 -0.3724 -1.9958 0.286 -0.719 0.633 98 78 43 0 0
0.1110 -0.3978 -2.0511 -0.181 -0.950 0.256 95 75 40 0 0
0.0713 -0.5303 -2.2306 -0.118 -0.970 0.214 134 112 63 0 0
0.1610 -0.2034 -1.5211 0.353 -0.683 0.640 119 95 61 0 0
0.1609 -0.2037 -1.5263 0.462 -0.840 0.286 121 97 59 0 0
0.1630 -0.1977 -1.5404 0.289 -0.950 0.121 133 104 64 0 0
0.1593 -0.2102 -1.5599 -0.029 -0.726 0.687 140 112 66 0 0
0.1590 -0.2112 -1.5646 0.155 -0.811 0.564 137 108 65 0 0
0.1577 -0.2159 -1.5726 0.050 -0.701 0.711 117 92 58 0 0
0.1295 -0.3140 -1.8049 -0.246 -0.716 0.654 101 79 43 0 0
0.1292 -0.3151 -1.8097 -0.387 -0.857 0.341 100 78 43 0 0
0.1247 -0.3311 -1.8489 0.180 -0.980 -0.085 106 84 47 0 0
0.1213 -0.3431 -1.8796 -0.086 -0.978 0.188 101 78 46 0 0
0.0881 -0.4581 -2.1403 -0.235 -0.913 0.334 110 85 45 0 0
0.2246 0.0183 -1.4175 0.724 -0.263 0.638 147 143 137 0 0
0.2212 0.0074 -1.4176 0.733 -0.289 0.616 120 110 98 0 0
0.1556 -0.2048 -1.5197 0.353 -0.683 0.640 104 80 45 0 0
0.1564 -0.2030 -1.5366 0.372 -0.925 -0.075 134 105 65 0 0
0.1556 -0.2056 -1.5405 -0.077 -0.997 -0.032 137 108 65 0 0
0.1557 -0.2054 -1.5459 -0.077 -0.997 -0.032 136 106 62 0 0
0.1546 -0.2096 -1.5595 -0.029 -0.726 0.687 137 110 62 0 0
0.1218 -0.3231 -1.8088 0.321 -0.797 0.512 100 78 41 0 0
0.1113 -0.3620 -1.9557 -0.206 -0.971 0.117 101 78 44 0 0
0.1106 -0.3646 -1.9653 -0.052 -0.917 0.395 97 74 40 0 0
0.1005 -0.4002 -2.0647 -0.123 -0.962 0.243 92 71 40 0 0
0.1568 -0.1838 -1.4673 0.319 -0.944 0.081 126 104 67 0 0
0.1557 -0.1881 -1.4913 0.305 -0.925 0.225 101 77 46 0 0
0.1550 -0.1907 -1.5057 -0.012 -0.753 0.658 108 84 48 0 0
0.1334 -0.2625 -1.5807 0.024 -0.403 0.915 144 118 79 0 0
0.1164 -0.3255 -1.8287 0.019 -0.975 0.220 98 75 41 0 0
0.1143 -0.3330 -1.8513 -0.359 -0.927 0.110 95 72 38 0 0
0.1138 -0.3347 -1.8557 0.052 -0.820 0.571 95 72 38 0 0
0.1117 -0.3420 -1.8730 -0.020 -0.792 0.610 90 67 35 0 0
0.1031 -0.3738 -1.9918 0.034 -0.975 0.221 91 71 36 0 0
0.1021 -0.3769 -1.9951 -0.205 -0.926 0.316 92 72 37 0 0
0.0869 -0.4294 -2.0980 -0.036 -0.863 0.503 96 73 37 0 0
0.0811 -0.4492 -2.1342 -0.102 -0.894 0.435 99 75 37 0 0
0.0780 -0.4592 -2.1431 -0.105 -0.834 0.541 108 83 42 0 0
0.0542 -0.5399 -2.2784 -0.026 -0.993 -0.112 137 132 121 0 0
0.1702 -0.1239 -1.4301 -0.148 -0.957 0.249 107 87 53 0 0
0.1508 -0.1874 -1.4751 -0.141 -0.982 -0.124 118 94 59 0 0
0.1501 -0.1901 -1.4842 -0.080 -0.986 0.149 116 92 55 0 0
0.1506 -0.1889 -1.4954 -0.285 -0.860 0.424 109 85 49 0 0
0.1390 -0.2284 -1.5631 0.087 -0.929 0.359 153 122 73 0 0
0.1386 -0.2298 -1.5675 0.128 -0.781 0.611 138 108 63 0 0
0.1115 -0.3254 -1.8278 0.019 -0.975 0.220 97 74 40 0 0
0.1090 -0.3345 -1.8550 0.052 -0.820 0.571 96 73 39 0 0
0.1031 -0.3550 -1.9077 -0.100 -0.756 0.646 92 69 37 0 0
0.1023 -0.3579 -1.9112 -0.100 -0.756 0.646 91 68 36 0 0
0.1011 -0.3616 -1.9141 -0.084 -0.888 0.452 92 69 37 0 0
0.0970 -0.3777 -1.9993 0.051 -0.839 0.542 87 67 34 0 0
0.0451 -0.5524 -2.2470 -0.378 -0.694 0.613 85 71 40 0 0
0.0488 -0.5417 -2.2816 0.091 -0.996 0.011 162 159 156 0 0
0.1691 -0.1111 -1.4202 0.236 -0.848 0.475 125 101 72 0 0
0.1689 -0.1121 -1.4250 -0.195 -0.944 0.266 120 97 66 0 0
0.1680 -0.1149 -1.4288 -0.086 -0.807 0.584 114 91 59 0 0
0.1658 -0.1220 -1.4304 -0.071 -0.988 0.135 114 91 59 0 0
0.1467 -0.1843 -1.4552 -0.100 -0.677 0.729 124 98 65 0 0
0.1463 -0.1868 -1.4906 -0.249 -0.863 0.439 115 90 54 0 0
0.1456 -0.1893 -1.4945 -0.039 -0.840 0.541 116 91 54 0 0
0.1330 -0.2323 -1.5707 0.270 -0.943 0.193 136 105 61 0 0
0.1156 -0.2934 -1.7271 0.448 -0.872 0.197 98 79 48 0 0
0.1090 -0.3174 -1.8158 -0.480 -0.714 0.510 97 75 37 0 0
0.1070 -0.3239 -1.8224 0.168 -0.967 0.190 93 70 36 0 0
0.1063 -0.3265 -1.8262 -0.003 -0.965 0.261 94 71 37 0 0
0.1050 -0.3313 -1.8508 0.081 -0.931 0.356 97 73 41 0 0
0.1025 -0.3397 -1.8616 -0.004 -0.983 0.185 88 64 32 0 0
0.1005 -0.3463 -1.8680 0.132 -0.933 0.335 89 66 32 0 0
0.1002 -0.3481 -1.8950 0.502 -0.732 0.460 95 72 40 0 0
0.0983 -0.3554 -1.9236 -0.194 -0.904 0.380 94 71 39 0 0
0.0878 -0.3922 -2.0157 0.239 -0.860 0.451 100 82 50 0 0
0.0872 -0.3941 -2.0200 0.258 -0.873 0.414 96 75 43 0 0
0.0865 -0.3965 -2.0238 0.251 -0.892 0.375 93 70 39 0 0
0.0863 -0.3973 -2.0290 0.131 -0.965 0.228 93 70 38 0 0
0.0514 -0.5156 -2.2149 -0.277 -0.821 0.499 132 108 59 0 0
0.0502 -0.5198 -2.2229 -0.115 -0.941 0.319 131 107 59 0 0
0.1401 -0.1912 -1.4875 -0.420 -0.559 0.715 124 97 60 0 0
0.1409 -0.1889 -1.4940 -0.119 -0.665 0.737 121 95 56 0 0
0.1310 -0.2219 -1.5388 0.361 -0.782 0.508 133 105 63 0 0
0.1281 -0.2325 -1.5698 0.218 -0.976 -0.019 137 106 60 0 0
0.1278 -0.2334 -1.5746 0.027 -0.830 0.557 153 122 76 0 0
0.1147 -0.2765 -1.5912 -0.045 -0.255 0.966 139 115 77 0 0
0.0893 -0.3594 -1.6186 -0.404 -0.774 0.487 83 63 29 0 0
0.1103 -0.2950 -1.7362 0.175 -0.921 0.347 91 72 39 0 0
0.1053 -0.3125 -1.7795 0.622 -0.723 0.301 99 78 46 0 0
0.1046 -0.3147 -1.7835 0.622 -0.723 0.301 148 123 82 0 0
0.1040 -0.3170 -1.7875 0.622 -0.723 0.301 110 86 49 0 0
0.1029 -0.3204 -1.7906 0.608 -0.616 0.501 95 72 38 0 0
0.1034 -0.3192 -1.8026 0.478 -0.872 0.103 96 74 37 0 0
0.1019 -0.3248 -1.8209 -0.044 -0.925 0.378 95 72 38 0 0
0.1015 -0.3263 -1.8255 -0.243 -0.881 0.406 94 71 37 0 0
0.1008 -0.3290 -1.8403 0.066 -0.998 -0.024 94 71 37 0 0
0.0960 -0.3453 -1.8678 -0.129 -0.961 0.245 90 67 33 0 0
0.0957 -0.3462 -1.8728 -0.159 -0.979 0.124 92 69 36 0 0
0.0955 -0.3476 -1.8888 -0.028 -0.906 0.422 95 72 40 0 0
0.0942 -0.3519 -1.8969 0.072 -0.964 0.256 91 68 36 0 0
0.0907 -0.3636 -1.9108 -0.292 -0.910 0.293 93 70 38 0 0
0.0876 -0.3761 -1.9928 -0.023 -0.920 0.392 89 69 36 0 0
0.0871 -0.3780 -1.9971 -0.023 -0.920 0.392 98 78 45 0 0
0.0820 -0.3949 -2.0183 0.233 -0.887 0.398 104 81 49 0 0
0.0814 -0.3969 -2.0225 0.233 -0.887 0.398 95 71 41 0 0
0.0814 -0.3971 -2.0282 0.080 -0.977 0.196 92 69 38 0 0
0.0777 -0.4104 -2.0640 -0.052 -0.812 0.581 90 70 37 0 0
0.0417 -0.5313 -2.2170 -0.382 -0.795 0.471 126 102 56 0 0
0.0406 -0.5350 -2.2195 -0.264 -0.723 0.639 125 102 58 0 0
0.0381 -0.5445 -2.2645 0.012 -0.998 0.060 89 78 55 0 0
0.2112 0.0673 -1.0805 0.485 -0.867 0.111 185 185 187 0 0
0.2110 0.0666 -1.0852 0.485 -0.867 0.111 184 185 187 0 0
0.2086 0.0580 -1.1072 0.092 -0.993 0.070 184 185 187 0 0
0.2086 0.0577 -1.1172 -0.004 -0.997 0.083 184 185 187 0 0
0.2013 0.0312 -1.2140 -0.531 -0.299 0.792 195 196 198 0 0
0.1859 -0.0193 -1.2337 -0.305 -0.952 0.008 199 200 202 0 0
0.1756 -0.0572 -1.3932 0.276 -0.853 0.442 120 100 71 0 0
0.1574 -0.1169 -1.4107 0.057 -0.945 0.322 120 97 65 0 0
0.1365 -0.1868 -1.4787 0.526 -0.614 0.589 132 103 65 0 0
0.1258 -0.2233 -1.5373 0.050 -0.837 0.545 120 92 53 0 0
0.1249 -0.2261 -1.5409 0.185 -0.979 0.080 113 86 45 0 0
0.1222 -0.2357 -1.5618 -0.739 -0.592 0.323 142 111 64 0 0
0.1234 -0.2322 -1.5799 -0.477 -0.845 -0.242 167 137 86 0 0
0.1079 -0.2864 -1.7137 -0.149 -0.907 0.394 127 106 66 0 0
0.1076 -0.2878 -1.7347 -0.174 -0.743 0.646 110 90 54 0 0
0.1066 -0.2911 -1.7380 -0.360 -0.823 0.440 107 86 52 0 0
0.1053 -0.2956 -1.7404 -0.109 -0.640 0.761 102 80 46 0 0
0.1026 -0.3047 -1.7508 0.094 -0.624 0.776 116 91 47 0 0
0.1012 -0.3097 -1.7750 0.463 -0.755 0.465 106 82 45 0 0
0.1002 -0.3133 -1.7781 0.534 -0.722 0.440 96 74 40 0 0
0.0993 -0.3162 -1.7816 0.509 -0.705 0.494 122 99 60 0 0
0.0984 -0.3193 -1.7850 0.509 -0.705 0.494 114 88 52 0 0
0.0971 -0.3235 -1.7876 0.489 -0.519 0.701 94 70 36 0 0
0.1016 -0.3096 -1.8141 -0.345 -0.697 0.629 97 75 38 0 0
0.0913 -0.3446 -1.8675 -0.062 -0.959 0.278 93 70 36 0 0
0.0910 -0.3458 -1.8722 -0.145 -0.905 0.399 97 74 41 0 0
0.0900 -0.3492 -1.8866 -0.357 -0.793 0.493 91 68 36 0 0
0.0897 -0.3506 -1.8913 -0.089 -0.953 0.288 89 66 34 0 0
0.0883 -0.3551 -1.8936 -0.465 -0.884 0.042 89 66 34 0 0
0.0872 -0.3591 -1.9076 0.061 -0.727 0.684 92 69 37 0 0
0.0858 -0.3645 -1.9377 -0.229 -0.873 0.431 90 67 36 0 0
0.0839 -0.3710 -1.9555 -0.034 -0.970 0.240 97 74 40 0 0
0.0773 -0.3941 -2.0122 0.145 -0.942 0.304 98 78 43 0 0
0.0473 -0.4969 -2.1942 0.221 -0.933 0.285 126 102 56 0 0
0.0397 -0.5218 -2.2069 -0.129 -0.576 0.807 131 107 60 0 0
0.0386 -0.5254 -2.2096 -0.129 -0.576 0.807 132 108 62 0 0
0.0388 -0.5250 -2.2159 -0.021 -0.901 0.432 131 107 61 0 0
0.0371 -0.5305 -2.2167 -0.352 -0.781 0.516 127 103 57 0 0
0.0332 -0.5445 -2.2634 0.012 -0.998 0.060 89 77 53 0 0
0.0347 -0.5405 -2.2915 -0.122 -0.965 0.234 187 187 188 0 0
0.2050 0.0630 -1.0834 0.382 -0.917 0.116 183 184 185 0 0
0.2036 0.0579 -1.1016 0.092 -0.993 0.070 185 187 187 0 0
0.2035 0.0576 -1.1066 0.092 -0.993 0.070 185 187 188 0 0
0.2033 0.0568 -1.1113 0.025 -0.995 0.099 186 187 188 0 0
0.2036 0.0576 -1.1167 0.081 -0.996 0.047 186 187 188 0 0
0.2035 0.0556 -1.1874 0.552 -0.834 0.012 192 194 194 0 0
0.2029 0.0535 -1.1968 0.520 -0.830 0.202 193 193 194 0 0
0.1890 0.0072 -1.2239 -0.762 -0.196 0.617 197 198 200 0 0
0.2009 0.0419 -1.3924 0.656 -0.108 0.747 127 122 114 0 0
0.1271 -0.2016 -1.4804 -0.347 -0.872 0.345 138 108 66 0 0
0.1263 -0.2046 -1.4892 0.320 -0.947 0.026 138 109 65 0 0
0.0877 -0.3336 -1.5967 -0.063 -0.909 0.412 176 152 114 0 0
0.1031 -0.2867 -1.7346 -0.174 -0.743 0.646 111 92 53 0 0
0.1023 -0.2894 -1.7383 -0.360 -0.823 0.440 113 94 55 0 0
0.1010 -0.2938 -1.7408 -0.362 -0.418 0.833 104 83 47 0 0
0.0979 -0.3039 -1.7505 -0.432 -0.718 0.546 122 95 49 0 0
0.0974 -0.3057 -1.7548 -0.036 -0.961 0.276 109 85 42 0 0
0.0973 -0.3063 -1.7654 -0.085 -0.950 0.299 109 86 45 0 0
0.0927 -0.3222 -1.7988 0.232 -0.971 0.056 95 72 39 0 0
0.0943 -0.3174 -1.8133 -0.032 -0.980 0.197 101 78 43 0 0
0.0920 -0.3257 -1.8354 0.030 -0.930 0.365 91 70 36 0 0
0.0868 -0.3433 -1.8675 -0.006 -0.967 0.256 94 73 40 0 0
0.0862 -0.3457 -1.8771 -0.352 -0.861 0.366 95 74 41 0 0
0.0856 -0.3477 -1.8869 -0.509 -0.682 0.525 89 67 35 0 0
0.0849 -0.3501 -1.8908 -0.495 -0.863 0.099 89 68 35 0 0
0.0812 -0.3633 -1.9376 -0.229 -0.873 0.431 83 61 32 0 0
0.0755 -0.3824 -1.9515 -0.291 -0.917 0.271 94 73 41 0 0
0.0697 -0.4036 -2.0384 -0.231 -0.889 0.396 86 66 31 0 0
0.0637 -0.4241 -2.0680 0.077 -0.838 0.540 84 63 29 0 0
0.0629 -0.4266 -2.0718 0.077 -0.838 0.540 113 90 47 0 0
0.0328 -0.5288 -2.2172 -0.220 -0.819 0.529 128 105 60 0 0
0.0321 -0.5313 -2.2208 -0.337 -0.770 0.541 126 104 59 0 0
0.0303 -0.5376 -2.2388 -0.546 -0.594 0.591 105 88 46 0 0
0.1972 0.0521 -1.1546 0.132 -0.972 0.193 139 130 120 0 0
0.1972 0.0515 -1.1851 0.552 -0.834 0.012 192 193 192 0 0
0.1969 0.0502 -1.1949 0.520 -0.830 0.202 192 193 196 0 0
0.1963 0.0482 -1.1992 0.243 -0.898 0.367 194 193 195 0 0
0.1478 -0.1163 -1.4096 -0.169 -0.941 0.292 122 97 64 0 0
0.1228 -0.2000 -1.4805 -0.210 -0.694 0.688 146 114 69 0 0
0.1209 -0.2063 -1.4875 0.320 -0.947 0.026 137 109 66 0 0
0.1119 -0.2381 -1.5803 -0.099 -0.913 0.397 146 115 61 0 0
0.0954 -0.2950 -1.6954 -0.101 -0.969 0.224 106 85 47 0 0
0.0951 -0.2959 -1.7003 -0.027 -0.997 0.066 122 101 62 0 0
0.0947 -0.2983 -1.7425 0.021 -0.520 0.854 115 93 55 0 0
0.0938 -0.3013 -1.7459 -0.007 -0.738 0.675 140 112 71 0 0
0.0930 -0.3041 -1.7496 -0.036 -0.961 0.276 132 104 58 0 0
0.0927 -0.3054 -1.7542 -0.036 -0.961 0.276 113 90 47 0 0
0.0926 -0.3059 -1.7594 0.240 -0.912 0.333 110 87 46 0 0
0.0910 -0.3114 -1.7721 -0.258 -0.863 0.434 109 86 43 0 0
0.0881 -0.3211 -1.7820 0.115 -0.380 0.918 142 114 74 0 0
0.0863 -0.3270 -1.7889 0.025 -0.809 0.587 94 73 38 0 0
0.0895 -0.3171 -1.8126 -0.032 -0.980 0.197 99 76 42 0 0
0.0884 -0.3211 -1.8266 -0.130 -0.905 0.404 86 63 29 0 0
0.0882 -0.3220 -1.8315 -0.251 -0.806 0.536 88 66 32 0 0
0.0875 -0.3244 -1.8354 -0.251 -0.806 0.536 89 69 34 0 0
0.0868 -0.3265 -1.8395 -0.251 -0.926 0.281 88 68 33 0 0
0.0865 -0.3279 -1.8441 -0.251 -0.926 0.281 91 71 36 0 0
0.0861 -0.3292 -1.8488 -0.251 -0.926 0.281 93 73 38 0 0
0.0854 -0.3317 -1.8526 -0.163 -0.984 0.077 90 70 35 0 0
0.0815 -0.3447 -1.8656 -0.352 -0.927 0.128 91 71 38 0 0
0.0765 -0.3625 -1.9259 -0.260 -0.919 0.297 94 74 42 0 0
0.0761 -0.3639 -1.9305 -0.260 -0.919 0.297 96 76 43 0 0
0.0651 -0.4027 -2.0381 -0.181 -0.911 0.371 88 68 33 0 0
0.0645 -0.4046 -2.0424 -0.304 -0.869 0.391 86 66 31 0 0
0.0640 -0.4064 -2.0467 -0.304 -0.869 0.391 84 64 29 0 0
0.0635 -0.4082 -2.0511 -0.304 -0.869 0.391 89 69 34 0 0
0.0629 -0.4104 -2.0551 -0.343 -0.835 0.430 88 68 33 0 0
0.0287 -0.5265 -2.2183 -0.089 -0.911 0.402 127 105 60 0 0
0.0266 -0.5337 -2.2354 0.023 -0.828 0.560 108 89 46 0 0
0.0270 -0.5326 -2.2425 -0.448 -0.849 0.281 105 88 45 0 0
0.0259 -0.5364 -2.2448 -0.203 -0.860 0.468 105 88 42 0 0
0.1106 -0.2252 -1.5287 -0.218 -0.823 0.525 124 97 57 0 0
0.1038 -0.2480 -1.5471 -0.751 -0.581 0.315 149 117 66 0 0
0.0872 -0.3076 -1.7574 0.354 -0.880 0.316 108 85 44 0 0
0.0871 -0.3079 -1.7626 -0.120 -0.992 0.031 110 86 45 0 0
0.0864 -0.3103 -1.7721 -0.279 -0.863 0.420 106 83 40 0 0
0.0857 -0.3127 -1.7759 -0.341 -0.758 0.556 100 76 40 0 0
0.0819 -0.3257 -1.7891 -0.169 -0.614 0.771 97 76 39 0 0
0.0830 -0.3228 -1.8301 0.022 -0.919 0.394 85 63 29 0 0
0.0825 -0.3246 -1.8344 0.022 -0.919 0.394 89 69 34 0 0
0.0772 -0.3424 -1.8439 -0.246 -0.936 0.253 89 69 34 0 0
0.0771 -0.3432 -1.8658 0.003 -0.980 0.198 86 66 33 0 0
0.0767 -0.3445 -1.8705 -0.305 -0.943 0.134 86 66 33 0 0
0.0764 -0.3456 -1.8753 -0.405 -0.904 0.140 86 66 33 0 0
0.0724 -0.3597 -1.9214 0.031 -0.755 0.655 88 68 35 0 0
0.0715 -0.3628 -1.9247 -0.090 -0.973 0.213 88 68 35 0 0
0.0722 -0.3607 -1.9321 -0.080 -0.827 0.557 90 70 37 0 0
0.0715 -0.3630 -1.9360 -0.024 -0.925 0.379 85 64 32 0 0
0.0631 -0.3919 -1.9880 -0.310 -0.868 0.387 87 66 35 0 0
0.0605 -0.4017 -2.0380 -0.181 -0.911 0.371 88 68 33 0 0
0.0600 -0.4034 -2.0424 -0.181 -0.911 0.371 89 69 34 0 0
0.0529 -0.4273 -2.0633 -0.374 -0.907 0.193 93 73 38 0 0
0.0526 -0.4283 -2.0684 -0.268 -0.949 0.168 119 96 54 0 0
0.0513 -0.4331 -2.0877 -0.035 -0.944 0.329 93 70 33 0 0
0.0324 -0.4975 -2.1844 0.004 -0.975 0.224 124 97 54 0 0
0.1898 0.0639 -0.9831 -0.693 -0.713 -0.106 181 182 183 0 0
0.1910 0.0602 -1.3775 0.626 -0.164 0.762 148 145 142 0 0
0.1386 -0.1138 -1.3991 -0.104 -0.729 0.677 119 97 67 0 0
0.1241 -0.1629 -1.4417 -0.364 -0.804 0.470 131 103 64 0 0
0.1213 -0.1721 -1.4420 -0.264 -0.783 0.564 133 105 67 0 0
0.1114 -0.2058 -1.4812 -0.057 -0.869 0.491 155 123 80 0 0
0.1111 -0.2071 -1.4961 -0.564 -0.821 0.093 143 112 67 0 0
0.1089 -0.2147 -1.5129 -0.075 -0.792 0.605 120 92 46 0 0
0.0843 -0.3003 -1.7230 -0.187 -0.763 0.618 109 89 53 0 0
0.0835 -0.3032 -1.7266 -0.162 -0.722 0.673 108 88 49 0 0
0.0838 -0.3022 -1.7327 -0.295 -0.941 0.163 112 92 54 0 0
0.0829 -0.3051 -1.7362 -0.338 -0.778 0.530 104 82 43 0 0
0.0821 -0.3083 -1.7506 -0.505 -0.862 0.027 111 88 45 0 0
0.0825 -0.3070 -1.7624 -0.148 -0.982 0.121 110 86 45 0 0
0.0816 -0.3100 -1.7659 -0.130 -0.815 0.564 110 87 45 0 0
0.0821 -0.3085 -1.7724 -0.341 -0.758 0.556 109 86 44 0 0
0.0814 -0.3110 -1.7763 -0.341 -0.758 0.556 103 80 43 0 0
0.0728 -0.3413 -1.8776 -0.100 -0.995 0.016 86 66 33 0 0
0.0662 -0.3644 -1.9226 -0.049 -0.862 0.505 86 66 33 0 0
0.0470 -0.4306 -2.0654 0.013 -0.970 0.243 103 80 39 0 0
0.1858 0.0669 -0.9837 -0.710 -0.697 -0.097 151 144 135 0 0
0.1839 0.0603 -1.0059 0.288 -0.955 0.072 111 91 64 0 0
0.1822 0.0529 -1.1077 -0.059 -0.996 0.064 103 80 46 0 0
0.1812 0.0486 -1.1516 0.044 -0.993 0.108 92 70 33 0 0
0.1833 0.0517 -1.3729 0.618 -0.174 0.766 96 91 81 0 0
0.1331 -0.1159 -1.4027 -0.216 -0.747 0.629 126 103 71 0 0
0.1325 -0.1181 -1.4068 0.079 -0.855 0.513 97 76 48 0 0
0.1261 -0.1394 -1.4167 0.157 -0.784 0.600 135 111 72 0 0
0.1254 -0.1419 -1.4207 -0.142 -0.829 0.541 141 114 70 0 0
0.1232 -0.1493 -1.4221 -0.389 -0.881 0.270 149 118 76 0 0
0.1222 -0.1526 -1.4255 -0.583 -0.777 0.238 145 116 76 0 0
0.1204 -0.1587 -1.4275 -0.204 -0.800 0.564 153 124 81 0 0
0.1181 -0.1665 -1.4391 0.027 -0.936 0.351 132 106 71 0 0
0.1158 -0.1743 -1.4454 0.067 -0.770 0.634 144 115 75 0 0
0.1070 -0.2046 -1.4969 -0.616 -0.761 0.203 146 114 69 0 0
0.1016 -0.2228 -1.5181 0.261 -0.462 0.847 133 105 57 0 0
0.0992 -0.2310 -1.5240 0.350 -0.820 0.454 133 108 68 0 0
0.0650 -0.3463 -1.5961 0.094 -0.991 0.100 167 144 96 0 0
0.0789 -0.3021 -1.7265 -0.162 -0.722 0.673 101 82 42 0 0
0.0760 -0.3127 -1.7743 -0.198 -0.689 0.697 100 78 39 0 0
0.0722 -0.3266 -1.8368 -0.381 -0.870 0.314 91 68 34 0 0
0.0721 -0.3270 -1.8421 -0.104 -0.974 0.203 88 65 31 0 0
0.0718 -0.3280 -1.8470 -0.104 -0.974 0.203 91 68 34 0 0
0.0289 -0.4765 -2.1598 0.124 -0.941 0.315 120 96 54 0 0
0.1602 -0.0061 -1.2307 0.678 -0.624 0.389 123 110 85 0 0
0.1590 -0.0105 -1.2340 0.679 -0.506 0.532 149 138 121 0 0
0.1213 -0.1391 -1.4110 -0.021 -0.617 0.787 132 110 72 0 0
0.1192 -0.1465 -1.4176 -0.112 -0.901 0.419 137 111 72 0 0
0.0967 -0.2232 -1.5172 0.140 -0.620 0.772 132 104 55 0 0
0.0744 -0.3012 -1.7263 -0.204 -0.731 0.651 98 79 38 0 0
0.0681 -0.3239 -1.8323 -0.188 -0.976 0.107 93 70 36 0 0
0.0673 -0.3266 -1.8415 -0.092 -0.971 0.219 87 64 30 0 0
0.0671 -0.3274 -1.8465 -0.104 -0.974 0.203 90 67 33 0 0
0.0603 -0.3505 -1.8747 -0.263 -0.891 0.369 83 63 30 0 0
0.0395 -0.4234 -2.0636 0.270 -0.873 0.407 88 65 33 0 0
0.0317 -0.4504 -2.1227 0.021 -0.888 0.460 96 74 37 0 0
0.0215 -0.4853 -2.1804 -0.103 -0.982 0.157 110 82 42 0 0
0.0109 -0.5212 -2.2129 -0.158 -0.963 0.219 115 90 49 0 0
0.0105 -0.5227 -2.2174 -0.351 -0.811 0.467 121 96 54 0 0
0.1852 0.0983 -0.9393 0.562 -0.522 0.642 180 180 182 0 0
0.1708 0.0490 -1.0158 0.089 -0.900 0.426 92 71 39 0 0
0.1702 0.0469 -1.0200 0.089 -0.900 0.426 98 75 43 0 0
0.1708 0.0487 -1.0256 -0.241 -0.953 0.182 95 72 40 0 0
0.1562 -0.0029 -1.2213 0.516 -0.737 0.436 115 90 57 0 0
0.1500 -0.0241 -1.2378 0.721 -0.553 0.418 129 114 94 0 0
0.1226 -0.1182 -1.3950 0.355 -0.870 0.343 126 100 67 0 0
0.1199 -0.1275 -1.4059 0.088 -0.716 0.692 125 97 64 0 0
0.1158 -0.1414 -1.4144 -0.238 -0.731 0.640 103 78 48 0 0
0.0890 -0.2339 -1.5791 0.121 -0.990 -0.073 147 115 68 0 0
0.0872 -0.2397 -1.5809 -0.045 -0.841 0.540 134 103 53 0 0
0.0909 -0.2275 -1.5936 -0.129 -0.992 -0.012 141 111 54 0 0
0.0553 -0.3474 -1.5888 0.112 -0.992 0.065 167 142 106 0 0
0.0552 -0.3477 -1.5938 0.028 -1.000 -0.005 189 163 119 0 0
0.0552 -0.3477 -1.6043 0.028 -1.000 -0.005 106 78 38 0 0
0.0622 -0.3276 -1.8455 -0.495 -0.569 0.657 89 66 32 0 0
0.0450 -0.3872 -1.9821 -0.368 -0.892 0.262 87 67 34 0 0
0.0447 -0.3884 -1.9869 -0.368 -0.892 0.262 86 66 33 0 0
0.0443 -0.3897 -1.9917 -0.368 -0.892 0.262 86 66 33 0 0
0.0414 -0.3995 -1.9953 -0.197 -0.861 0.468 84 64 32 0 0
0.0413 -0.4000 -2.0007 0.070 -0.994 0.083 86 66 33 0 0
0.0407 -0.4021 -2.0105 0.184 -0.967 0.176 104 80 43 0 0
0.0403 -0.4033 -2.0153 0.232 -0.973 0.023 115 91 53 0 0
0.0354 -0.4207 -2.0649 -0.167 -0.871 0.461 89 66 32 0 0
0.0324 -0.4306 -2.0682 -0.031 -0.998 -0.063 116 88 47 0 0
0.0234 -0.4622 -2.1467 -0.140 -0.938 0.316 103 78 37 0 0
0.0063 -0.5206 -2.2182 -0.095 -0.836 0.541 121 97 53 0 0
0.0056 -0.5230 -2.2220 -0.095 -0.836 0.541 126 102 56 0 0
-0.0009 -0.5451 -2.2429 -0.199 -0.787 0.583 102 85 41 0 0
-0.0010 -0.5456 -2.2484 -0.285 -0.901 0.326 93 76 38 0 0
-0.0015 -0.5471 -2.2529 -0.285 -0.901 0.326 87 71 43 0 0
-0.0015 -0.5473 -2.2587 -0.220 -0.934 0.280 90 77 50 0 0
0.1654 0.0474 -0.9904 -0.354 -0.872 0.339 73 52 27 0 0
0.1659 0.0472 -1.1647 -0.192 -0.946 0.261 90 67 34 0 0
0.1656 0.0460 -1.1694 -0.192 -0.946 0.261 80 59 23 0 0
0.1501 -0.0068 -1.2140 0.478 -0.875 0.083 135 109 75 0 0
0.0921 -0.2058 -1.4784 0.503 -0.853 0.138 144 115 73 0 0
0.0924 -0.2050 -1.4841 0.058 -0.669 0.741 118 92 57 0 0
0.0898 -0.2136 -1.4897 -0.190 -0.904 0.384 123 95 57 0 0
0.0842 -0.2328 -1.5103 -0.364 -0.721 0.589 120 91 43 0 0
0.0834 -0.2355 -1.5140 -0.364 -0.721 0.589 113 85 42 0 0
0.0831 -0.2367 -1.5238 0.051 -0.954 0.296 123 100 60 0 0
0.0839 -0.2343 -1.5357 -0.116 -0.957 0.267 125 97 53 0 0
0.0686 -0.2865 -1.5890 0.290 -0.180 0.940 149 117 76 0 0
0.0612 -0.3142 -1.8318 0.105 -0.878 0.466 82 59 25 0 0
0.0412 -0.3833 -1.9556 -0.641 -0.635 0.431 89 68 37 0 0
0.0406 -0.3855 -1.9825 -0.368 -0.892 0.262 85 64 31 0 0
0.0399 -0.3880 -1.9920 -0.395 -0.867 0.303 88 67 34 0 0
0.0350 -0.4047 -2.0074 0.459 -0.879 0.132 106 82 44 0 0
0.0348 -0.4055 -2.0126 0.453 -0.890 0.050 142 117 77 0 0
0.0350 -0.4049 -2.0188 0.440 -0.892 -0.101 94 72 37 0 0
0.0343 -0.4074 -2.0225 0.383 -0.908 0.171 87 66 34 0 0
0.0280 -0.4290 -2.0569 -0.210 -0.978 0.000 87 64 29 0 0
0.0183 -0.4629 -2.1509 -0.140 -0.938 0.316 107 82 41 0 0
0.0121 -0.4839 -2.1676 -0.164 -0.920 0.356 116 91 47 0 0
-0.0054 -0.5443 -2.2486 -0.285 -0.901 0.326 90 73 36 0 0
-0.0059 -0.5458 -2.2531 -0.285 -0.901 0.326 82 66 38 0 0
-0.0057 -0.5451 -2.2598 -0.082 -0.974 0.213 83 70 42 0 0
0.1817 0.1199 -0.9305 0.526 -0.342 0.779 180 180 182 0 0
0.1613 0.0503 -0.9714 -0.086 -0.824 0.560 113 90 49 0 0
0.1600 0.0440 -1.1578 -0.366 -0.890 0.273 93 70 33 0 0
0.1511 0.0135 -1.2117 0.021 -0.577 0.817 104 84 49 0 0
0.1498 0.0089 -1.2149 0.021 -0.577 0.817 110 85 47 0 0
0.1470 -0.0006 -1.2160 0.383 -0.594 0.708 114 89 50 0 0
0.1457 -0.0051 -1.2192 0.481 -0.574 0.663 139 110 69 0 0
0.1129 -0.1179 -1.3886 0.054 -0.896 0.440 133 111 78 0 0
0.1058 -0.1424 -1.4074 0.064 -0.889 0.453 148 119 73 0 0
0.0897 -0.1976 -1.4770 0.097 -0.782 0.616 118 89 54 0 0
0.0884 -0.2021 -1.4797 -0.507 -0.821 0.261 144 112 70 0 0
0.0850 -0.2136 -1.4890 0.037 -0.973 0.228 133 105 66 0 0
0.0785 -0.2362 -1.5392 -0.117 -0.950 0.290 117 91 49 0 0
0.0769 -0.2419 -1.5516 -0.211 -0.956 0.204 104 77 35 0 0
0.0447 -0.3518 -1.6054 -0.067 -0.828 0.557 97 71 32 0 0
0.0426 -0.3587 -1.6167 -0.115 -0.826 0.552 94 72 33 0 0
0.0455 -0.3515 -1.8825 -0.281 -0.847 0.451 86 63 31 0 0
0.0409 -0.3674 -1.9100 0.016 -0.961 0.277 86 66 33 0 0
0.0405 -0.3689 -1.9146 -0.028 -0.966 0.256 88 68 35 0 0
0.0377 -0.3788 -1.9582 -0.568 -0.626 0.535 90 69 38 0 0
0.0350 -0.3877 -1.9569 -0.037 -0.999 0.017 89 68 37 0 0
0.0245 -0.4249 -2.0944 0.025 -0.979 0.204 86 65 30 0 0
0.0189 -0.4440 -2.1133 -0.282 -0.886 0.368 97 75 39 0 0
0.0175 -0.4489 -2.1208 -0.307 -0.850 0.428 97 75 38 0 0
0.0130 -0.4643 -2.1486 -0.221 -0.796 0.564 105 80 39 0 0
0.0123 -0.4668 -2.1524 -0.221 -0.796 0.564 104 79 38 0 0
0.0092 -0.4775 -2.1664 0.065 -0.778 0.625 116 90 46 0 0
0.0085 -0.4797 -2.1704 -0.036 -0.901 0.432 117 93 48 0 0
-0.0059 -0.5292 -2.2259 -0.194 -0.643 0.741 122 99 56 0 0
-0.0109 -0.5466 -2.2512 -0.278 -0.723 0.633 82 67 35 0 0
0.1547 0.0439 -1.0126 0.104 -0.977 0.186 85 62 31 0 0
0.1554 0.0462 -1.0281 0.040 -0.971 0.237 107 84 50 0 0
0.1545 0.0421 -1.1616 -0.416 -0.831 0.368 92 70 30 0 0
0.1537 0.0393 -1.1656 -0.331 -0.782 0.528 94 72 34 0 0
0.1412 -0.0037 -1.2142 0.442 -0.598 0.669 135 109 65 0 0
0.1400 -0.0078 -1.2175 0.349 -0.370 0.861 131 103 56 0 0
0.1383 -0.0134 -1.2203 -0.129 -0.499 0.857 140 110 61 0 0
0.0847 -0.1982 -1.4655 -0.112 -0.991 0.071 147 115 77 0 0
0.0841 -0.2001 -1.4697 -0.244 -0.731 0.637 132 105 70 0 0
0.0842 -0.2000 -1.4750 -0.198 -0.792 0.578 93 66 29 0 0
0.0821 -0.2073 -1.4866 -0.508 -0.775 0.375 136 107 65 0 0
0.0740 -0.2352 -1.5390 -0.251 -0.848 0.466 97 70 32 0 0
0.0726 -0.2402 -1.5519 -0.280 -0.851 0.445 120 92 45 0 0
0.0377 -0.3596 -1.6205 0.025 -0.867 0.497 81 59 22 0 0
0.0559 -0.2983 -1.7086 -0.093 -0.883 0.459 100 81 41 0 0
0.0541 -0.3046 -1.7262 -0.051 -0.842 0.536 99 78 35 0 0
0.0470 -0.3290 -1.7808 0.069 -0.863 0.500 110 88 57 0 0
0.0055 -0.4736 -2.1689 0.021 -0.826 0.563 116 90 47 0 0
0.0023 -0.4846 -2.1827 -0.076 -0.742 0.666 104 79 38 0 0
-0.0153 -0.5450 -2.2516 0.211 -0.914 0.348 80 64 31 0 0
-0.0157 -0.5468 -2.2799 -0.151 -0.953 0.263 170 166 165 0 0
0.1510 0.0481 -0.9892 -0.026 -0.997 0.077 69 50 20 0 0
0.1512 0.0487 -0.9991 0.050 -0.990 0.133 69 49 20 0 0
0.1519 0.0502 -1.1288 -0.318 -0.929 0.189 98 75 39 0 0
0.1519 0.0504 -1.1339 -0.386 -0.749 0.538 97 75 38 0 0
0.1372 -0.0004 -1.2150 0.069 -0.986 0.150 140 113 71 0 0
0.1323 -0.0172 -1.2231 0.131 -0.616 0.777 147 116 75 0 0
0.1019 -0.1222 -1.3852 -0.423 -0.680 0.599 104 81 48 0 0
0.0847 -0.1817 -1.4426 -0.518 -0.838 0.172 114 90 55 0 0
0.0834 -0.1862 -1.4558 -0.138 -0.834 0.535 155 124 85 0 0
0.0786 -0.2026 -1.4729 0.294 -0.905 0.307 98 72 31 0 0
0.0780 -0.2048 -1.4769 -0.187 -0.982 0.004 153 122 81 0 0
0.0777 -0.2059 -1.4815 0.032 -0.930 0.366 154 122 78 0 0
0.0678 -0.2401 -1.5512 -0.043 -0.928 0.369 111 83 39 0 0
0.0521 -0.2941 -1.5874 0.078 -0.224 0.972 154 124 83 0 0
0.0339 -0.3566 -1.6113 -0.253 -0.905 0.343 81 58 24 0 0
0.0337 -0.3574 -1.6160 -0.114 -0.890 0.441 85 63 28 0 0
0.0431 -0.3253 -1.6631 -0.090 -0.739 -0.668 110 88 50 0 0
0.0510 -0.2984 -1.7186 -0.226 -0.920 0.319 100 81 41 0 0
0.0506 -0.2999 -1.7231 -0.226 -0.920 0.319 103 82 42 0 0
0.0452 -0.3187 -1.7432 0.115 -0.893 0.434 98 77 40 0 0
0.0199 -0.4067 -2.0029 0.121 -0.833 0.541 87 67 31 0 0
0.0184 -0.4118 -2.0045 0.103 -0.986 -0.127 119 95 57 0 0
0.0186 -0.4114 -2.0511 -0.133 -0.889 0.438 83 63 30 0 0
0.0177 -0.4144 -2.0545 0.041 -0.931 0.363 85 62 30 0 0
0.0080 -0.4482 -2.1194 -0.166 -0.965 0.203 99 77 40 0 0
-0.0015 -0.4810 -2.1730 -0.317 -0.917 0.243 121 97 53 0 0
-0.0027 -0.4850 -2.1753 -0.254 -0.871 0.420 114 89 48 0 0
-0.0221 -0.5518 -2.2559 -0.266 -0.755 0.599 81 70 51 0 0
-0.0221 -0.5518 -2.2619 -0.119 -0.876 0.466 98 91 76 0 0
-0.0200 -0.5448 -2.2807 -0.365 -0.922 0.126 165 161 161 0 0
-0.0276 -0.5707 -2.2734 -0.650 -0.133 0.748 203 202 205 0 0
0.1473 0.0519 -0.9803 0.220 -0.841 0.494 85 62 27 0 0
0.1476 0.0526 -1.1241 -0.110 -0.993 0.047 103 80 43 0 0
0.1473 0.0515 -1.1288 -0.000 -0.986 0.168 96 73 38 0 0
0.1463 0.0482 -1.1376 -0.085 -0.912 0.400 90 67 33 0 0
0.1394 0.0241 -1.1991 0.030 -0.891 0.453 104 86 53 0 0
0.1328 0.0016 -1.2050 -0.041 -0.889 0.455 120 102 61 0 0
0.1262 -0.0215 -1.2156 0.149 -0.364 0.920 124 100 55 0 0
0.1201 -0.0427 -1.3504 0.318 -0.486 0.814 80 65 46 0 0
0.0809 -0.1780 -1.4283 -0.094 -0.983 0.155 167 135 85 0 0
0.0808 -0.1784 -1.4385 -0.518 -0.838 0.172 130 105 67 0 0
0.0806 -0.1793 -1.4432 -0.518 -0.838 0.172 135 109 77 0 0
0.0726 -0.2066 -1.4648 0.445 -0.895 0.043 147 116 77 0 0
0.0726 -0.2067 -1.4700 0.375 -0.927 0.005 107 78 39 0 0
0.0726 -0.2067 -1.4752 0.375 -0.927 0.005 149 122 78 0 0
0.0465 -0.2970 -1.5849 -0.537 -0.229 0.812 152 122 78 0 0
0.0296 -0.3553 -1.6113 -0.284 -0.898 0.336 89 67 34 0 0
0.0292 -0.3568 -1.6156 -0.264 -0.839 0.477 93 71 33 0 0
0.0405 -0.3184 -1.7645 -0.034 -0.911 0.410 88 66 29 0 0
0.0324 -0.3467 -1.8777 -0.349 -0.756 0.554 77 54 23 0 0
0.0318 -0.3487 -1.8818 -0.346 -0.825 0.446 83 60 29 0 0
0.0207 -0.3870 -2.0005 -0.052 -0.801 0.596 83 60 26 0 0
0.0184 -0.3953 -2.0169 0.300 -0.832 0.466 105 83 48 0 0
0.0177 -0.3977 -2.0208 0.300 -0.832 0.466 111 88 52 0 0
0.0159 -0.4038 -2.0215 0.042 -0.503 0.863 85 64 33 0 0
0.0128 -0.4145 -2.0534 -0.041 -0.945 0.324 82 61 30 0 0
0.0104 -0.4229 -2.0697 0.008 -0.987 0.159 91 70 38 0 0
0.0033 -0.4474 -2.1190 -0.041 -0.978 0.205 99 77 39 0 0
0.0030 -0.4484 -2.1240 -0.041 -0.978 0.205 102 80 41 0 0
-0.0077 -0.4855 -2.1797 -0.311 -0.901 0.301 103 79 38 0 0
-0.0244 -0.5435 -2.2809 -0.328 -0.936 0.127 162 158 156 0 0
0.1418 0.0497 -0.9791 0.246 -0.881 0.404 101 77 42 0 0
0.1413 0.0479 -1.1369 0.226 -0.927 0.298 91 67 32 0 0
0.0778 -0.1721 -1.4152 -0.154 -0.874 0.461 169 137 88 0 0
0.0592 -0.2367 -1.5098 -0.002 -0.933 0.360 81 58 26 0 0
0.0429 -0.2931 -1.5865 -0.362 -0.275 0.891 151 122 76 0 0
0.0241 -0.3583 -1.6244 -0.271 -0.930 0.249 81 58 24 0 0
0.0424 -0.2950 -1.6921 -0.216 -0.873 0.437 131 109 68 0 0
0.0256 -0.3532 -1.8776 0.058 -0.875 0.481 83 60 29 0 0
0.0181 -0.3795 -1.9710 -0.197 -0.922 0.334 87 64 32 0 0
0.0146 -0.3916 -1.9959 -0.133 -0.862 0.489 80 57 25 0 0
0.0001 -0.4418 -2.1170 0.062 -0.533 0.844 94 72 35 0 0
-0.0013 -0.4465 -2.1188 -0.166 -0.965 0.203 101 79 41 0 0
-0.0116 -0.4822 -2.1758 -0.340 -0.833 0.436 118 94 53 0 0
-0.0122 -0.4842 -2.1799 -0.266 -0.913 0.310 110 87 45 0 0
-0.0126 -0.4857 -2.1845 -0.266 -0.913 0.310 109 86 44 0 0
-0.0246 -0.5274 -2.2292 -0.104 -0.887 0.450 115 94 48 0 0
-0.0358 -0.5661 -2.2757 -0.550 -0.715 0.431 202 202 204 0 0
0.0890 -0.1165 -1.3809 0.297 -0.878 0.374 142 112 72 0 0
