ply
format ascii 1.0
element vertex 857
property float x
property float y
property float z
property float nx
property float ny
property float nz
property uchar diffuse_red
property uchar diffuse_green
property uchar diffuse_blue
property uchar class
property uchar detection
end_header
-0.3932 0.1188 -2.0292 -0.744 0.370 0.556 85 64 18 0 0
-0.3958 0.1194 -2.0330 -0.744 0.370 0.556 113 90 38 0 0
-0.4075 0.1216 -2.0475 -0.963 0.100 0.251 81 55 23 0 0
-0.4399 0.1281 -2.1166 -0.892 0.243 0.381 90 66 30 0 0
-0.4514 0.1302 -2.1250 -0.905 -0.348 0.247 88 64 28 0 0
-0.4531 0.1306 -2.1356 -0.948 -0.311 0.069 88 64 28 0 0
-0.4548 0.1310 -2.1462 -0.978 -0.077 0.192 88 64 28 0 0
-0.4565 0.1314 -2.1508 -0.795 -0.015 0.606 87 63 27 0 0
-0.4899 0.1378 -2.1947 -0.874 0.248 0.417 108 84 43 0 0
-0.4919 0.1382 -2.1990 -0.874 0.248 0.417 107 83 40 0 0
-0.5072 0.1411 -2.2159 -0.850 0.299 0.434 105 83 41 0 0
-0.5100 0.1417 -2.2195 -0.864 0.146 0.482 104 81 39 0 0
-0.5123 0.1421 -2.2236 -0.864 0.146 0.482 106 83 41 0 0
0.0067 0.0410 -0.9113 -0.252 0.910 0.328 142 136 125 0 0
-0.1752 0.0760 -1.1672 -1.000 0.013 -0.004 80 64 38 0 0
-0.1638 0.0745 -1.2111 -0.736 0.574 0.357 78 63 40 0 0
-0.1608 0.0740 -1.2174 -0.962 0.152 0.226 69 54 33 0 0
-0.1350 0.0701 -1.2939 -0.954 -0.090 0.284 45 33 20 0 0
-0.1759 0.0783 -1.3822 -0.469 -0.387 0.794 190 160 107 0 0
-0.2271 0.0883 -1.4599 -0.864 -0.031 0.502 77 56 25 0 0
-0.2601 0.0948 -1.5206 -0.837 0.106 0.537 65 43 19 0 0
-0.2600 0.0948 -1.5260 -0.894 0.186 0.408 71 49 27 0 0
-0.2629 0.0954 -1.5296 -0.954 0.045 0.295 46 28 11 0 0
-0.2658 0.0959 -1.5333 -0.937 -0.256 0.238 57 35 10 0 0
-0.3257 0.1072 -1.5886 -0.748 0.076 0.660 127 104 71 0 0
-0.3190 0.1073 -1.7168 -0.950 -0.154 0.271 113 85 50 0 0
-0.3155 0.1071 -1.7577 -0.973 0.112 0.199 64 49 26 0 0
-0.3165 0.1073 -1.7626 -0.973 0.112 0.199 30 16 2 0 0
-0.3195 0.1080 -1.7774 -0.966 -0.071 0.247 69 48 26 0 0
-0.3213 0.1086 -1.8042 -0.951 -0.199 0.236 29 18 7 0 0
-0.3235 0.1091 -1.8139 -0.965 0.046 0.259 62 39 21 0 0
-0.3345 0.1112 -1.8347 -0.848 0.110 0.518 72 50 26 0 0
-0.3367 0.1117 -1.8388 -0.923 0.255 0.287 70 48 24 0 0
-0.3392 0.1124 -1.8655 -0.811 0.219 0.543 71 49 25 0 0
-0.3501 0.1147 -1.8978 -0.875 0.288 0.388 69 48 23 0 0
-0.3520 0.1151 -1.9021 -0.947 0.129 0.293 70 49 22 0 0
-0.3523 0.1152 -1.9134 -0.889 -0.060 0.453 72 48 22 0 0
-0.3537 0.1155 -1.9182 -0.854 -0.053 0.518 71 47 21 0 0
-0.3587 0.1165 -1.9261 -0.912 -0.125 0.392 71 47 21 0 0
-0.3660 0.1182 -1.9613 -0.944 0.022 0.328 70 48 24 0 0
-0.4388 0.1327 -2.1168 -0.892 0.243 0.381 90 66 30 0 0
-0.4484 0.1347 -2.1388 -0.727 0.337 0.598 87 63 27 0 0
-0.4512 0.1352 -2.1425 -0.727 0.337 0.598 87 63 27 0 0
-0.4533 0.1356 -2.1467 -0.887 0.371 0.276 87 63 27 0 0
-0.4789 0.1405 -2.1732 -0.742 0.350 0.572 89 67 30 0 0
-0.4890 0.1425 -2.2008 -0.876 0.233 0.423 103 77 40 0 0
-0.4970 0.1441 -2.2120 -0.869 0.046 0.492 104 78 43 0 0
-0.4999 0.1446 -2.2155 -0.806 0.145 0.574 102 78 39 0 0
-0.5096 0.1465 -2.2252 -0.911 0.204 0.359 99 76 34 0 0
0.0166 0.0439 -0.9093 -0.237 0.962 0.137 147 143 138 0 0
0.0152 0.0442 -0.9136 -0.279 0.873 0.401 113 102 86 0 0
-0.0064 0.0480 -0.9117 -0.072 -0.172 0.983 115 101 77 0 0
-0.0943 0.0635 -0.9079 -0.408 -0.153 0.900 120 101 74 0 0
-0.1706 0.0781 -1.0118 -0.841 0.537 -0.071 60 42 19 0 0
-0.1693 0.0780 -1.0216 -0.908 0.400 -0.129 75 59 35 0 0
-0.1738 0.0800 -1.1336 -0.469 0.875 0.120 89 73 49 0 0
-0.1758 0.0805 -1.1424 -0.551 0.833 -0.056 101 85 59 0 0
-0.1703 0.0800 -1.1933 -0.921 0.082 0.380 78 61 39 0 0
-0.1704 0.0802 -1.2030 -0.948 0.211 0.237 75 61 35 0 0
-0.1705 0.0802 -1.2079 -0.970 0.239 0.049 77 65 42 0 0
-0.1273 0.0734 -1.2817 -0.875 0.381 0.299 52 40 25 0 0
-0.1636 0.0808 -1.3722 -0.710 -0.164 0.685 175 140 88 0 0
-0.1781 0.0835 -1.3858 -0.711 -0.187 0.678 194 164 110 0 0
-0.2850 0.1045 -1.5748 -0.717 -0.103 0.689 128 107 74 0 0
-0.3202 0.1108 -1.5860 -0.657 0.512 0.553 123 101 68 0 0
-0.3200 0.1131 -1.7988 -0.979 0.175 0.102 42 29 15 0 0
-0.3219 0.1136 -1.8088 -0.965 0.046 0.259 48 32 17 0 0
-0.3294 0.1151 -1.8263 -0.934 0.102 0.343 82 60 36 0 0
-0.3338 0.1159 -1.8346 -0.848 0.110 0.518 72 51 23 0 0
-0.3355 0.1163 -1.8390 -0.923 0.255 0.287 71 49 25 0 0
-0.3380 0.1169 -1.8543 -0.989 0.011 0.145 72 50 26 0 0
-0.3491 0.1193 -1.8921 -0.921 0.023 0.388 72 51 24 0 0
-0.3504 0.1195 -1.8969 -0.925 -0.023 0.379 70 49 22 0 0
-0.3521 0.1199 -1.9015 -0.914 -0.037 0.404 70 49 22 0 0
-0.3540 0.1203 -1.9058 -0.878 0.155 0.453 71 48 22 0 0
-0.3509 0.1199 -1.9196 -0.798 0.090 0.595 71 47 21 0 0
-0.4376 0.1374 -2.1170 -0.892 0.243 0.381 90 66 30 0 0
-0.4508 0.1399 -2.1361 -0.915 0.292 0.279 87 63 27 0 0
-0.4521 0.1402 -2.1410 -0.915 0.292 0.279 89 65 29 0 0
-0.4535 0.1405 -2.1458 -0.915 0.292 0.279 88 64 28 0 0
-0.4705 0.1439 -2.1797 -0.852 0.048 0.521 88 65 30 0 0
-0.4784 0.1453 -2.1790 -0.752 0.379 0.540 89 66 30 0 0
-0.4878 0.1472 -2.2010 -0.876 0.233 0.423 82 59 25 0 0
-0.4965 0.1488 -2.2117 -0.869 0.046 0.492 100 78 37 0 0
-0.5187 0.1531 -2.2468 -0.928 0.289 0.235 99 80 39 0 0
0.0230 0.0474 -0.9109 -0.152 0.191 0.970 114 102 87 0 0
0.0056 0.0505 -0.9104 -0.049 -0.075 0.996 118 102 81 0 0
-0.1331 0.0751 -0.9320 -0.641 -0.050 0.766 212 187 157 0 0
-0.1700 0.0825 -1.0070 -0.707 0.705 -0.061 83 67 47 0 0
-0.1689 0.0823 -1.0121 -0.746 0.648 0.151 75 58 39 0 0
-0.1694 0.0845 -1.1932 -0.838 0.399 0.371 79 63 39 0 0
-0.1718 0.0851 -1.2069 -0.934 0.229 0.275 73 59 36 0 0
-0.1299 0.0789 -1.3106 -0.901 0.115 0.419 44 33 19 0 0
-0.1205 0.0778 -1.3614 -0.908 0.407 0.097 190 157 100 0 0
-0.1198 0.0778 -1.3669 -0.805 0.226 0.549 184 150 93 0 0
-0.1778 0.0882 -1.3907 -0.817 -0.101 0.567 192 161 106 0 0
-0.3100 0.1137 -1.5862 -0.581 -0.213 0.786 138 113 76 0 0
-0.3190 0.1153 -1.5862 -0.893 0.140 0.427 123 96 65 0 0
-0.3211 0.1157 -1.5902 -0.881 0.105 0.461 142 113 79 0 0
-0.3630 0.1237 -1.6445 -0.793 -0.080 0.604 73 50 21 0 0
-0.3138 0.1162 -1.7465 -1.000 0.014 0.008 81 61 32 0 0
-0.3165 0.1169 -1.7670 -0.947 0.092 0.308 27 14 3 0 0
-0.3209 0.1181 -1.8032 -0.906 0.093 0.412 34 22 9 0 0
-0.3228 0.1185 -1.8076 -0.906 0.093 0.412 48 33 17 0 0
-0.3323 0.1205 -1.8350 -0.836 0.213 0.506 75 54 27 0 0
-0.3380 0.1217 -1.8537 -0.952 0.251 0.175 73 51 27 0 0
-0.3371 0.1217 -1.8657 -0.884 0.318 0.342 71 49 25 0 0
-0.3382 0.1219 -1.8706 -0.929 0.309 0.204 68 46 22 0 0
-0.3656 0.1278 -1.9603 -0.887 0.100 0.450 77 53 26 0 0
-0.3816 0.1311 -2.0067 -0.895 0.166 0.414 75 52 22 0 0
-0.3754 0.1303 -2.0291 -0.707 0.366 0.605 90 73 42 0 0
-0.3865 0.1322 -2.0265 -0.930 0.215 0.297 75 60 25 0 0
-0.3891 0.1328 -2.0362 -0.888 0.271 0.372 136 114 67 0 0
-0.3954 0.1339 -2.0432 -0.543 0.138 0.828 92 69 34 0 0
-0.3990 0.1346 -2.0462 -0.612 0.081 0.787 88 62 27 0 0
-0.4650 0.1477 -2.1715 -0.889 0.358 0.285 94 70 34 0 0
-0.4676 0.1482 -2.1754 -0.852 0.048 0.521 89 66 30 0 0
-0.4867 0.1518 -2.2013 -0.876 0.233 0.423 84 62 26 0 0
-0.4897 0.1524 -2.2047 -0.858 0.016 0.513 90 67 33 0 0
-0.4984 0.1540 -2.2153 -0.790 -0.077 0.608 93 71 34 0 0
-0.5041 0.1551 -2.2225 -0.916 -0.099 0.389 85 63 26 0 0
-0.5091 0.1561 -2.2302 -0.791 -0.039 0.611 90 70 33 0 0
-0.5344 0.1611 -2.2808 -0.939 -0.043 0.342 199 200 202 0 0
-0.5500 0.1638 -2.2725 -0.779 0.423 0.462 204 204 206 0 0
-0.0919 0.0721 -0.9080 -0.421 -0.048 0.906 130 110 79 0 0
-0.1331 0.0796 -0.9317 -0.641 -0.050 0.766 197 172 139 0 0
-0.1541 0.0835 -0.9522 -0.832 0.404 0.380 119 96 61 0 0
-0.1304 0.0838 -1.3202 -0.993 0.103 0.063 49 37 18 0 0
-0.1170 0.0821 -1.3678 -0.801 -0.235 0.551 187 153 97 0 0
-0.2403 0.1048 -1.4671 -0.772 -0.198 0.604 87 65 40 0 0
-0.3183 0.1198 -1.5861 -0.923 -0.085 0.375 135 110 74 0 0
-0.3672 0.1290 -1.6413 -0.957 -0.198 0.212 79 56 25 0 0
-0.3400 0.1246 -1.6691 -0.644 0.431 -0.632 95 70 37 0 0
-0.3129 0.1212 -1.7800 -0.922 0.215 0.321 84 61 37 0 0
-0.3158 0.1218 -1.7836 -0.798 0.007 0.602 79 55 28 0 0
-0.3227 0.1233 -1.8071 -0.825 0.285 0.488 44 28 12 0 0
-0.3242 0.1236 -1.8117 -0.906 0.093 0.412 63 41 21 0 0
-0.3642 0.1324 -1.9665 -0.760 0.382 0.526 79 56 25 0 0
-0.3729 0.1342 -1.9891 -0.850 0.058 0.523 78 55 24 0 0
-0.4383 0.1476 -2.1511 -0.800 0.566 0.200 90 66 30 0 0
-0.4637 0.1523 -2.1719 -0.850 0.302 0.432 84 60 26 0 0
-0.4746 0.1544 -2.1868 -0.800 0.249 0.546 75 52 23 0 0
-0.5367 0.1663 -2.2779 -0.990 -0.024 0.139 199 200 202 0 0
0.0280 0.0559 -0.9070 -0.063 -0.145 0.987 115 102 82 0 0
-0.1385 0.0866 -1.0553 -0.508 0.826 0.245 92 77 59 0 0
-0.1279 0.0852 -1.0927 -0.821 -0.474 0.317 83 68 48 0 0
-0.1297 0.0856 -1.0968 -0.821 -0.474 0.317 94 79 57 0 0
-0.2338 0.1080 -1.4441 -0.679 0.033 0.733 90 67 36 0 0
-0.2326 0.1080 -1.4551 -0.764 0.083 0.639 79 56 29 0 0
-0.2337 0.1082 -1.4597 -0.686 0.035 0.727 82 59 33 0 0
-0.2385 0.1092 -1.4676 -0.859 0.338 0.385 88 66 40 0 0
-0.2411 0.1097 -1.4714 -0.740 0.341 0.580 66 47 24 0 0
-0.3043 0.1220 -1.5832 -0.918 -0.251 0.307 146 122 80 0 0
-0.3127 0.1235 -1.5836 -0.768 0.258 0.587 130 109 67 0 0
-0.3155 0.1240 -1.5872 -0.866 0.333 0.373 140 120 78 0 0
-0.3120 0.1252 -1.7245 -0.897 0.165 0.410 101 76 41 0 0
-0.3139 0.1255 -1.7287 -0.881 0.052 0.469 77 53 22 0 0
-0.3131 0.1257 -1.7514 -0.763 0.514 0.391 80 63 37 0 0
-0.3108 0.1257 -1.7808 -0.945 0.027 0.327 69 47 26 0 0
-0.3155 0.1265 -1.7833 -0.798 0.007 0.602 65 42 19 0 0
-0.3198 0.1273 -1.7860 -0.854 0.401 0.330 79 61 38 0 0
-0.3382 0.1318 -1.8923 -0.917 0.280 0.284 76 54 29 0 0
-0.3397 0.1322 -1.8970 -0.835 0.312 0.453 76 55 28 0 0
-0.3512 0.1345 -1.9232 -0.984 0.031 0.177 72 48 22 0 0
-0.3533 0.1350 -1.9332 -0.978 0.046 0.201 66 43 19 0 0
-0.3551 0.1353 -1.9377 -0.938 0.085 0.336 60 38 14 0 0
-0.3790 0.1405 -2.0191 -0.887 -0.234 0.398 79 57 26 0 0
-0.4002 0.1447 -2.0558 -0.928 0.051 0.368 84 60 26 0 0
-0.4224 0.1491 -2.1034 -0.755 0.271 0.597 92 68 29 0 0
-0.4253 0.1497 -2.1071 -0.869 0.165 0.467 90 66 29 0 0
-0.5021 0.1643 -2.2166 -0.889 0.300 0.346 89 67 31 0 0
-0.1229 0.0866 -0.9206 -0.561 0.268 0.783 193 168 131 0 0
-0.1181 0.0875 -1.0482 -0.464 0.597 0.655 95 82 65 0 0
-0.1342 0.0904 -1.0566 -0.569 0.760 0.314 89 75 55 0 0
-0.1366 0.0909 -1.0604 -0.823 0.565 -0.060 87 72 52 0 0
-0.1344 0.0906 -1.0708 -0.994 -0.019 -0.104 86 70 54 0 0
-0.1336 0.0906 -1.0758 -0.977 -0.165 -0.133 94 78 60 0 0
-0.1328 0.0905 -1.0809 -0.959 -0.258 -0.120 93 76 59 0 0
-0.1398 0.0941 -1.2594 -0.746 0.562 0.357 51 38 19 0 0
-0.1208 0.0922 -1.3599 -0.148 0.151 0.977 163 128 74 0 0
-0.1379 0.0952 -1.3621 -0.354 0.155 0.922 175 142 90 0 0
-0.2173 0.1096 -1.4211 -0.854 0.096 0.512 121 97 57 0 0
-0.2179 0.1097 -1.4260 -0.921 0.201 0.333 114 86 48 0 0
-0.2278 0.1115 -1.4313 -0.829 0.343 0.443 108 84 50 0 0
-0.2298 0.1119 -1.4354 -0.829 0.343 0.443 99 75 43 0 0
-0.2298 0.1120 -1.4406 -0.679 0.033 0.733 92 69 37 0 0
-0.2333 0.1126 -1.4439 -0.679 0.033 0.733 94 71 41 0 0
-0.2373 0.1136 -1.4678 -0.888 0.292 0.356 87 66 38 0 0
-0.3051 0.1268 -1.5823 -0.895 -0.093 0.436 134 113 76 0 0
-0.3096 0.1276 -1.5849 -0.680 0.247 0.691 153 133 96 0 0
-0.3128 0.1282 -1.5883 -0.680 0.247 0.691 129 108 71 0 0
-0.3558 0.1357 -1.5996 -0.803 0.416 0.426 184 157 115 0 0
-0.3653 0.1375 -1.6096 -0.895 0.350 0.276 91 69 37 0 0
-0.3115 0.1298 -1.7187 -0.959 0.162 0.232 107 80 46 0 0
-0.3092 0.1295 -1.7257 -0.895 0.312 0.319 106 79 47 0 0
-0.3142 0.1311 -1.7835 -0.831 0.190 0.522 68 47 23 0 0
-0.3246 0.1335 -1.8328 -0.948 0.200 0.249 72 50 27 0 0
-0.3256 0.1338 -1.8377 -0.973 0.136 0.185 74 52 29 0 0
-0.3265 0.1340 -1.8428 -0.974 0.174 0.148 71 49 25 0 0
-0.3391 0.1366 -1.8738 -0.963 0.024 0.267 79 58 31 0 0
-0.3544 0.1401 -1.9376 -0.937 0.159 0.310 65 41 17 0 0
-0.3729 0.1442 -2.0054 -0.962 0.226 0.153 76 52 24 0 0
-0.3998 0.1494 -2.0554 -0.928 0.051 0.368 84 60 26 0 0
-0.4211 0.1537 -2.1038 -0.755 0.271 0.597 92 69 29 0 0
-0.4283 0.1552 -2.1219 -0.939 0.144 0.312 87 63 27 0 0
-0.4504 0.1594 -2.1516 -0.845 0.063 0.530 88 64 28 0 0
-0.4533 0.1600 -2.1551 -0.858 0.070 0.509 87 63 27 0 0
-0.4557 0.1604 -2.1591 -0.858 0.070 0.509 89 65 28 0 0
-0.4581 0.1609 -2.1632 -0.831 0.168 0.530 81 57 23 0 0
-0.4604 0.1613 -2.1672 -0.865 0.189 0.464 76 53 22 0 0
-0.4789 0.1648 -2.1876 -0.929 0.177 0.326 78 55 23 0 0
-0.4825 0.1655 -2.1966 -0.829 0.084 0.553 89 67 30 0 0
-0.4906 0.1671 -2.2078 -0.820 0.159 0.550 100 78 41 0 0
-0.4930 0.1675 -2.2118 -0.738 0.308 0.600 100 77 43 0 0
-0.4955 0.1680 -2.2156 -0.918 0.190 0.349 95 72 38 0 0
-0.5302 0.1745 -2.2577 -0.902 0.089 0.421 127 123 113 0 0
-0.1091 0.0905 -1.0416 -0.883 0.422 0.204 93 81 64 0 0
-0.1315 0.0957 -1.1389 -0.673 0.710 -0.206 97 83 55 0 0
-0.0942 0.0925 -1.3616 -0.391 -0.049 0.919 162 133 85 0 0
-0.1732 0.1062 -1.3808 -0.849 0.007 0.528 166 137 92 0 0
-0.1740 0.1064 -1.3856 -0.831 0.357 0.427 136 107 62 0 0
-0.1760 0.1068 -1.3898 -0.831 0.357 0.427 151 122 79 0 0
-0.1805 0.1076 -1.3927 -0.955 0.045 0.294 119 93 55 0 0
-0.2167 0.1142 -1.4210 -0.854 0.096 0.512 104 79 42 0 0
-0.2169 0.1143 -1.4260 -0.921 0.201 0.333 99 73 35 0 0
-0.2967 0.1300 -1.5760 -0.753 0.556 0.352 135 111 72 0 0
-0.2997 0.1305 -1.5796 -0.785 0.322 0.530 115 93 56 0 0
-0.3029 0.1311 -1.5830 -0.706 0.012 0.708 142 122 86 0 0
-0.3073 0.1319 -1.5857 -0.648 0.430 0.629 167 147 108 0 0
-0.3109 0.1326 -1.5889 -0.639 0.376 0.672 140 120 84 0 0
-0.3043 0.1332 -1.7117 -0.773 0.256 0.580 112 88 51 0 0
-0.3083 0.1342 -1.7368 -0.965 0.149 0.215 85 62 34 0 0
-0.3094 0.1345 -1.7415 -0.970 0.151 0.192 89 69 42 0 0
-0.3104 0.1347 -1.7465 -0.970 0.151 0.192 92 72 47 0 0
-0.3120 0.1350 -1.7510 -0.911 0.276 0.306 76 58 33 0 0
-0.3132 0.1357 -1.7836 -0.831 0.190 0.522 70 48 24 0 0
-0.3160 0.1363 -1.7929 -0.861 0.453 0.229 81 63 42 0 0
-0.3184 0.1373 -1.8308 -0.827 0.369 0.425 78 56 32 0 0
-0.3229 0.1381 -1.8333 -0.885 0.199 0.420 77 55 31 0 0
-0.3249 0.1385 -1.8376 -0.974 0.174 0.148 76 54 30 0 0
-0.3324 0.1401 -1.8665 -0.937 0.038 0.347 76 54 30 0 0
-0.3338 0.1404 -1.8713 -0.842 0.042 0.538 78 56 32 0 0
-0.3416 0.1423 -1.9058 -0.681 -0.277 0.678 71 50 23 0 0
-0.3496 0.1438 -1.9173 -0.978 0.046 0.201 77 53 27 0 0
-0.3503 0.1440 -1.9226 -0.986 0.092 0.140 77 53 27 0 0
-0.3511 0.1442 -1.9278 -0.976 0.173 0.131 77 53 27 0 0
-0.3516 0.1444 -1.9332 -0.957 0.091 0.277 76 52 28 0 0
-0.3619 0.1465 -1.9604 -0.944 -0.005 0.330 86 62 34 0 0
-0.3689 0.1483 -2.0019 -0.824 0.318 0.470 76 52 24 0 0
-0.3944 0.1539 -2.0947 -0.894 0.203 0.399 68 53 19 0 0
-0.4287 0.1600 -2.1148 -0.751 0.626 0.209 87 63 27 0 0
-0.4275 0.1599 -2.1218 -0.939 0.144 0.312 87 63 27 0 0
-0.4290 0.1603 -2.1265 -0.939 0.144 0.312 87 63 27 0 0
-0.4306 0.1606 -2.1313 -0.939 0.144 0.312 88 64 28 0 0
-0.4521 0.1646 -2.1554 -0.828 -0.096 0.552 88 64 28 0 0
-0.4551 0.1652 -2.1589 -0.892 0.122 0.436 84 60 25 0 0
-0.4572 0.1656 -2.1632 -0.831 0.168 0.530 79 55 23 0 0
-0.4620 0.1665 -2.1712 -0.781 0.249 0.573 69 45 17 0 0
-0.4710 0.1683 -2.1876 -0.829 0.360 0.427 76 53 23 0 0
-0.4888 0.1716 -2.2086 -0.865 -0.018 0.502 99 77 40 0 0
-0.4895 0.1718 -2.2141 -0.826 0.148 0.543 97 74 40 0 0
-0.4970 0.1732 -2.2196 -0.762 0.332 0.556 91 68 34 0 0
-0.5296 0.1792 -2.2575 -0.902 0.089 0.421 132 128 118 0 0
-0.5487 0.1827 -2.2706 -0.950 0.271 0.151 203 205 206 0 0
-0.1089 0.0948 -1.0271 -0.656 0.730 -0.194 91 80 62 0 0
-0.1072 0.0946 -1.0325 -0.601 0.733 -0.320 87 76 58 0 0
-0.1726 0.1108 -1.3807 -0.865 0.204 0.458 116 91 58 0 0
-0.1723 0.1108 -1.3860 -0.831 0.357 0.427 130 102 66 0 0
-0.1743 0.1112 -1.3901 -0.831 0.357 0.427 144 115 76 0 0
-0.1788 0.1120 -1.3931 -0.950 0.105 0.293 141 112 74 0 0
-0.2262 0.1207 -1.4363 -0.846 0.293 0.446 74 52 24 0 0
-0.2287 0.1211 -1.4402 -0.760 0.184 0.624 93 72 43 0 0
-0.2315 0.1217 -1.4439 -0.760 0.184 0.624 80 59 32 0 0
-0.2346 0.1223 -1.4475 -0.822 0.071 0.564 69 49 23 0 0
-0.2361 0.1226 -1.4519 -0.885 -0.112 0.452 72 51 26 0 0
-0.2858 0.1328 -1.5766 -0.273 0.230 0.934 171 144 100 0 0
-0.2937 0.1342 -1.5773 -0.557 0.409 0.722 135 112 71 0 0
-0.2973 0.1348 -1.5805 -0.557 0.409 0.722 128 107 75 0 0
-0.3012 0.1355 -1.5835 -0.526 0.388 0.757 151 128 94 0 0
-0.3608 0.1460 -1.6113 -0.880 0.444 0.166 84 57 29 0 0
-0.3048 0.1380 -1.7109 -0.896 -0.162 0.414 116 92 55 0 0
-0.3123 0.1404 -1.7892 -0.951 0.206 0.231 97 77 52 0 0
-0.3146 0.1409 -1.7933 -0.990 0.007 0.138 86 68 47 0 0
-0.3187 0.1421 -1.8299 -0.798 0.022 0.602 81 60 33 0 0
-0.3358 0.1458 -1.8864 -0.948 0.165 0.272 77 56 29 0 0
-0.3379 0.1463 -1.8963 -0.875 0.110 0.471 78 57 30 0 0
-0.3402 0.1468 -1.9004 -0.887 0.136 0.441 75 54 27 0 0
-0.3406 0.1470 -1.9117 -0.773 0.097 0.627 75 51 25 0 0
-0.3449 0.1478 -1.9143 -0.905 0.204 0.374 81 57 31 0 0
-0.3469 0.1482 -1.9186 -0.945 0.256 0.203 79 55 29 0 0
-0.3512 0.1492 -1.9386 -0.935 0.210 0.284 70 46 22 0 0
-0.3861 0.1573 -2.0887 -0.947 0.307 0.099 95 72 35 0 0
-0.4163 0.1625 -2.0943 -0.673 0.638 0.375 167 142 104 0 0
-0.4251 0.1643 -2.1171 -0.861 0.250 0.442 87 63 28 0 0
-0.4266 0.1646 -2.1218 -0.947 0.131 0.294 87 63 27 0 0
-0.4283 0.1650 -2.1264 -0.939 0.144 0.312 88 64 28 0 0
-0.4298 0.1653 -2.1312 -0.939 0.144 0.312 89 65 29 0 0
-0.4466 0.1684 -2.1472 -0.855 0.072 0.513 94 70 34 0 0
-0.4486 0.1688 -2.1516 -0.892 0.179 0.415 90 66 30 0 0
-0.4508 0.1692 -2.1558 -0.873 0.214 0.439 89 65 29 0 0
-0.4543 0.1699 -2.1588 -0.892 0.122 0.436 83 58 26 0 0
-0.4559 0.1703 -2.1696 -0.890 0.298 0.345 72 49 20 0 0
-0.4610 0.1713 -2.1773 -0.799 0.251 0.546 71 47 19 0 0
-0.4652 0.1721 -2.1858 -0.792 0.238 0.562 72 48 20 0 0
-0.4779 0.1744 -2.1931 -0.876 0.206 0.436 81 59 24 0 0
-0.4805 0.1749 -2.1969 -0.796 0.278 0.538 91 69 32 0 0
-0.4859 0.1759 -2.2043 -0.786 0.166 0.596 97 75 38 0 0
-0.4983 0.1783 -2.2238 -0.778 0.232 0.584 93 70 36 0 0
-0.5257 0.1833 -2.2541 -0.870 0.470 0.151 101 92 74 0 0
-0.1206 0.1050 -1.2666 -0.690 0.639 -0.341 40 27 13 0 0
-0.0723 0.0982 -1.3500 -0.222 -0.181 0.958 60 38 14 0 0
-0.1807 0.1171 -1.3969 -0.867 -0.100 0.487 159 128 81 0 0
-0.2410 0.1283 -1.4644 -0.730 -0.009 0.683 90 68 44 0 0
-0.2913 0.1384 -1.5782 -0.475 0.349 0.808 141 118 75 0 0
-0.2951 0.1391 -1.5812 -0.557 0.409 0.722 143 123 87 0 0
-0.2991 0.1398 -1.5842 -0.517 0.402 0.756 168 147 112 0 0
-0.3010 0.1422 -1.7182 -0.949 0.209 0.235 106 83 46 0 0
-0.3020 0.1425 -1.7231 -0.948 0.252 0.192 99 74 40 0 0
-0.3088 0.1445 -1.7797 -0.831 0.190 0.522 88 67 39 0 0
-0.3112 0.1450 -1.7837 -0.831 0.190 0.522 80 58 32 0 0
-0.3111 0.1450 -1.7894 -0.908 0.356 0.221 102 82 57 0 0
-0.3183 0.1469 -1.8296 -0.798 0.022 0.602 77 56 31 0 0
-0.3360 0.1509 -1.8970 -0.912 0.242 0.330 79 56 29 0 0
-0.3914 0.1624 -2.0421 -0.878 -0.301 0.373 86 63 29 0 0
-0.4129 0.1671 -2.1143 -0.934 -0.126 0.335 88 64 28 0 0
-0.4238 0.1690 -2.1174 -0.844 0.299 0.445 87 63 27 0 0
-0.4258 0.1694 -2.1217 -0.871 0.274 0.407 89 65 29 0 0
-0.4280 0.1698 -2.1260 -0.844 0.299 0.445 89 65 29 0 0
-0.4530 0.1746 -2.1652 -0.913 0.273 0.303 74 50 22 0 0
-0.4545 0.1749 -2.1700 -0.884 0.160 0.440 73 49 21 0 0
-0.4598 0.1759 -2.1776 -0.799 0.251 0.546 69 45 17 0 0
-0.4922 0.1820 -2.2162 -0.875 0.120 0.469 91 69 32 0 0
-0.0031 0.0843 -0.8962 -0.264 0.076 0.962 129 111 82 0 0
-0.1143 0.1093 -1.3046 -0.716 0.377 0.588 40 29 14 0 0
-0.1705 0.1199 -1.3808 -0.882 0.405 0.240 126 99 66 0 0
-0.2058 0.1263 -1.4148 -0.842 0.343 0.416 129 106 63 0 0
-0.2929 0.1435 -1.5820 -0.557 0.409 0.722 154 133 95 0 0
-0.3603 0.1551 -1.6106 -0.893 0.205 0.400 93 67 37 0 0
-0.3079 0.1480 -1.7078 -0.982 -0.175 0.069 112 90 53 0 0
-0.3078 0.1491 -1.7798 -0.831 0.190 0.522 89 68 40 0 0
-0.3083 0.1493 -1.7851 -0.908 0.356 0.221 77 56 30 0 0
-0.3102 0.1502 -1.8232 -0.888 0.099 0.450 82 61 34 0 0
-0.3304 0.1544 -1.8775 -0.895 0.285 0.344 75 54 27 0 0
-0.3313 0.1547 -1.8826 -0.765 0.345 0.544 74 53 26 0 0
-0.3333 0.1551 -1.8869 -0.866 0.232 0.444 77 56 29 0 0
-0.3344 0.1553 -1.8918 -0.950 0.175 0.260 78 56 30 0 0
-0.3398 0.1564 -1.9052 -0.892 0.343 0.294 77 53 27 0 0
-0.3497 0.1590 -1.9617 -0.908 -0.010 0.418 81 57 29 0 0
-0.3596 0.1610 -1.9835 -0.766 0.153 0.624 74 50 23 0 0
-0.3623 0.1615 -1.9873 -0.764 0.207 0.611 74 50 24 0 0
-0.3678 0.1625 -1.9948 -0.829 0.233 0.508 68 44 17 0 0
-0.3888 0.1668 -2.0435 -0.921 0.121 0.370 86 63 29 0 0
-0.4134 0.1720 -2.1132 -0.932 -0.093 0.351 89 65 29 0 0
-0.4243 0.1740 -2.1222 -0.830 0.329 0.450 77 53 17 0 0
-0.4265 0.1744 -2.1265 -0.830 0.329 0.450 81 57 21 0 0
-0.4287 0.1748 -2.1307 -0.844 0.299 0.445 87 63 27 0 0
-0.4313 0.1753 -2.1345 -0.783 0.092 0.615 89 65 29 0 0
-0.4442 0.1777 -2.1478 -0.813 0.377 0.444 91 67 31 0 0
-0.4452 0.1779 -2.1530 -0.800 0.415 0.434 85 61 25 0 0
0.0141 0.0860 -0.8964 -0.176 -0.066 0.982 125 105 76 0 0
0.0044 0.0877 -0.8982 -0.170 -0.035 0.985 128 108 77 0 0
-0.1085 0.1130 -1.2966 -0.907 -0.051 0.418 77 61 43 0 0
-0.1121 0.1136 -1.3000 -0.798 0.011 0.603 65 50 34 0 0
-0.1149 0.1141 -1.3039 -0.742 0.029 0.670 41 27 14 0 0
-0.1645 0.1236 -1.3833 -0.842 0.241 0.482 132 103 64 0 0
-0.2023 0.1304 -1.4161 -0.861 0.256 0.439 125 101 59 0 0
-0.2992 0.1493 -1.5884 -0.392 0.606 0.692 143 122 83 0 0
-0.3028 0.1524 -1.7380 -0.954 0.281 0.101 89 65 37 0 0
-0.3033 0.1525 -1.7432 -0.954 0.281 0.101 104 81 49 0 0
-0.3272 0.1588 -1.8791 -0.872 0.186 0.452 79 58 29 0 0
-0.3293 0.1592 -1.8833 -0.872 0.186 0.452 79 58 29 0 0
-0.3315 0.1596 -1.8875 -0.854 0.322 0.408 78 57 28 0 0
-0.3334 0.1600 -1.8919 -0.854 0.322 0.408 79 57 29 0 0
-0.3354 0.1604 -1.8963 -0.854 0.322 0.408 79 55 29 0 0
-0.3438 0.1624 -1.9305 -0.830 -0.039 0.556 74 50 24 0 0
-0.3468 0.1629 -1.9341 -0.934 0.267 0.236 71 47 21 0 0
-0.3480 0.1632 -1.9391 -0.934 0.267 0.236 70 46 20 0 0
-0.3491 0.1635 -1.9440 -0.934 0.267 0.236 71 47 21 0 0
-0.3531 0.1647 -1.9819 -0.800 0.358 0.481 80 57 27 0 0
-0.3580 0.1657 -1.9899 -0.854 0.172 0.491 74 50 24 0 0
-0.3667 0.1672 -1.9951 -0.909 0.121 0.398 66 42 17 0 0
-0.3703 0.1679 -1.9982 -0.710 0.407 0.575 70 46 20 0 0
-0.3753 0.1691 -2.0237 -0.875 -0.081 0.477 87 68 36 0 0
-0.3809 0.1702 -2.0312 -0.792 0.207 0.574 128 103 53 0 0
-0.4122 0.1767 -2.1134 -0.815 0.136 0.563 89 65 29 0 0
-0.4270 0.1794 -2.1313 -0.768 0.424 0.480 84 60 24 0 0
-0.4311 0.1801 -2.1339 -0.690 0.216 0.691 87 63 27 0 0
-0.4393 0.1816 -2.1392 -0.769 -0.153 0.621 89 65 29 0 0
-0.4434 0.1825 -2.1538 -0.906 0.262 0.332 84 60 24 0 0
-0.5005 0.1931 -2.2256 -0.799 0.259 0.542 92 72 35 0 0
0.1081 0.0752 -0.8902 -0.593 0.766 0.250 176 177 180 0 0
0.1066 0.0755 -0.8946 -0.593 0.766 0.250 175 175 178 0 0
0.1017 0.0764 -0.8980 -0.135 -0.406 0.904 137 133 126 0 0
-0.1091 0.1173 -1.2705 -0.905 0.218 -0.366 57 44 22 0 0
-0.1064 0.1173 -1.2920 -0.907 0.054 0.419 56 41 21 0 0
-0.1118 0.1183 -1.2997 -0.798 0.011 0.603 77 62 40 0 0
-0.1145 0.1188 -1.3037 -0.742 0.029 0.670 47 31 15 0 0
-0.1118 0.1185 -1.3100 -0.974 0.022 0.225 51 37 20 0 0
-0.1642 0.1283 -1.3830 -0.737 0.409 0.538 150 119 76 0 0
-0.2163 0.1376 -1.4292 -0.916 0.148 0.372 86 63 27 0 0
-0.2344 0.1420 -1.5083 -0.933 0.316 0.170 66 42 15 0 0
-0.2393 0.1428 -1.5109 -0.815 0.381 0.438 69 45 21 0 0
-0.2909 0.1526 -1.5875 -0.490 0.579 0.651 157 133 85 0 0
-0.2970 0.1536 -1.5892 -0.534 0.231 0.813 151 128 85 0 0
-0.3188 0.1590 -1.6943 -0.824 0.159 -0.544 114 92 55 0 0
-0.3026 0.1571 -1.7376 -0.950 -0.268 0.160 100 77 44 0 0
-0.3457 0.1676 -1.9343 -0.965 0.188 0.181 73 50 24 0 0
-0.3489 0.1687 -1.9727 -0.829 0.173 0.532 83 60 32 0 0
-0.3515 0.1692 -1.9766 -0.839 -0.015 0.544 83 60 29 0 0
-0.3557 0.1701 -1.9851 -0.909 0.021 0.417 75 51 25 0 0
-0.3571 0.1704 -1.9899 -0.854 0.172 0.491 74 51 24 0 0
-0.3653 0.1718 -1.9954 -0.848 0.222 0.482 64 41 16 0 0
-0.3710 0.1732 -2.0205 -0.958 -0.109 0.267 95 73 42 0 0
-0.4224 0.1834 -2.1224 -0.880 0.132 0.455 82 58 22 0 0
-0.4245 0.1838 -2.1266 -0.922 0.072 0.381 82 58 22 0 0
-0.4263 0.1842 -2.1311 -0.922 0.072 0.381 85 61 25 0 0
-0.4512 0.1888 -2.1646 -0.946 -0.104 0.307 70 46 18 0 0
-0.4640 0.1914 -2.1899 -0.850 0.248 0.465 80 57 23 0 0
-0.4728 0.1930 -2.2005 -0.896 0.233 0.379 91 68 31 0 0
-0.4879 0.1956 -2.2116 -0.853 0.369 0.369 87 64 29 0 0
-0.4913 0.1964 -2.2208 -0.614 0.131 0.778 90 68 31 0 0
-0.1065 0.1217 -1.2712 -0.872 0.272 -0.406 58 43 24 0 0
-0.1060 0.1219 -1.2917 -0.943 0.104 0.315 70 55 35 0 0
-0.1108 0.1229 -1.2998 -0.742 0.029 0.670 83 68 46 0 0
-0.1141 0.1235 -1.3034 -0.742 0.029 0.670 53 38 16 0 0
-0.1705 0.1342 -1.3898 -0.674 0.409 0.616 160 128 83 0 0
-0.2156 0.1422 -1.4291 -0.916 0.148 0.372 92 69 36 0 0
-0.2172 0.1425 -1.4334 -0.916 0.148 0.372 83 60 28 0 0
-0.2153 0.1423 -1.4396 -0.865 0.218 0.451 93 70 36 0 0
-0.2170 0.1427 -1.4439 -0.869 0.254 0.424 85 62 30 0 0
-0.2182 0.1430 -1.4485 -0.888 0.151 0.434 91 68 35 0 0
-0.3298 0.1637 -1.5957 -0.617 -0.058 0.785 145 120 79 0 0
-0.3337 0.1644 -1.5987 -0.617 -0.058 0.785 176 151 106 0 0
-0.3271 0.1649 -1.6830 -0.715 0.345 -0.607 116 93 58 0 0
-0.3404 0.1714 -1.9259 -0.915 0.174 0.364 77 56 28 0 0
-0.3432 0.1719 -1.9297 -0.864 -0.033 0.503 75 55 28 0 0
-0.3465 0.1727 -1.9446 -0.975 0.169 0.142 70 48 21 0 0
-0.3503 0.1739 -1.9768 -0.901 0.076 0.427 76 54 27 0 0
-0.3554 0.1749 -1.9847 -0.909 0.021 0.417 74 53 26 0 0
-0.3562 0.1751 -1.9899 -0.854 0.172 0.491 71 50 23 0 0
-0.3640 0.1765 -1.9957 -0.859 0.226 0.459 72 51 24 0 0
-0.3697 0.1776 -2.0090 -0.950 0.211 0.229 76 55 26 0 0
-0.4421 0.1918 -2.1414 -0.799 0.345 0.493 91 67 29 0 0
-0.4628 0.1960 -2.1902 -0.850 0.248 0.465 84 61 27 0 0
-0.4717 0.1976 -2.2007 -0.896 0.233 0.379 88 65 31 0 0
-0.4750 0.1982 -2.2040 -0.814 0.014 0.581 95 73 35 0 0
-0.4791 0.1989 -2.2065 -0.754 0.380 0.537 96 74 35 0 0
-0.4836 0.1997 -2.2086 -0.760 0.401 0.512 92 69 35 0 0
-0.5120 0.2051 -2.2504 -0.896 0.375 0.237 104 88 57 0 0
-0.1022 0.1262 -1.2981 -0.731 0.319 0.604 76 61 37 0 0
-0.0979 0.1259 -1.3206 -0.849 0.522 -0.077 56 42 20 0 0
-0.1384 0.1334 -1.3739 -0.876 0.021 0.482 111 92 59 0 0
-0.2134 0.1467 -1.4402 -0.804 0.220 0.553 83 60 27 0 0
-0.2149 0.1470 -1.4446 -0.855 0.317 0.410 70 46 19 0 0
-0.2213 0.1483 -1.4568 -0.844 0.139 0.518 71 46 19 0 0
-0.2226 0.1486 -1.4613 -0.899 0.012 0.437 79 58 31 0 0
-0.2490 0.1539 -1.5151 -0.742 -0.016 0.670 62 40 16 0 0
-0.2974 0.1661 -1.7564 -0.821 0.520 0.237 111 90 50 0 0
-0.3187 0.1714 -1.8547 -0.766 0.140 0.627 80 58 34 0 0
-0.3202 0.1717 -1.8593 -0.953 0.143 0.266 78 56 31 0 0
-0.3225 0.1726 -1.8863 -0.949 0.247 0.196 69 47 22 0 0
-0.3430 0.1767 -1.9291 -0.864 -0.033 0.503 76 55 28 0 0
-0.3443 0.1770 -1.9340 -0.957 -0.020 0.290 75 54 27 0 0
-0.3622 0.1810 -1.9964 -0.875 0.184 0.448 75 54 27 0 0
-0.3684 0.1822 -2.0035 -0.683 0.196 0.704 75 54 25 0 0
-0.3832 0.1854 -2.0510 -0.895 0.313 0.318 80 57 25 0 0
-0.4711 0.2024 -2.2005 -0.885 0.199 0.421 88 65 30 0 0
-0.4746 0.2030 -2.2035 -0.814 0.014 0.581 94 72 35 0 0
0.0471 0.0993 -0.8955 -0.310 0.310 0.899 126 109 85 0 0
-0.0966 0.1282 -1.2042 -0.402 0.504 0.765 90 76 48 0 0
-0.0976 0.1305 -1.3152 -0.909 0.194 -0.370 71 55 30 0 0
-0.0951 0.1302 -1.3214 -0.909 0.194 -0.370 59 43 22 0 0
-0.2153 0.1519 -1.4491 -0.855 0.317 0.410 86 63 33 0 0
-0.2205 0.1529 -1.4568 -0.844 0.139 0.518 84 58 30 0 0
-0.2228 0.1533 -1.4607 -0.844 0.139 0.518 73 51 24 0 0
-0.2449 0.1579 -1.5169 -0.749 0.415 0.517 60 40 15 0 0
-0.3175 0.1728 -1.6880 -0.775 0.092 -0.626 113 90 56 0 0
-0.2947 0.1705 -1.7576 -0.737 0.547 0.396 111 88 51 0 0
-0.3053 0.1733 -1.8122 -0.854 0.479 0.205 76 54 30 0 0
-0.3159 0.1758 -1.8560 -0.695 0.015 0.719 76 54 30 0 0
-0.3192 0.1768 -1.8823 -0.927 0.094 0.364 68 47 23 0 0
-0.3209 0.1772 -1.8868 -0.927 0.094 0.364 64 42 19 0 0
-0.3229 0.1776 -1.8911 -0.942 0.177 0.286 63 41 18 0 0
-0.3394 0.1813 -1.9486 -0.892 0.208 0.401 73 51 23 0 0
0.0796 0.1041 -1.1572 -0.771 -0.194 0.607 72 54 33 0 0
0.0536 0.1085 -1.1729 -0.755 0.310 0.577 104 86 57 0 0
0.0104 0.1160 -1.2020 -0.345 0.229 0.910 100 82 48 0 0
-0.1101 0.1353 -1.2181 -0.591 0.675 0.442 95 77 47 0 0
-0.0889 0.1339 -1.3135 -0.443 0.886 0.138 73 59 35 0 0
-0.2406 0.1620 -1.5187 -0.670 -0.044 0.741 58 36 13 0 0
-0.2941 0.1745 -1.7242 -0.941 -0.072 0.331 112 89 55 0 0
-0.3205 0.1819 -1.8864 -0.911 0.010 0.411 66 44 21 0 0
-0.3220 0.1823 -1.8911 -0.942 0.177 0.286 63 41 18 0 0
-0.3384 0.1860 -1.9486 -0.902 0.294 0.316 73 52 24 0 0
-0.4021 0.1995 -2.1181 -0.844 0.536 0.031 88 66 29 0 0
-0.4658 0.2111 -2.1975 -0.946 0.170 0.277 87 63 29 0 0
-0.4664 0.2113 -2.2031 -0.816 0.192 0.544 83 60 25 0 0
-0.4911 0.2157 -2.2240 -0.794 -0.069 0.604 95 73 36 0 0
-0.4893 0.2155 -2.2317 -0.767 0.019 0.642 97 74 40 0 0
-0.5065 0.2190 -2.2716 -0.829 0.546 0.123 176 179 179 0 0
0.0725 0.1047 -0.8928 -0.170 0.695 0.698 124 112 96 0 0
0.0657 0.1058 -0.8956 -0.142 0.620 0.772 137 121 97 0 0
0.0802 0.1088 -1.1520 -0.841 -0.374 0.390 46 37 27 0 0
0.0179 0.1196 -1.1995 -0.393 0.261 0.882 105 87 48 0 0
0.0121 0.1205 -1.2023 -0.393 0.261 0.882 89 72 35 0 0
0.0052 0.1216 -1.2046 -0.308 0.464 0.831 86 70 37 0 0
-0.1158 0.1412 -1.2353 -0.626 0.704 0.334 110 90 57 0 0
-0.1371 0.1474 -1.3732 -0.816 0.182 0.548 122 99 65 0 0
-0.2405 0.1666 -1.5183 -0.670 -0.044 0.741 61 38 16 0 0
-0.2475 0.1678 -1.5198 -0.452 0.013 0.892 56 37 14 0 0
-0.3131 0.1852 -1.8681 -0.882 0.302 0.363 74 52 28 0 0
-0.3473 0.1933 -1.9999 -0.977 0.014 0.214 74 53 26 0 0
-0.3484 0.1936 -2.0049 -0.977 0.014 0.214 73 53 26 0 0
-0.3570 0.1950 -2.0102 -0.996 0.090 -0.019 74 51 23 0 0
-0.3962 0.2035 -2.1222 -0.893 0.450 0.003 86 64 27 0 0
-0.4105 0.2059 -2.1286 -0.943 0.206 0.263 85 63 26 0 0
-0.4082 0.2057 -2.1365 -0.841 0.417 0.345 84 62 25 0 0
-0.4860 0.2198 -2.2278 -0.767 0.019 0.642 94 71 36 0 0
-0.4999 0.2222 -2.2399 -0.898 -0.052 0.436 99 81 39 0 0
-0.5019 0.2226 -2.2441 -0.898 -0.052 0.436 100 80 39 0 0
0.0820 0.1079 -0.8953 -0.070 0.600 0.797 122 110 95 0 0
0.0725 0.1095 -0.8973 -0.074 0.555 0.828 131 114 92 0 0
0.0940 0.1103 -1.0956 -0.978 -0.051 0.201 36 29 23 0 0
0.0944 0.1104 -1.1008 -0.984 -0.068 0.163 25 18 12 0 0
0.0812 0.1133 -1.1418 -0.986 -0.121 0.119 10 8 5 0 0
0.0144 0.1250 -1.2028 -0.418 0.225 0.880 85 70 31 0 0
0.0018 0.1270 -1.2029 -0.446 0.535 0.718 91 74 39 0 0
-0.0949 0.1422 -1.2137 -0.385 0.343 0.857 105 87 57 0 0
-0.1001 0.1431 -1.2165 -0.678 0.342 0.650 101 80 49 0 0
-0.1036 0.1437 -1.2201 -0.696 0.316 0.645 114 94 61 0 0
-0.1099 0.1448 -1.2274 -0.696 0.316 0.645 122 99 66 0 0
-0.1133 0.1454 -1.2310 -0.654 0.230 0.720 92 68 32 0 0
-0.0583 0.1391 -1.3369 -0.814 0.414 0.406 88 62 27 0 0
-0.2356 0.1706 -1.5205 -0.846 -0.203 0.493 66 43 19 0 0
-0.2378 0.1710 -1.5246 -0.933 -0.112 0.342 64 44 19 0 0
-0.2396 0.1714 -1.5289 -0.896 -0.003 0.444 48 31 13 0 0
-0.2417 0.1718 -1.5330 -0.896 -0.003 0.444 53 35 16 0 0
-0.3341 0.1876 -1.6011 -0.818 0.337 0.465 186 160 112 0 0
-0.3362 0.1881 -1.6051 -0.818 0.337 0.465 182 154 109 0 0
-0.3383 0.1885 -1.6091 -0.818 0.337 0.465 179 149 103 0 0
-0.3452 0.1897 -1.6156 -0.775 0.030 0.631 82 57 24 0 0
-0.3475 0.1901 -1.6195 -0.779 0.138 0.612 101 77 48 0 0
-0.3507 0.1907 -1.6228 -0.889 0.115 0.443 100 76 44 0 0
-0.2875 0.1829 -1.7162 -0.778 0.293 0.555 109 85 46 0 0
-0.2901 0.1833 -1.7201 -0.733 0.395 0.554 108 85 46 0 0
-0.3238 0.1930 -1.9289 -0.795 0.346 0.498 73 52 24 0 0
-0.3271 0.1937 -1.9381 -0.717 0.505 0.480 78 57 30 0 0
-0.3403 0.1966 -1.9751 -0.852 0.383 0.358 83 62 33 0 0
-0.3483 0.1984 -2.0043 -0.933 0.250 0.259 73 53 26 0 0
-0.4073 0.2102 -2.1244 -0.926 0.331 0.180 84 61 25 0 0
-0.4094 0.2106 -2.1288 -0.862 0.356 0.362 84 60 24 0 0
-0.4650 0.2208 -2.2028 -0.844 0.072 0.531 82 58 24 0 0
-0.4808 0.2236 -2.2194 -0.834 0.079 0.545 82 57 27 0 0
-0.4820 0.2239 -2.2244 -0.859 0.007 0.512 86 61 29 0 0
-0.5121 0.2296 -2.2709 -0.765 0.581 0.279 195 195 197 0 0
0.0797 0.1131 -0.8991 -0.074 0.555 0.828 125 108 91 0 0
0.0929 0.1145 -1.0547 -0.960 -0.080 0.270 76 60 37 0 0
0.0522 0.1235 -1.1815 -0.708 0.306 0.636 119 100 62 0 0
-0.0923 0.1465 -1.2144 -0.293 0.010 0.956 113 97 69 0 0
-0.1046 0.1485 -1.2193 -0.902 -0.152 0.403 109 89 57 0 0
-0.1074 0.1490 -1.2231 -0.807 -0.053 0.588 102 81 49 0 0
-0.1102 0.1496 -1.2269 -0.807 -0.053 0.588 133 109 77 0 0
-0.1096 0.1497 -1.2372 -0.983 0.130 0.129 100 80 48 0 0
-0.0778 0.1471 -1.3431 -0.537 0.138 0.832 183 156 102 0 0
-0.1109 0.1526 -1.3589 -0.720 0.499 0.482 114 92 61 0 0
-0.1544 0.1601 -1.3950 -0.815 0.252 0.521 127 102 63 0 0
-0.2373 0.1757 -1.5244 -0.883 0.025 0.470 67 46 21 0 0
-0.2375 0.1758 -1.5295 -0.936 0.280 0.212 52 35 16 0 0
-0.2393 0.1762 -1.5338 -0.832 0.199 0.519 61 42 21 0 0
-0.2478 0.1780 -1.5556 -0.873 0.483 0.072 64 42 22 0 0
-0.2484 0.1782 -1.5605 -0.750 0.613 0.248 57 34 15 0 0
-0.3325 0.1920 -1.6015 -0.818 0.337 0.465 171 145 95 0 0
-0.3428 0.1939 -1.6165 -0.759 0.329 0.561 89 66 36 0 0
-0.3492 0.1951 -1.6232 -0.854 0.309 0.419 94 72 40 0 0
-0.3511 0.1954 -1.6273 -0.854 0.309 0.419 89 67 35 0 0
-0.2840 0.1871 -1.7179 -0.836 -0.087 0.542 109 86 45 0 0
-0.2820 0.1880 -1.7748 -0.873 0.309 0.379 69 44 20 0 0
-0.2975 0.1917 -1.8321 -0.941 0.276 0.194 79 58 31 0 0
-0.2984 0.1919 -1.8371 -0.941 0.276 0.194 77 56 30 0 0
-0.3080 0.1944 -1.8819 -0.835 0.053 0.547 64 42 20 0 0
-0.3304 0.1999 -1.9759 -0.862 0.364 0.353 81 60 31 0 0
-0.3469 0.2031 -2.0047 -0.894 0.300 0.333 72 52 25 0 0
-0.3538 0.2043 -2.0112 -0.977 0.199 -0.072 73 50 22 0 0
-0.3638 0.2070 -2.0627 -0.819 0.293 0.493 82 59 27 0 0
-0.3978 0.2136 -2.1255 -0.929 0.362 0.082 82 60 23 0 0
-0.4414 0.2216 -2.1859 -0.957 0.094 0.275 73 50 18 0 0
-0.4603 0.2248 -2.2000 -0.843 0.307 0.442 84 60 25 0 0
-0.4725 0.2269 -2.2077 -0.763 -0.224 0.606 90 66 32 0 0
-0.4817 0.2287 -2.2240 -0.859 0.007 0.512 87 62 30 0 0
-0.4901 0.2302 -2.2348 -0.668 0.004 0.744 87 66 31 0 0
0.0882 0.1166 -0.9013 -0.067 0.613 0.787 125 109 92 0 0
0.0903 0.1211 -1.1138 -0.931 0.069 0.358 16 13 8 0 0
0.0899 0.1212 -1.1187 -0.933 -0.036 0.358 15 12 8 0 0
0.0155 0.1346 -1.2076 -0.419 0.089 0.904 115 96 60 0 0
-0.0378 0.1428 -1.2115 -0.090 0.357 0.930 100 85 48 0 0
-0.0917 0.1511 -1.2143 -0.293 0.010 0.956 108 92 63 0 0
-0.0653 0.1488 -1.2915 -0.636 0.734 0.237 71 55 32 0 0
-0.0673 0.1502 -1.3371 -0.694 0.271 0.667 164 135 79 0 0
-0.0702 0.1507 -1.3410 -0.687 0.460 0.562 162 133 80 0 0
-0.1085 0.1570 -1.3596 -0.730 0.587 0.351 111 90 60 0 0
-0.1955 0.1720 -1.4362 -0.774 0.388 0.501 86 63 31 0 0
-0.2125 0.1753 -1.4690 -0.987 0.084 -0.136 79 59 32 0 0
-0.2147 0.1760 -1.4835 -0.893 0.360 0.269 81 63 42 0 0
-0.2161 0.1765 -1.4985 -0.771 0.625 0.125 129 105 68 0 0
-0.2379 0.1803 -1.5183 -0.828 -0.195 0.526 72 48 24 0 0
-0.2383 0.1807 -1.5339 -0.832 0.199 0.519 79 58 34 0 0
-0.2466 0.1824 -1.5504 -0.783 0.373 0.497 73 51 27 0 0
-0.2492 0.1831 -1.5649 -0.773 0.470 0.426 74 50 20 0 0
-0.2493 0.1832 -1.5702 -0.653 0.276 0.705 103 80 48 0 0
-0.3068 0.1926 -1.5952 -0.434 0.196 0.879 152 128 83 0 0
-0.3508 0.2000 -1.6270 -0.810 0.493 0.319 98 77 46 0 0
-0.2920 0.1954 -1.8182 -0.924 0.328 0.198 84 62 35 0 0
-0.2977 0.1973 -1.8655 -0.978 0.014 0.210 69 47 24 0 0
-0.3008 0.1979 -1.8690 -0.752 0.394 0.528 71 50 26 0 0
-0.3359 0.2057 -1.9770 -0.812 0.476 0.336 82 61 32 0 0
-0.3476 0.2086 -2.0271 -0.767 0.584 0.264 109 87 51 0 0
-0.3960 0.2182 -2.1262 -0.886 0.334 0.321 82 58 22 0 0
-0.4003 0.2190 -2.1348 -0.942 0.007 0.336 83 59 23 0 0
-0.4102 0.2206 -2.1387 -0.883 0.283 0.374 79 55 19 0 0
-0.4809 0.2334 -2.2239 -0.950 0.108 0.291 90 67 33 0 0
-0.4858 0.2343 -2.2318 -0.771 0.183 0.610 96 73 39 0 0
-0.4940 0.2358 -2.2428 -0.830 0.254 0.497 100 79 40 0 0
-0.4956 0.2362 -2.2475 -0.876 0.277 0.394 99 79 44 0 0
0.0901 0.1244 -1.0481 -0.945 0.233 -0.228 60 46 23 0 0
0.0897 0.1247 -1.0579 -0.967 0.250 -0.048 29 23 11 0 0
0.0943 0.1250 -1.0997 -0.865 0.246 0.439 29 24 18 0 0
0.0914 0.1258 -1.1139 -0.908 0.226 0.354 17 13 7 0 0
0.0132 0.1399 -1.2114 -0.489 0.174 0.855 122 103 63 0 0
-0.0003 0.1420 -1.2162 -0.211 0.325 0.922 105 90 48 0 0
-0.0910 0.1557 -1.2142 -0.325 0.044 0.945 104 88 59 0 0
-0.0625 0.1543 -1.3389 -0.674 0.658 0.334 162 135 81 0 0
-0.0644 0.1547 -1.3432 -0.564 0.808 0.169 151 122 74 0 0
-0.0698 0.1556 -1.3460 -0.509 0.802 0.313 155 124 79 0 0
-0.2470 0.1875 -1.5657 -0.773 0.470 0.426 78 55 24 0 0
-0.2486 0.1878 -1.5701 -0.703 0.573 0.422 115 91 60 0 0
-0.2524 0.1886 -1.5785 -0.429 0.624 0.653 125 104 69 0 0
-0.2817 0.1972 -1.7570 -0.668 0.744 0.016 112 88 53 0 0
-0.2747 0.1964 -1.7671 -0.880 0.475 0.006 68 45 14 0 0
-0.2768 0.1968 -1.7714 -0.610 0.334 0.718 67 43 15 0 0
-0.2789 0.1972 -1.7756 -0.730 0.559 0.393 83 59 30 0 0
-0.2751 0.1969 -1.7893 -0.838 0.470 0.279 95 72 38 0 0
-0.2912 0.2004 -1.8351 -0.776 0.297 0.557 81 60 33 0 0
-0.2930 0.2008 -1.8396 -0.901 0.244 0.359 80 59 31 0 0
-0.3335 0.2100 -1.9723 -0.747 0.574 0.335 82 61 32 0 0
-0.3401 0.2116 -1.9967 -0.838 0.405 0.367 73 52 25 0 0
-0.3454 0.2131 -2.0281 -0.745 0.600 0.292 107 84 47 0 0
-0.3872 0.2206 -2.0787 -0.783 0.619 0.063 77 58 23 0 0
-0.3938 0.2228 -2.1273 -0.935 0.244 0.258 79 55 19 0 0
-0.4445 0.2317 -2.1817 -0.905 0.121 0.408 81 57 23 0 0
-0.4465 0.2321 -2.1862 -0.905 0.121 0.408 77 52 20 0 0
-0.4931 0.2410 -2.2674 -0.928 0.280 -0.246 149 145 138 0 0
0.0773 0.1305 -1.0187 -0.865 0.304 -0.399 76 55 28 0 0
0.0898 0.1292 -1.0426 -0.834 0.537 -0.128 73 55 25 0 0
0.0922 0.1289 -1.0484 -0.887 0.438 -0.146 64 49 24 0 0
0.0146 0.1445 -1.2116 -0.489 0.174 0.855 115 97 54 0 0
-0.0872 0.1600 -1.2204 -0.357 0.542 0.761 121 101 74 0 0
-0.0405 0.1544 -1.2810 -0.300 0.765 0.570 89 74 50 0 0
-0.0402 0.1555 -1.3277 -0.333 0.918 -0.217 96 78 48 0 0
-0.2054 0.1848 -1.5192 -0.881 0.441 0.170 72 51 22 0 0
-0.2328 0.1889 -1.5148 -0.641 0.665 0.383 74 53 26 0 0
-0.2021 0.1849 -1.5423 -0.538 0.654 0.532 62 40 16 0 0
-0.2360 0.1902 -1.5501 -0.801 0.488 0.348 118 92 63 0 0
-0.2436 0.1917 -1.5671 -0.703 0.573 0.422 79 56 25 0 0
-0.2452 0.1922 -1.5769 -0.459 0.719 0.522 111 90 59 0 0
-0.3456 0.2088 -1.6397 -0.849 0.480 0.219 80 57 26 0 0
-0.2776 0.2014 -1.7591 -0.768 0.629 0.120 100 75 42 0 0
-0.2822 0.2023 -1.7673 -0.874 0.477 0.094 66 42 14 0 0
-0.2900 0.2051 -1.8353 -0.781 0.423 0.459 81 60 31 0 0
-0.2919 0.2055 -1.8398 -0.901 0.244 0.359 82 61 32 0 0
-0.3226 0.2129 -1.9563 -0.758 0.447 0.475 88 67 39 0 0
-0.3323 0.2148 -1.9784 -0.919 0.215 0.330 82 61 32 0 0
-0.3337 0.2152 -1.9832 -0.837 0.229 0.496 80 59 30 0 0
-0.3407 0.2165 -1.9956 -0.895 0.029 0.445 73 52 25 0 0
-0.3418 0.2171 -2.0124 -0.867 0.344 0.360 72 51 24 0 0
-0.3451 0.2178 -2.0217 -0.885 0.059 0.463 93 70 38 0 0
-0.3707 0.2227 -2.0672 -0.793 0.437 0.424 80 57 24 0 0
-0.4939 0.2457 -2.2537 -0.902 0.374 0.217 95 82 53 0 0
-0.4915 0.2457 -2.2681 -0.928 0.280 -0.246 155 152 147 0 0
0.0767 0.1352 -1.0132 -0.821 0.404 -0.404 120 99 72 0 0
0.0937 0.1334 -1.0436 -0.887 0.438 -0.146 76 55 24 0 0
0.0958 0.1333 -1.0493 -0.863 0.491 -0.119 65 47 18 0 0
0.0951 0.1335 -1.0541 -0.917 0.389 -0.091 49 37 13 0 0
0.0165 0.1490 -1.2119 -0.456 0.230 0.860 117 97 55 0 0
-0.0259 0.1571 -1.2817 -0.147 0.900 0.411 81 69 43 0 0
-0.0510 0.1624 -1.3485 -0.577 0.756 0.308 141 115 73 0 0
-0.2799 0.2068 -1.7682 -0.874 0.477 0.094 73 49 20 0 0
-0.2758 0.2065 -1.7821 -0.508 0.524 0.684 99 77 40 0 0
-0.2707 0.2060 -1.7910 -0.751 -0.325 0.574 100 79 40 0 0
-0.2912 0.2103 -1.8453 -0.877 0.390 0.282 82 61 31 0 0
-0.3030 0.2134 -1.9001 -0.769 0.206 0.605 65 42 25 0 0
-0.3106 0.2156 -1.9411 -0.879 0.203 0.432 82 60 29 0 0
-0.3158 0.2165 -1.9489 -0.935 0.304 0.183 74 53 23 0 0
-0.3200 0.2174 -1.9575 -0.817 0.326 0.475 91 70 40 0 0
-0.3212 0.2177 -1.9625 -0.856 0.360 0.372 91 70 40 0 0
-0.3295 0.2192 -1.9740 -0.900 0.266 0.344 89 68 39 0 0
-0.3312 0.2196 -1.9785 -0.919 0.215 0.330 83 62 33 0 0
-0.3325 0.2199 -1.9834 -0.837 0.229 0.496 82 61 32 0 0
-0.3402 0.2217 -2.0130 -0.867 0.344 0.360 76 55 26 0 0
-0.3447 0.2226 -2.0213 -0.941 -0.078 0.328 96 73 40 0 0
-0.4010 0.2337 -2.1321 -0.927 0.185 0.325 80 56 20 0 0
-0.4068 0.2346 -2.1333 -0.861 0.003 0.508 82 58 22 0 0
-0.4143 0.2361 -2.1513 -0.766 0.261 0.587 90 66 30 0 0
-0.4873 0.2493 -2.2465 -0.658 0.243 0.712 99 81 43 0 0
-0.4930 0.2504 -2.2536 -0.828 0.275 0.489 96 84 58 0 0
0.0736 0.1445 -1.1724 -0.809 0.198 0.553 125 99 60 0 0
-0.0544 0.1681 -1.3622 -0.483 0.825 0.293 108 83 54 0 0
-0.0643 0.1696 -1.3629 -0.565 -0.019 0.825 108 87 56 0 0
-0.1964 0.1918 -1.4704 -0.806 0.587 0.072 77 56 25 0 0
-0.2296 0.1978 -1.5156 -0.795 0.507 0.335 78 57 30 0 0
-0.3256 0.2141 -1.6031 -0.724 0.169 0.669 206 174 124 0 0
-0.3286 0.2147 -1.6066 -0.724 0.169 0.669 185 155 105 0 0
-0.2756 0.2110 -1.7704 -0.692 0.692 0.206 80 57 26 0 0
-0.2727 0.2110 -1.7891 -0.960 0.072 0.270 99 80 41 0 0
-0.2942 0.2164 -1.8769 -0.900 0.297 0.319 85 64 34 0 0
-0.3135 0.2206 -1.9325 -0.983 0.047 0.175 81 58 27 0 0
-0.3095 0.2203 -1.9412 -0.879 0.203 0.432 81 58 27 0 0
-0.3143 0.2212 -1.9494 -0.945 0.283 0.167 77 55 25 0 0
-0.3152 0.2215 -1.9546 -0.679 0.437 0.590 85 64 33 0 0
-0.3185 0.2220 -1.9580 -0.817 0.326 0.475 95 74 43 0 0
-0.3195 0.2223 -1.9631 -0.856 0.360 0.372 90 69 38 0 0
-0.3279 0.2238 -1.9745 -0.814 0.319 0.486 84 63 34 0 0
-0.3324 0.2247 -1.9828 -0.810 0.209 0.549 79 58 29 0 0
-0.3329 0.2249 -1.9884 -0.815 0.333 0.474 79 58 29 0 0
-0.3388 0.2260 -1.9957 -0.853 -0.033 0.521 75 54 27 0 0
-0.3531 0.2281 -1.9967 -0.937 0.347 0.037 71 50 24 0 0
-0.3702 0.2325 -2.0722 -0.637 0.674 0.374 82 61 25 0 0
-0.4433 0.2465 -2.1988 -0.768 0.309 0.561 99 74 36 0 0
-0.4893 0.2546 -2.2501 -0.794 0.234 0.561 99 81 51 0 0
-0.4915 0.2550 -2.2543 -0.754 0.398 0.522 101 90 68 0 0
-0.0618 0.1740 -1.3636 -0.570 0.201 0.797 101 83 56 0 0
-0.1928 0.1956 -1.4561 -0.848 0.252 0.467 84 63 34 0 0
-0.1949 0.1960 -1.4602 -0.917 0.312 0.249 77 56 27 0 0
-0.1966 0.1965 -1.4698 -0.941 0.316 -0.119 78 54 26 0 0
-0.2875 0.2128 -1.5881 -0.340 0.154 0.928 129 107 71 0 0
-0.3021 0.2151 -1.5954 -0.324 0.159 0.933 130 108 67 0 0
-0.3229 0.2184 -1.6042 -0.660 0.038 0.751 190 162 107 0 0
-0.3265 0.2190 -1.6073 -0.660 0.038 0.751 142 115 61 0 0
-0.3298 0.2196 -1.6107 -0.763 0.190 0.618 135 109 69 0 0
-0.3292 0.2207 -1.6590 -0.685 0.687 -0.241 108 87 52 0 0
-0.2708 0.2137 -1.7173 -0.948 0.292 0.125 102 80 44 0 0
-0.2756 0.2148 -1.7309 -0.891 0.359 0.279 96 74 36 0 0
-0.2748 0.2148 -1.7369 -0.983 0.080 0.166 99 77 42 0 0
-0.2720 0.2157 -1.7890 -0.966 0.174 0.189 100 80 44 0 0
-0.2906 0.2191 -1.8161 -0.928 0.235 0.289 96 75 44 0 0
-0.3129 0.2259 -1.9497 -0.945 0.283 0.167 78 57 26 0 0
-0.3132 0.2260 -1.9554 -0.733 0.341 0.588 85 64 33 0 0
-0.3162 0.2266 -1.9591 -0.744 0.376 0.553 91 70 39 0 0
-0.3178 0.2269 -1.9637 -0.856 0.360 0.372 90 69 38 0 0
-0.3281 0.2290 -1.9854 -0.848 0.397 0.352 79 58 29 0 0
-0.3304 0.2294 -1.9896 -0.862 0.255 0.438 79 58 28 0 0
-0.3360 0.2309 -2.0148 -0.828 -0.321 0.460 73 52 25 0 0
-0.3455 0.2335 -2.0610 -0.440 0.611 0.658 78 54 20 0 0
-0.3701 0.2372 -2.0656 -0.617 0.646 0.450 84 60 24 0 0
-0.3657 0.2368 -2.0750 -0.720 0.581 0.379 85 64 27 0 0
-0.4296 0.2490 -2.1855 -0.778 0.456 0.433 87 63 29 0 0
-0.4488 0.2523 -2.2055 -0.919 0.312 0.242 102 77 34 0 0
-0.4486 0.2524 -2.2118 -0.773 0.385 0.504 107 81 38 0 0
-0.4879 0.2593 -2.2567 -0.812 0.550 0.195 105 94 77 0 0
-0.5055 0.2623 -2.2715 -0.665 0.396 0.633 200 202 204 0 0
0.1062 0.1471 -1.0819 -0.982 0.151 -0.111 103 85 62 0 0
0.0003 0.1662 -1.2246 -0.843 -0.069 0.533 107 93 49 0 0
-0.0068 0.1673 -1.2269 -0.543 0.451 0.708 97 83 43 0 0
-0.0107 0.1680 -1.2304 -0.481 0.372 0.794 88 75 42 0 0
-0.0415 0.1759 -1.3620 -0.606 0.298 0.738 112 93 63 0 0
-0.0452 0.1765 -1.3656 -0.706 0.126 0.697 106 86 55 0 0
-0.0602 0.1786 -1.3639 -0.525 -0.005 0.851 93 74 43 0 0
-0.1013 0.1849 -1.3759 -0.501 0.258 0.826 102 80 48 0 0
-0.1051 0.1856 -1.3793 -0.724 0.339 0.601 102 83 50 0 0
-0.2006 0.2039 -1.5518 -0.358 0.301 0.884 154 121 78 0 0
-0.2054 0.2047 -1.5545 -0.454 0.547 0.703 140 110 73 0 0
-0.3127 0.2214 -1.5992 -0.476 0.122 0.871 158 129 78 0 0
-0.3177 0.2222 -1.6015 -0.566 -0.055 0.823 177 152 96 0 0
-0.3287 0.2240 -1.6108 -0.763 0.190 0.618 133 109 71 0 0
-0.3352 0.2257 -1.6387 -0.773 0.574 0.269 80 59 33 0 0
-0.2873 0.2237 -1.8234 -0.941 0.317 0.116 98 77 46 0 0
-0.2885 0.2240 -1.8282 -0.866 0.339 0.369 90 70 38 0 0
-0.3096 0.2298 -1.9340 -0.933 -0.154 0.324 81 58 27 0 0
-0.3485 0.2387 -2.0579 -0.485 0.684 0.545 81 57 24 0 0
-0.3938 0.2477 -2.1479 -0.846 0.228 0.482 84 60 24 0 0
-0.4279 0.2535 -2.1800 -0.847 0.416 0.331 83 59 23 0 0
-0.4275 0.2536 -2.1865 -0.652 0.277 0.706 88 64 28 0 0
-0.0358 0.1769 -1.2501 -0.724 0.678 -0.132 122 107 81 0 0
-0.0389 0.1804 -1.3628 -0.608 0.320 0.727 103 86 57 0 0
-0.0430 0.1811 -1.3661 -0.606 0.287 0.742 103 86 56 0 0
-0.2022 0.2090 -1.5558 -0.454 0.547 0.703 136 111 78 0 0
-0.3175 0.2268 -1.6011 -0.566 -0.055 0.823 174 147 94 0 0
-0.3237 0.2277 -1.6027 -0.878 0.218 0.426 186 158 102 0 0
-0.3253 0.2280 -1.6070 -0.891 0.268 0.366 198 170 117 0 0
-0.3307 0.2296 -1.6356 -0.758 -0.078 0.648 87 66 39 0 0
-0.3337 0.2301 -1.6391 -0.758 -0.078 0.648 80 59 32 0 0
-0.3028 0.2265 -1.6689 -0.710 0.173 -0.683 112 91 60 0 0
-0.2905 0.2287 -1.8150 -0.668 0.257 0.698 93 73 39 0 0
-0.2937 0.2293 -1.8185 -0.723 0.254 0.643 98 78 43 0 0
-0.3129 0.2360 -1.9660 -0.918 0.284 0.277 85 64 33 0 0
-0.3138 0.2363 -1.9712 -0.953 0.175 0.246 88 67 36 0 0
-0.3188 0.2374 -1.9851 -0.967 0.254 -0.026 81 60 29 0 0
-0.3283 0.2392 -2.0016 -0.934 0.243 0.263 77 56 25 0 0
-0.3845 0.2507 -2.1306 -0.786 0.500 0.363 81 57 21 0 0
-0.4058 0.2546 -2.1615 -0.704 0.316 0.636 88 64 28 0 0
-0.4296 0.2587 -2.1839 -0.889 0.127 0.440 89 65 29 0 0
-0.4310 0.2590 -2.1888 -0.820 0.348 0.455 93 69 33 0 0
-0.4816 0.2684 -2.2669 -0.844 0.537 -0.007 159 160 156 0 0
-0.4829 0.2687 -2.2720 -0.844 0.507 0.175 183 184 186 0 0
-0.0267 0.1799 -1.2332 -0.215 0.690 0.691 129 105 73 0 0
-0.0318 0.1807 -1.2361 -0.312 0.721 0.619 132 109 76 0 0
-0.0321 0.1810 -1.2462 -0.338 0.490 0.803 131 111 85 0 0
-0.0250 0.1833 -1.3635 -0.340 -0.130 0.932 111 94 66 0 0
-0.0338 0.1846 -1.3647 -0.778 0.439 0.450 98 81 52 0 0
-0.0996 0.1944 -1.3811 -0.364 0.293 0.884 123 103 67 0 0
-0.1440 0.2018 -1.4220 -0.962 0.216 0.166 142 112 71 0 0
-0.1448 0.2020 -1.4269 -0.962 0.216 0.166 138 111 71 0 0
-0.3239 0.2323 -1.6020 -0.964 0.241 0.111 174 148 97 0 0
-0.3316 0.2342 -1.6292 -0.931 0.084 0.356 90 70 41 0 0
-0.3332 0.2345 -1.6336 -0.794 0.372 0.482 97 76 47 0 0
-0.3339 0.2348 -1.6384 -0.708 0.503 0.496 89 68 39 0 0
-0.2648 0.2277 -1.7360 -0.736 0.610 0.294 100 78 42 0 0
-0.2998 0.2380 -1.9282 -0.988 -0.017 0.153 81 61 29 0 0
-0.3177 0.2419 -1.9794 -0.720 0.611 0.331 87 66 35 0 0
-0.3293 0.2442 -2.0001 -0.956 0.185 0.229 77 56 25 0 0
-0.4332 0.2644 -2.1984 -0.858 0.395 0.328 95 70 31 0 0
-0.4348 0.2648 -2.2031 -0.851 0.447 0.275 100 75 35 0 0
-0.4842 0.2737 -2.2700 -0.889 0.454 -0.054 187 188 190 0 0
-0.0283 0.1853 -1.2474 -0.305 0.475 0.826 127 116 102 0 0
-0.1189 0.2024 -1.4027 -0.656 0.301 0.692 144 115 71 0 0
-0.1218 0.2030 -1.4065 -0.697 0.358 0.622 156 128 86 0 0
-0.1315 0.2043 -1.4069 -0.453 0.146 0.879 158 130 85 0 0
-0.1411 0.2057 -1.4074 -0.939 0.343 0.018 160 130 85 0 0
-0.1430 0.2064 -1.4221 -0.962 0.216 0.166 169 139 93 0 0
-0.1840 0.2145 -1.5062 -0.731 -0.109 0.674 84 62 32 0 0
-0.2381 0.2245 -1.5880 -0.931 0.110 0.348 140 119 84 0 0
-0.3286 0.2384 -1.6305 -0.914 -0.097 0.395 92 71 40 0 0
-0.3297 0.2387 -1.6351 -0.787 0.015 0.616 99 78 47 0 0
-0.2635 0.2323 -1.7363 -0.888 0.383 0.254 99 76 44 0 0
-0.2860 0.2379 -1.8225 -0.501 0.811 0.303 95 75 40 0 0
-0.3264 0.2487 -2.0016 -0.877 0.306 0.369 78 57 26 0 0
-0.4589 0.2738 -2.2303 -0.958 0.007 0.287 100 75 35 0 0
-0.4958 0.2803 -2.2772 -0.898 -0.238 0.369 205 204 208 0 0
-0.0224 0.1892 -1.2444 -0.381 0.863 0.330 132 123 110 0 0
-0.1153 0.2068 -1.4039 -0.538 0.493 0.683 134 107 69 0 0
-0.1395 0.2102 -1.4077 -0.939 0.343 0.018 132 103 62 0 0
-0.1783 0.2184 -1.5034 -0.796 0.578 0.180 108 83 49 0 0
-0.2371 0.2291 -1.5881 -0.566 0.358 0.743 131 110 74 0 0
-0.3260 0.2427 -1.6316 -0.847 0.318 0.426 92 70 40 0 0
-0.2592 0.2365 -1.7385 -0.779 0.087 0.620 99 78 45 0 0
-0.2954 0.2485 -1.9768 -0.952 0.284 0.113 86 65 34 0 0
-0.2955 0.2487 -1.9827 -0.815 0.318 0.485 93 72 41 0 0
-0.3214 0.2528 -1.9988 -0.950 0.278 0.141 78 57 26 0 0
-0.3314 0.2558 -2.0565 -0.857 0.266 0.442 86 62 27 0 0
-0.3817 0.2652 -2.1367 -0.786 0.296 0.542 83 59 23 0 0
-0.4084 0.2702 -2.1814 -0.920 0.317 0.231 86 62 26 0 0
-0.4109 0.2706 -2.1854 -0.828 0.327 0.456 87 63 27 0 0
-0.4627 0.2791 -2.2262 -0.836 0.454 0.309 101 77 36 0 0
-0.4755 0.2821 -2.2701 -0.845 0.531 0.070 180 180 180 0 0
-0.4849 0.2834 -2.2678 -0.370 0.143 0.918 192 193 195 0 0
0.1825 0.1592 -1.0251 -0.132 0.991 -0.019 179 178 182 0 0
0.1835 0.1592 -1.0304 -0.132 0.991 -0.019 179 178 182 0 0
0.1845 0.1592 -1.0358 -0.132 0.991 -0.019 178 178 181 0 0
