ply
format ascii 1.0
element vertex 857
property float x
property float y
property float z
property float nx
property float ny
property float nz
property uchar diffuse_red
property uchar diffuse_green
property uchar diffuse_blue
property uchar class
property uchar detection
end_header
-0.0643 0.0328 -1.1061 0.883 -0.388 0.266 27 21 17 0 0
-0.0625 0.0324 -1.1105 0.898 -0.328 0.293 58 53 45 0 0
-0.0618 0.0322 -1.1153 0.924 -0.153 0.352 44 39 34 0 0
-0.0664 0.0329 -1.1272 0.827 -0.545 -0.139 25 21 18 0 0
-0.0439 0.0273 -1.1904 0.714 -0.101 0.692 72 60 49 0 0
0.1602 -0.0133 -1.2277 0.896 -0.191 0.402 76 50 25 0 0
0.1632 -0.0140 -1.2363 0.880 -0.284 0.380 79 60 31 0 0
0.1305 -0.0092 -1.3266 0.999 -0.037 -0.009 33 23 14 0 0
0.1623 -0.0163 -1.3731 0.862 -0.147 0.484 159 140 106 0 0
0.1956 -0.0232 -1.3979 0.901 -0.014 0.433 207 177 107 0 0
0.1976 -0.0237 -1.4020 0.901 -0.014 0.433 210 182 116 0 0
0.2452 -0.0341 -1.4650 0.871 -0.263 0.416 72 52 22 0 0
0.2953 -0.0460 -1.5831 0.941 -0.216 0.260 59 41 19 0 0
0.3480 -0.0568 -1.6095 0.379 -0.237 0.894 172 143 89 0 0
0.3312 -0.0552 -1.7052 0.999 -0.041 -0.032 86 69 38 0 0
0.3309 -0.0553 -1.7108 0.998 0.066 0.020 63 41 16 0 0
0.3300 -0.0552 -1.7168 0.994 -0.088 0.060 61 38 17 0 0
0.3347 -0.0565 -1.7409 0.917 -0.105 0.384 42 25 6 0 0
0.3366 -0.0570 -1.7451 0.878 -0.051 0.477 98 79 50 0 0
0.3392 -0.0575 -1.7489 0.803 -0.226 0.552 109 88 57 0 0
0.3404 -0.0579 -1.7535 0.865 -0.243 0.439 66 44 21 0 0
0.3493 -0.0608 -1.8190 0.793 -0.517 0.324 80 54 24 0 0
0.3507 -0.0611 -1.8235 0.939 -0.202 0.280 80 53 24 0 0
0.3810 -0.0684 -1.9026 0.906 0.129 0.402 75 49 23 0 0
0.3838 -0.0691 -1.9062 0.966 0.166 0.198 78 52 26 0 0
0.4012 -0.0730 -1.9385 0.837 0.531 -0.130 75 49 24 0 0
0.4342 -0.0816 -2.0559 0.827 -0.488 0.280 81 55 25 0 0
0.4296 -0.0810 -2.0770 0.860 0.270 0.433 83 60 27 0 0
0.4583 -0.0874 -2.1176 0.754 -0.325 0.571 94 73 42 0 0
0.4609 -0.0880 -2.1213 0.815 -0.302 0.494 89 67 35 0 0
0.4711 -0.0902 -2.1362 0.881 0.140 0.453 94 73 43 0 0
0.5057 -0.0981 -2.2005 0.940 0.149 0.307 97 74 34 0 0
0.5266 -0.1025 -2.2175 0.829 -0.093 0.551 98 75 35 0 0
-0.0700 0.0291 -1.1027 0.770 -0.543 0.334 14 11 6 0 0
-0.0670 0.0285 -1.1067 0.956 -0.231 0.183 17 14 8 0 0
-0.0740 0.0289 -1.1552 0.879 -0.252 0.406 23 19 13 0 0
-0.0720 0.0285 -1.1596 0.879 -0.252 0.406 21 15 6 0 0
0.0105 0.0114 -1.2145 0.264 -0.321 0.910 114 92 51 0 0
0.1300 -0.0140 -1.3315 0.942 -0.082 0.325 39 30 21 0 0
0.1609 -0.0207 -1.3733 0.946 -0.177 0.271 196 174 139 0 0
0.1958 -0.0280 -1.4024 0.801 -0.003 0.598 202 171 106 0 0
0.3278 -0.0574 -1.6054 0.309 -0.545 0.779 183 152 102 0 0
0.3781 -0.0681 -1.6533 0.760 -0.218 -0.612 121 97 66 0 0
0.3602 -0.0650 -1.6753 0.725 -0.215 -0.654 98 75 41 0 0
0.3291 -0.0596 -1.7113 0.993 -0.084 0.083 69 47 21 0 0
0.3340 -0.0611 -1.7407 0.917 -0.105 0.384 45 28 8 0 0
0.3348 -0.0614 -1.7456 0.798 -0.410 0.442 105 87 58 0 0
0.3411 -0.0629 -1.7633 0.883 -0.246 0.401 59 36 13 0 0
0.3550 -0.0666 -1.8199 0.978 -0.198 0.069 80 53 24 0 0
0.3566 -0.0672 -1.8354 0.882 -0.090 0.462 76 50 23 0 0
0.3583 -0.0676 -1.8398 0.930 -0.128 0.346 76 50 23 0 0
0.3711 -0.0712 -1.8977 0.818 -0.058 0.573 75 49 24 0 0
0.3737 -0.0718 -1.9015 0.818 -0.058 0.573 75 49 22 0 0
0.4318 -0.0859 -2.0570 0.782 -0.509 0.359 80 53 24 0 0
0.4316 -0.0862 -2.0746 0.892 0.189 0.410 90 67 33 0 0
0.4516 -0.0905 -2.0990 0.862 -0.210 0.461 80 57 26 0 0
0.4702 -0.0948 -2.1361 0.817 -0.081 0.571 87 65 34 0 0
0.5384 -0.1099 -2.2356 0.875 -0.186 0.447 98 78 41 0 0
0.5399 -0.1103 -2.2402 0.860 -0.356 0.365 99 80 40 0 0
0.5437 -0.1111 -2.2426 0.843 -0.221 0.490 94 76 38 0 0
-0.0773 0.0291 -0.9163 -0.031 -0.535 0.844 107 91 70 0 0
-0.0768 0.0265 -1.0492 0.937 -0.318 -0.144 43 27 9 0 0
-0.0752 0.0262 -1.0537 0.951 -0.270 0.153 46 32 12 0 0
-0.0763 0.0255 -1.0995 0.586 -0.538 0.606 13 8 4 0 0
-0.0700 0.0230 -1.1687 0.848 -0.069 0.525 34 24 13 0 0
0.1270 -0.0181 -1.3324 0.927 -0.303 0.220 30 20 11 0 0
0.2153 -0.0369 -1.4228 0.933 -0.106 0.344 118 94 52 0 0
0.2168 -0.0373 -1.4272 0.933 -0.106 0.344 107 84 47 0 0
0.2420 -0.0430 -1.4708 0.871 -0.119 0.476 71 49 20 0 0
0.2641 -0.0482 -1.5211 0.824 -0.424 0.377 61 40 19 0 0
0.2652 -0.0489 -1.5467 0.901 -0.236 0.364 60 39 15 0 0
0.3130 -0.0591 -1.5978 0.486 -0.115 0.866 187 167 126 0 0
0.3792 -0.0725 -1.6310 0.815 -0.424 0.394 73 49 25 0 0
0.3799 -0.0728 -1.6410 0.870 -0.132 0.475 75 50 28 0 0
0.3286 -0.0642 -1.7109 0.993 -0.084 0.083 67 45 18 0 0
0.3303 -0.0649 -1.7315 0.953 -0.185 0.239 56 35 12 0 0
0.3329 -0.0657 -1.7462 0.798 -0.410 0.442 93 74 45 0 0
0.3379 -0.0672 -1.7757 0.843 -0.194 0.502 75 51 27 0 0
0.3451 -0.0689 -1.7873 0.768 0.118 0.630 141 116 67 0 0
0.3472 -0.0693 -1.7914 0.835 0.129 0.535 98 77 40 0 0
0.3489 -0.0697 -1.7958 0.946 -0.201 0.253 74 56 27 0 0
0.3406 -0.0687 -1.8235 0.701 -0.694 0.165 81 54 25 0 0
0.3541 -0.0712 -1.8198 0.979 -0.194 0.070 80 53 24 0 0
0.4623 -0.0979 -2.1242 0.841 -0.128 0.525 81 58 27 0 0
0.4645 -0.0983 -2.1283 0.845 -0.234 0.481 79 56 25 0 0
0.4963 -0.1054 -2.1774 0.850 -0.179 0.495 81 59 20 0 0
0.5010 -0.1065 -2.1852 0.852 -0.182 0.491 95 73 34 0 0
0.5383 -0.1147 -2.2407 0.860 -0.356 0.365 97 78 38 0 0
-0.0889 0.0265 -0.9195 -0.044 -0.507 0.861 125 111 97 0 0
-0.0844 0.0229 -1.0615 0.921 -0.389 -0.031 59 43 20 0 0
-0.0851 0.0229 -1.0668 0.959 -0.281 0.026 58 42 19 0 0
-0.0852 0.0224 -1.0921 0.938 -0.177 0.299 26 16 7 0 0
-0.0670 0.0174 -1.1723 0.781 -0.108 0.616 88 77 58 0 0
-0.0261 0.0090 -1.2027 0.701 0.052 0.711 143 122 67 0 0
0.2170 -0.0421 -1.4317 0.877 -0.306 0.371 112 89 54 0 0
0.2511 -0.0499 -1.4965 0.780 -0.425 0.459 72 53 28 0 0
0.2532 -0.0504 -1.5005 0.963 -0.129 0.238 66 46 21 0 0
0.2673 -0.0535 -1.5240 0.813 -0.196 0.548 60 39 18 0 0
0.2635 -0.0533 -1.5470 0.845 -0.408 0.346 52 34 13 0 0
0.3037 -0.0618 -1.5922 0.774 0.020 0.632 164 145 108 0 0
0.3761 -0.0765 -1.6322 0.751 -0.311 0.583 72 48 24 0 0
0.3787 -0.0774 -1.6517 0.834 -0.060 -0.549 122 99 61 0 0
0.3728 -0.0764 -1.6607 0.834 -0.060 -0.549 116 93 51 0 0
0.3255 -0.0688 -1.7340 0.894 -0.217 0.393 74 53 28 0 0
0.3273 -0.0692 -1.7383 0.894 -0.217 0.393 49 30 8 0 0
0.3274 -0.0693 -1.7437 0.943 -0.211 0.255 48 31 8 0 0
0.3286 -0.0697 -1.7483 0.943 -0.211 0.255 85 66 36 0 0
0.3434 -0.0732 -1.7822 0.641 -0.377 0.669 101 77 43 0 0
0.3457 -0.0737 -1.7862 0.627 -0.047 0.778 141 115 67 0 0
0.3465 -0.0739 -1.7911 0.837 -0.072 0.543 100 78 41 0 0
0.3479 -0.0743 -1.7957 0.946 -0.201 0.253 79 60 31 0 0
0.3393 -0.0731 -1.8182 0.926 -0.366 0.098 83 56 27 0 0
0.4101 -0.0903 -2.0033 0.890 0.031 0.455 76 50 25 0 0
0.4565 -0.1014 -2.1165 0.935 -0.080 0.346 81 59 28 0 0
0.4601 -0.1022 -2.1253 0.922 -0.135 0.363 81 58 27 0 0
0.4953 -0.1100 -2.1774 0.850 -0.179 0.495 92 70 31 0 0
0.4981 -0.1106 -2.1809 0.907 -0.154 0.392 91 69 30 0 0
0.5030 -0.1118 -2.1943 0.962 -0.077 0.261 93 71 32 0 0
-0.0957 0.0230 -0.9211 -0.000 -0.307 0.952 159 150 143 0 0
-0.0818 0.0203 -0.9218 0.032 -0.325 0.945 115 99 79 0 0
-0.0852 0.0183 -1.0563 0.936 -0.324 -0.139 62 42 18 0 0
-0.0865 0.0183 -1.0669 0.921 -0.389 -0.031 46 31 10 0 0
-0.0899 0.0183 -1.0984 0.954 -0.148 0.262 24 17 12 0 0
-0.0785 0.0151 -1.1505 0.890 -0.149 0.430 32 27 20 0 0
-0.0706 0.0132 -1.1681 0.872 0.093 0.481 75 64 42 0 0
-0.0682 0.0127 -1.1723 0.872 0.093 0.481 112 103 84 0 0
-0.0677 0.0125 -1.1773 0.831 -0.105 0.546 106 98 77 0 0
-0.0392 0.0067 -1.1971 0.729 -0.320 0.605 151 129 71 0 0
-0.0306 0.0049 -1.2040 0.831 -0.089 0.549 118 94 37 0 0
0.1346 -0.0268 -1.2170 0.498 -0.313 0.808 133 105 68 0 0
0.1390 -0.0277 -1.2201 0.498 -0.313 0.808 160 130 85 0 0
0.1209 -0.0265 -1.3342 0.798 -0.471 0.377 33 23 13 0 0
0.1502 -0.0329 -1.3718 0.924 -0.022 0.381 193 165 126 0 0
0.1566 -0.0341 -1.3738 0.805 -0.434 0.404 189 160 116 0 0
0.1583 -0.0345 -1.3781 0.713 -0.389 0.583 189 164 117 0 0
0.1844 -0.0399 -1.3962 0.621 -0.421 0.662 216 186 125 0 0
0.1975 -0.0427 -1.4102 0.806 -0.205 0.556 181 150 101 0 0
0.2001 -0.0432 -1.4141 0.806 -0.205 0.556 169 140 94 0 0
0.2526 -0.0551 -1.5054 0.840 -0.238 0.488 65 45 20 0 0
0.2661 -0.0580 -1.5241 0.867 -0.292 0.405 56 37 18 0 0
0.3006 -0.0658 -1.5882 0.774 0.020 0.632 154 137 102 0 0
0.3100 -0.0678 -1.5984 0.727 -0.064 0.683 142 117 80 0 0
0.3768 -0.0812 -1.6312 0.835 -0.414 0.362 75 51 27 0 0
0.3774 -0.0814 -1.6361 0.954 -0.151 0.259 73 49 25 0 0
0.3278 -0.0735 -1.7101 0.993 -0.084 0.083 68 47 20 0 0
0.3217 -0.0726 -1.7249 0.913 -0.255 0.317 61 43 21 0 0
0.3246 -0.0732 -1.7284 0.921 -0.207 0.329 50 32 10 0 0
0.3261 -0.0736 -1.7329 0.921 -0.207 0.329 66 46 24 0 0
0.3261 -0.0737 -1.7384 0.935 -0.162 0.317 54 34 11 0 0
0.3275 -0.0742 -1.7483 0.943 -0.211 0.255 92 74 42 0 0
0.3430 -0.0778 -1.7818 0.654 -0.553 0.516 82 58 28 0 0
0.3452 -0.0787 -1.8079 0.767 -0.534 0.355 83 57 28 0 0
0.3430 -0.0786 -1.8204 0.883 -0.195 0.426 82 54 27 0 0
0.3463 -0.0793 -1.8237 0.939 -0.169 0.299 79 52 25 0 0
0.3498 -0.0800 -1.8269 0.927 0.071 0.368 77 50 23 0 0
0.3569 -0.0816 -1.8386 0.846 0.338 0.412 72 46 19 0 0
0.4299 -0.0999 -2.0560 0.856 -0.390 0.339 81 54 25 0 0
0.4326 -0.1005 -2.0596 0.831 -0.355 0.427 81 54 25 0 0
0.4389 -0.1022 -2.0894 0.711 -0.408 0.573 154 125 87 0 0
0.4572 -0.1064 -2.1210 0.903 -0.203 0.380 81 58 25 0 0
0.5064 -0.1173 -2.1963 0.784 -0.254 0.567 94 70 32 0 0
0.5330 -0.1230 -2.2318 0.700 -0.284 0.655 105 83 45 0 0
0.5358 -0.1236 -2.2351 0.700 -0.284 0.655 97 77 40 0 0
0.5462 -0.1261 -2.2614 0.995 -0.006 0.101 85 78 64 0 0
-0.1123 0.0212 -0.9257 -0.040 -0.508 0.861 177 172 168 0 0
-0.0960 0.0181 -0.9258 -0.028 -0.557 0.830 128 114 96 0 0
-0.0889 0.0138 -1.0673 0.869 -0.489 -0.082 51 36 16 0 0
-0.0906 0.0135 -1.0983 0.954 -0.148 0.262 23 15 8 0 0
-0.0902 0.0134 -1.1032 0.955 -0.256 0.153 24 16 9 0 0
-0.0845 0.0116 -1.1369 0.961 -0.188 0.201 17 12 8 0 0
-0.0848 0.0115 -1.1421 0.972 0.038 0.232 15 9 8 0 0
-0.0665 0.0074 -1.1764 0.907 -0.207 0.368 87 79 57 0 0
-0.0410 0.0021 -1.1974 0.786 -0.277 0.553 135 115 65 0 0
-0.0384 0.0015 -1.2015 0.786 -0.277 0.553 136 113 65 0 0
-0.0175 -0.0028 -1.2189 0.799 -0.225 0.559 89 72 39 0 0
0.1154 -0.0279 -1.2197 0.290 -0.457 0.841 123 99 61 0 0
0.1346 -0.0316 -1.2215 0.314 -0.373 0.873 167 135 88 0 0
0.1393 -0.0325 -1.2245 0.668 -0.631 0.394 160 132 83 0 0
0.1112 -0.0287 -1.2972 0.784 -0.203 0.587 60 42 22 0 0
0.1570 -0.0390 -1.3783 0.834 -0.304 0.460 160 129 86 0 0
0.1601 -0.0397 -1.3819 0.877 -0.267 0.400 143 112 69 0 0
0.1646 -0.0407 -1.3900 0.713 -0.389 0.583 192 160 104 0 0
0.1821 -0.0442 -1.3968 0.621 -0.421 0.662 192 160 102 0 0
0.1852 -0.0448 -1.4004 0.617 -0.226 0.754 178 146 94 0 0
0.1921 -0.0463 -1.4073 0.662 -0.281 0.695 179 150 98 0 0
0.2628 -0.0624 -1.5410 0.874 -0.220 0.434 99 78 42 0 0
0.3283 -0.0760 -1.6026 0.362 0.128 0.923 168 137 86 0 0
0.3252 -0.0783 -1.7382 0.935 -0.162 0.317 47 27 9 0 0
0.3305 -0.0798 -1.7621 0.846 -0.342 0.409 59 38 19 0 0
0.3437 -0.0829 -1.7917 0.762 -0.546 0.349 92 71 36 0 0
0.3463 -0.0836 -1.8009 0.846 -0.465 0.259 81 56 25 0 0
0.3426 -0.0830 -1.8090 0.968 -0.067 0.244 82 57 27 0 0
0.3934 -0.0962 -1.9802 0.754 -0.318 0.576 75 49 24 0 0
0.3947 -0.0965 -1.9849 0.816 -0.240 0.525 76 50 25 0 0
0.3969 -0.0970 -1.9890 0.737 -0.227 0.636 75 49 24 0 0
0.3976 -0.0973 -1.9942 0.868 -0.205 0.453 73 47 22 0 0
0.4044 -0.0988 -2.0061 0.818 -0.351 0.457 76 50 24 0 0
0.4055 -0.0991 -2.0110 0.883 0.137 0.449 76 50 22 0 0
0.4023 -0.0987 -2.0193 0.830 0.170 0.531 82 56 23 0 0
0.4389 -0.1073 -2.1002 0.805 -0.295 0.515 82 58 27 0 0
-0.0926 0.0093 -1.0833 0.908 -0.366 0.201 31 18 7 0 0
-0.0878 0.0075 -1.1274 0.943 -0.150 0.296 28 18 9 0 0
-0.0864 0.0071 -1.1320 0.943 -0.150 0.296 36 27 19 0 0
-0.0850 0.0068 -1.1366 0.943 -0.150 0.296 23 15 9 0 0
-0.0487 -0.0013 -1.1948 0.816 -0.036 0.577 119 100 68 0 0
-0.0426 -0.0025 -1.1975 0.786 -0.277 0.553 127 110 67 0 0
-0.0254 -0.0060 -1.2113 0.639 -0.222 0.736 82 67 40 0 0
-0.0188 -0.0074 -1.2190 0.799 -0.225 0.559 113 92 56 0 0
0.1110 -0.0334 -1.2968 0.813 -0.446 0.374 53 37 16 0 0
0.1555 -0.0435 -1.3785 0.834 -0.304 0.460 162 134 85 0 0
0.1585 -0.0441 -1.3822 0.805 -0.293 0.516 210 181 128 0 0
0.1834 -0.0492 -1.4008 0.618 0.017 0.786 122 93 51 0 0
0.1964 -0.0519 -1.4148 0.849 -0.329 0.413 154 125 85 0 0
0.2242 -0.0578 -1.4470 0.703 -0.324 0.633 85 62 28 0 0
0.2362 -0.0606 -1.4717 0.804 -0.585 0.108 72 51 20 0 0
0.2429 -0.0622 -1.4888 0.899 -0.334 0.283 72 48 16 0 0
0.2493 -0.0637 -1.5009 0.918 -0.248 0.311 61 41 16 0 0
0.2774 -0.0703 -1.5636 0.805 -0.179 0.566 95 79 56 0 0
0.2800 -0.0709 -1.5674 0.805 -0.179 0.566 64 46 23 0 0
0.2839 -0.0718 -1.5756 0.856 -0.248 0.454 58 42 19 0 0
0.2860 -0.0723 -1.5797 0.856 -0.248 0.454 91 77 51 0 0
0.3464 -0.0842 -1.6068 0.490 0.016 0.872 169 138 85 0 0
0.3565 -0.0861 -1.6111 0.820 0.004 0.573 177 149 102 0 0
0.3590 -0.0867 -1.6148 0.820 0.004 0.573 171 143 104 0 0
0.3614 -0.0872 -1.6185 0.790 -0.102 0.605 173 145 111 0 0
0.3753 -0.0902 -1.6361 0.929 -0.320 0.187 74 50 26 0 0
0.3809 -0.0914 -1.6431 0.667 -0.677 -0.310 90 66 40 0 0
0.3147 -0.0805 -1.7118 0.984 0.055 0.167 62 44 21 0 0
0.3400 -0.0871 -1.7990 0.733 -0.659 0.168 84 63 33 0 0
0.3421 -0.0877 -1.8086 0.933 -0.224 0.283 83 57 27 0 0
0.3434 -0.0880 -1.8132 0.933 -0.224 0.283 80 53 24 0 0
0.3611 -0.0934 -1.9126 0.970 0.025 -0.242 72 44 20 0 0
0.4009 -0.1032 -2.0195 0.858 0.445 0.255 80 53 20 0 0
0.4701 -0.1191 -2.1553 0.912 -0.123 0.391 77 55 24 0 0
0.5158 -0.1289 -2.2158 0.896 -0.119 0.428 106 83 43 0 0
0.5187 -0.1295 -2.2191 0.886 -0.336 0.319 101 78 39 0 0
0.5209 -0.1300 -2.2230 0.775 -0.359 0.520 96 73 33 0 0
0.5207 -0.1303 -2.2351 0.914 -0.404 -0.047 105 83 43 0 0
-0.0831 0.0035 -1.0444 0.703 -0.708 -0.071 67 46 19 0 0
-0.0933 0.0048 -1.0731 0.886 -0.464 0.015 36 23 8 0 0
-0.0935 0.0047 -1.0782 0.910 -0.415 0.008 36 24 11 0 0
-0.0926 0.0044 -1.0829 0.861 -0.505 0.061 38 24 12 0 0
0.1352 -0.0411 -1.2253 0.669 -0.435 0.603 157 129 82 0 0
0.1395 -0.0422 -1.2384 0.936 -0.351 -0.028 104 84 57 0 0
0.1540 -0.0480 -1.3787 0.834 -0.304 0.460 214 189 134 0 0
0.1751 -0.0522 -1.3941 0.624 -0.176 0.761 179 147 88 0 0
0.2327 -0.0646 -1.4678 0.896 -0.048 0.441 72 49 21 0 0
0.2414 -0.0666 -1.4891 0.899 -0.334 0.283 79 53 24 0 0
0.2445 -0.0674 -1.4978 0.819 -0.367 0.441 71 49 25 0 0
0.2731 -0.0741 -1.5603 0.860 -0.394 0.324 54 41 25 0 0
0.2847 -0.0767 -1.5799 0.833 -0.306 0.461 81 65 41 0 0
0.3458 -0.0887 -1.6065 0.487 -0.121 0.865 162 132 78 0 0
0.3556 -0.0906 -1.6110 0.828 -0.327 0.455 182 153 105 0 0
0.3576 -0.0910 -1.6150 0.828 -0.327 0.455 180 152 111 0 0
0.3596 -0.0915 -1.6190 0.828 -0.327 0.455 173 144 105 0 0
0.3241 -0.0876 -1.7431 0.885 -0.352 0.306 55 34 15 0 0
0.3255 -0.0880 -1.7476 0.873 -0.399 0.281 111 91 60 0 0
0.3274 -0.0885 -1.7573 0.914 -0.362 0.183 53 34 10 0 0
0.3322 -0.0902 -1.7925 0.493 -0.583 0.646 140 113 72 0 0
0.3423 -0.0926 -1.8132 0.933 -0.224 0.283 77 50 21 0 0
0.3909 -0.1051 -1.9748 0.898 0.187 0.399 73 48 23 0 0
0.3968 -0.1068 -1.9989 0.917 0.166 0.364 71 46 20 0 0
0.4061 -0.1087 -2.0089 0.820 -0.434 0.373 77 51 21 0 0
0.4041 -0.1085 -2.0163 0.858 -0.439 0.267 82 56 23 0 0
0.4619 -0.1221 -2.1437 0.832 -0.342 0.437 69 46 17 0 0
0.4652 -0.1229 -2.1527 0.923 0.035 0.383 78 53 23 0 0
0.4744 -0.1247 -2.1566 0.694 -0.357 0.625 77 54 23 0 0
0.5176 -0.1341 -2.2191 0.926 -0.236 0.296 97 74 33 0 0
0.5190 -0.1345 -2.2238 0.926 -0.236 0.296 89 67 26 0 0
0.5190 -0.1346 -2.2298 0.910 -0.414 0.014 98 76 35 0 0
0.5187 -0.1347 -2.2360 0.945 -0.323 -0.045 102 80 40 0 0
-0.1086 0.0059 -0.9334 0.430 -0.895 0.118 173 172 171 0 0
-0.0949 0.0003 -1.0682 0.896 -0.441 -0.057 52 35 11 0 0
-0.0956 0.0003 -1.0734 0.910 -0.415 0.008 48 31 9 0 0
-0.0960 0.0001 -1.0837 0.931 -0.362 0.043 49 33 12 0 0
-0.0956 -0.0002 -1.0937 0.931 -0.362 0.043 43 26 8 0 0
-0.0996 -0.0000 -1.1207 0.923 -0.232 0.308 32 18 5 0 0
-0.0757 -0.0053 -1.1580 0.925 -0.168 0.341 83 67 41 0 0
0.0752 -0.0347 -1.2252 -0.040 -0.524 0.851 119 99 69 0 0
0.1344 -0.0457 -1.2302 0.603 -0.301 0.739 101 76 40 0 0
0.1170 -0.0435 -1.2729 0.910 -0.324 -0.257 62 45 25 0 0
0.1052 -0.0428 -1.3395 0.938 -0.179 0.297 36 26 14 0 0
0.2092 -0.0642 -1.4382 0.880 -0.105 0.462 56 32 7 0 0
0.2192 -0.0663 -1.4485 0.744 -0.089 0.662 84 61 27 0 0
0.2252 -0.0676 -1.4557 0.811 0.048 0.583 74 51 20 0 0
0.2302 -0.0687 -1.4634 0.893 -0.188 0.409 77 54 21 0 0
0.2323 -0.0692 -1.4674 0.896 -0.048 0.441 75 51 23 0 0
0.2803 -0.0807 -1.5871 0.826 -0.210 0.523 59 42 21 0 0
0.3448 -0.0931 -1.6065 0.487 -0.121 0.865 161 131 80 0 0
0.3732 -0.0991 -1.6414 0.941 -0.096 0.325 73 48 20 0 0
0.3180 -0.0907 -1.7192 0.955 -0.173 0.242 48 32 10 0 0
0.3257 -0.0930 -1.7577 0.914 -0.362 0.183 54 34 11 0 0
0.3305 -0.0947 -1.7930 0.937 -0.101 0.333 135 109 70 0 0
0.3329 -0.0952 -1.7969 0.879 -0.362 0.311 79 58 27 0 0
0.3393 -0.0966 -1.8091 0.717 -0.438 0.543 88 63 34 0 0
0.3849 -0.1085 -1.9614 0.891 -0.234 0.389 70 45 22 0 0
0.3923 -0.1101 -1.9730 0.878 -0.181 0.444 70 46 21 0 0
0.3943 -0.1106 -1.9772 0.878 -0.181 0.444 78 54 28 0 0
0.3970 -0.1112 -1.9808 0.904 -0.313 0.291 80 55 29 0 0
0.3984 -0.1115 -1.9854 0.904 -0.313 0.291 71 46 21 0 0
0.3987 -0.1117 -1.9909 0.940 -0.319 0.122 68 43 19 0 0
0.3973 -0.1116 -1.9978 0.932 0.125 0.340 69 45 21 0 0
0.3997 -0.1125 -2.0189 0.824 -0.204 0.529 89 64 30 0 0
0.4394 -0.1215 -2.0914 0.712 -0.065 0.700 92 69 34 0 0
0.4524 -0.1247 -2.1273 0.862 -0.365 0.353 76 54 23 0 0
0.4603 -0.1266 -2.1441 0.832 -0.342 0.437 78 57 26 0 0
0.4840 -0.1319 -2.1887 0.876 -0.320 0.360 92 69 30 0 0
0.4857 -0.1324 -2.1931 0.848 -0.310 0.431 94 70 32 0 0
0.4877 -0.1328 -2.1973 0.848 -0.310 0.431 100 76 38 0 0
0.5148 -0.1382 -2.2148 0.830 -0.413 0.375 102 79 38 0 0
0.5336 -0.1422 -2.2394 0.939 -0.042 0.341 98 79 39 0 0
-0.0952 -0.0050 -1.0881 0.950 -0.312 -0.025 58 40 15 0 0
-0.0967 -0.0049 -1.0937 0.885 -0.454 0.107 59 41 19 0 0
-0.0991 -0.0049 -1.1150 0.972 -0.104 0.212 51 34 15 0 0
-0.0795 -0.0092 -1.1436 0.899 -0.172 0.404 69 54 32 0 0
-0.0787 -0.0094 -1.1484 0.908 -0.140 0.396 65 50 26 0 0
-0.0772 -0.0099 -1.1581 0.913 -0.081 0.400 100 81 52 0 0
-0.0697 -0.0117 -1.1759 0.816 -0.186 0.547 139 115 83 0 0
-0.0667 -0.0124 -1.1799 0.761 -0.239 0.603 113 92 58 0 0
-0.0521 -0.0154 -1.1948 0.896 0.044 0.441 170 153 120 0 0
0.0759 -0.0395 -1.2245 0.001 -0.344 0.939 120 99 68 0 0
0.1035 -0.0473 -1.3398 0.833 -0.266 0.486 58 47 32 0 0
0.2185 -0.0709 -1.4483 0.744 -0.089 0.662 88 65 32 0 0
0.2455 -0.0772 -1.5065 0.887 -0.315 0.337 76 55 27 0 0
0.2792 -0.0852 -1.5871 0.826 -0.210 0.523 85 66 44 0 0
0.3713 -0.1030 -1.6262 0.889 -0.252 0.382 72 47 23 0 0
0.3251 -0.0976 -1.7574 0.888 -0.132 0.440 55 34 12 0 0
0.3270 -0.0980 -1.7617 0.850 -0.156 0.502 64 42 20 0 0
0.3328 -0.0992 -1.7688 0.955 -0.155 0.253 79 57 32 0 0
0.3311 -0.0996 -1.7974 0.985 -0.154 0.083 75 53 22 0 0
0.3445 -0.1030 -1.8381 0.944 -0.168 0.284 77 50 23 0 0
0.3565 -0.1066 -1.8967 0.967 0.246 -0.064 72 46 21 0 0
0.3576 -0.1069 -1.9016 0.925 0.296 0.238 71 45 20 0 0
0.3686 -0.1092 -1.9161 0.832 0.397 0.387 70 44 19 0 0
0.3831 -0.1128 -1.9563 0.871 -0.430 0.238 66 41 18 0 0
0.3839 -0.1131 -1.9614 0.868 -0.161 0.471 59 36 15 0 0
0.3913 -0.1147 -1.9729 0.878 -0.181 0.444 66 41 19 0 0
0.3933 -0.1152 -1.9771 0.878 -0.181 0.444 75 51 28 0 0
0.3959 -0.1157 -1.9809 0.907 -0.274 0.319 71 48 24 0 0
0.3970 -0.1160 -1.9857 0.904 -0.313 0.291 63 39 16 0 0
0.4002 -0.1170 -2.0004 0.923 -0.318 0.219 67 43 19 0 0
0.4014 -0.1173 -2.0052 0.915 -0.352 0.197 72 46 20 0 0
0.4759 -0.1348 -2.1712 0.710 -0.533 0.460 80 57 25 0 0
0.4777 -0.1353 -2.1755 0.758 -0.523 0.389 86 63 27 0 0
0.5332 -0.1469 -2.2388 0.939 -0.042 0.341 97 78 38 0 0
-0.1328 0.0002 -0.9498 0.108 -0.985 0.134 178 178 178 0 0
-0.0830 -0.0135 -1.1445 0.904 -0.128 0.409 87 69 42 0 0
-0.0776 -0.0148 -1.1579 0.919 -0.043 0.391 109 91 62 0 0
-0.0560 -0.0196 -1.1959 0.805 -0.356 0.474 89 74 50 0 0
0.1016 -0.0518 -1.3453 0.940 0.187 0.286 88 73 51 0 0
0.2488 -0.0826 -1.5145 0.795 -0.352 0.493 52 31 12 0 0
0.3459 -0.1026 -1.6098 0.519 -0.271 0.811 180 150 97 0 0
0.3694 -0.1073 -1.6268 0.884 -0.196 0.424 71 46 23 0 0
0.3170 -0.0995 -1.7022 0.973 -0.191 -0.133 82 63 37 0 0
0.3141 -0.0996 -1.7258 0.855 -0.099 0.508 56 38 17 0 0
0.3208 -0.1011 -1.7378 0.931 0.005 0.364 62 37 16 0 0
0.3213 -0.1013 -1.7429 0.969 -0.116 0.216 78 57 31 0 0
0.3231 -0.1021 -1.7636 0.844 -0.228 0.486 69 47 24 0 0
0.3579 -0.1115 -1.8949 0.967 0.246 -0.064 71 45 20 0 0
0.3752 -0.1157 -1.9387 0.777 -0.391 0.494 70 43 20 0 0
0.3832 -0.1177 -1.9612 0.861 -0.280 0.424 52 31 11 0 0
0.3923 -0.1198 -1.9771 0.878 -0.181 0.444 63 37 17 0 0
0.3941 -0.1202 -1.9814 0.904 -0.313 0.291 57 34 12 0 0
0.3955 -0.1206 -1.9861 0.904 -0.313 0.291 54 32 11 0 0
0.4300 -0.1287 -2.0625 0.976 -0.203 0.074 74 48 20 0 0
0.4476 -0.1334 -2.1297 0.818 -0.241 0.523 70 48 16 0 0
0.5162 -0.1482 -2.2236 0.940 -0.269 0.210 101 78 37 0 0
0.5328 -0.1515 -2.2383 0.939 -0.042 0.341 100 81 41 0 0
-0.0772 -0.0197 -1.1573 0.941 -0.020 0.337 94 78 53 0 0
-0.0765 -0.0200 -1.1621 0.969 -0.128 0.212 93 78 53 0 0
-0.0755 -0.0203 -1.1669 0.969 -0.128 0.212 89 76 52 0 0
-0.0437 -0.0271 -1.2113 0.588 -0.127 0.799 74 62 38 0 0
0.0286 -0.0404 -1.2230 0.233 -0.345 0.909 127 107 75 0 0
0.0361 -0.0419 -1.2250 0.242 -0.159 0.957 139 119 84 0 0
0.0976 -0.0555 -1.3312 0.651 -0.716 0.252 40 30 21 0 0
0.0982 -0.0560 -1.3464 0.811 0.129 0.571 90 77 55 0 0
0.1829 -0.0728 -1.4087 0.834 -0.161 0.528 159 128 85 0 0
0.1916 -0.0747 -1.4198 0.788 -0.294 0.541 128 106 66 0 0
0.2569 -0.0890 -1.5252 0.530 -0.375 0.761 55 37 17 0 0
0.2620 -0.0902 -1.5327 0.648 -0.468 0.601 84 65 37 0 0
0.3147 -0.1045 -1.7301 0.904 -0.235 0.358 54 36 16 0 0
0.3219 -0.1066 -1.7636 0.844 -0.228 0.486 70 48 24 0 0
0.3241 -0.1071 -1.7677 0.804 -0.280 0.524 70 48 22 0 0
0.3332 -0.1087 -1.7671 0.907 0.222 0.358 76 53 28 0 0
0.3802 -0.1217 -1.9513 0.925 -0.202 0.321 68 43 21 0 0
0.3922 -0.1246 -1.9821 0.778 -0.388 0.494 59 37 16 0 0
0.3940 -0.1251 -1.9864 0.904 -0.313 0.291 58 36 15 0 0
0.3975 -0.1259 -1.9952 0.913 -0.297 0.279 55 33 12 0 0
0.4099 -0.1294 -2.0488 0.487 -0.688 0.538 74 48 21 0 0
0.4222 -0.1323 -2.0737 0.890 -0.099 0.445 102 77 40 0 0
0.4465 -0.1380 -2.1297 0.852 -0.182 0.491 68 44 16 0 0
0.4490 -0.1386 -2.1334 0.813 -0.151 0.563 69 45 17 0 0
0.4515 -0.1391 -2.1372 0.813 -0.151 0.563 71 50 21 0 0
0.4578 -0.1406 -2.1495 0.808 -0.168 0.565 69 48 18 0 0
0.4600 -0.1411 -2.1535 0.850 -0.241 0.469 73 52 21 0 0
0.5139 -0.1524 -2.2188 0.940 -0.269 0.210 102 79 38 0 0
0.5149 -0.1527 -2.2238 0.940 -0.269 0.210 101 78 37 0 0
0.5321 -0.1561 -2.2380 0.881 -0.171 0.441 100 79 38 0 0
-0.1493 -0.0078 -0.9991 0.145 -0.981 0.126 170 167 165 0 0
-0.1476 -0.0082 -1.0036 0.119 -0.986 0.118 157 154 150 0 0
-0.0625 -0.0284 -1.2027 0.470 -0.647 0.601 85 74 54 0 0
0.0343 -0.0463 -1.2253 0.240 -0.046 0.970 132 112 79 0 0
0.1011 -0.0614 -1.3497 0.677 -0.021 0.735 90 75 55 0 0
0.1337 -0.0679 -1.3756 0.679 -0.329 0.656 141 119 80 0 0
0.3381 -0.1121 -1.6768 0.670 -0.325 -0.667 100 77 41 0 0
0.3091 -0.1080 -1.7222 0.886 -0.255 0.388 47 29 9 0 0
0.3119 -0.1086 -1.7258 0.904 -0.235 0.358 67 49 29 0 0
0.3136 -0.1090 -1.7302 0.904 -0.235 0.358 51 33 13 0 0
0.3147 -0.1093 -1.7349 0.918 -0.249 0.308 53 34 15 0 0
0.3161 -0.1097 -1.7395 0.918 -0.249 0.308 48 26 6 0 0
0.3216 -0.1114 -1.7687 0.929 -0.177 0.324 67 46 20 0 0
0.3247 -0.1127 -1.7996 0.824 -0.565 0.025 77 53 22 0 0
0.3452 -0.1174 -1.8409 0.934 -0.027 0.357 75 48 21 0 0
0.3469 -0.1179 -1.8453 0.875 -0.215 0.434 74 48 21 0 0
0.3791 -0.1263 -1.9513 0.953 -0.184 0.239 64 39 17 0 0
0.3928 -0.1296 -1.9865 0.932 -0.155 0.327 62 40 19 0 0
0.3966 -0.1305 -1.9950 0.896 -0.251 0.367 61 38 16 0 0
0.3894 -0.1298 -2.0178 0.950 -0.141 0.279 64 40 12 0 0
0.3908 -0.1301 -2.0226 0.987 -0.163 0.013 103 78 36 0 0
0.3994 -0.1324 -2.0505 0.871 0.002 0.491 75 50 21 0 0
0.4199 -0.1367 -2.0748 0.863 -0.206 0.462 101 77 38 0 0
0.4817 -0.1504 -2.1812 0.869 -0.183 0.460 87 65 28 0 0
0.5191 -0.1582 -2.2250 0.711 -0.366 0.600 106 82 43 0 0
-0.1627 -0.0105 -1.0080 0.119 -0.986 0.118 181 181 181 0 0
-0.1569 -0.0118 -1.0162 0.183 -0.975 0.130 178 179 181 0 0
-0.0327 -0.0389 -1.2111 0.344 -0.289 0.893 98 84 58 0 0
-0.0266 -0.0400 -1.2138 0.344 -0.289 0.893 87 73 47 0 0
-0.0210 -0.0411 -1.2167 0.384 -0.141 0.913 93 79 53 0 0
-0.0138 -0.0424 -1.2189 0.297 0.065 0.953 97 81 55 0 0
0.0175 -0.0482 -1.2266 0.421 0.281 0.862 106 87 54 0 0
0.1365 -0.0732 -1.3789 0.574 -0.390 0.720 146 122 79 0 0
0.2603 -0.0999 -1.5587 0.898 -0.255 0.358 44 27 12 0 0
0.2778 -0.1036 -1.5855 0.666 -0.356 0.656 92 75 51 0 0
0.2814 -0.1044 -1.5887 0.630 -0.327 0.704 131 108 81 0 0
0.3541 -0.1181 -1.6186 0.811 -0.107 0.575 138 114 75 0 0
0.3502 -0.1185 -1.6632 0.634 -0.408 -0.657 118 93 55 0 0
0.3423 -0.1174 -1.6735 0.665 -0.361 -0.654 98 75 40 0 0
0.3049 -0.1117 -1.7134 0.837 -0.435 0.333 62 38 16 0 0
0.3101 -0.1130 -1.7263 0.901 -0.328 0.282 51 33 13 0 0
0.3111 -0.1133 -1.7311 0.836 -0.329 0.438 43 25 6 0 0
0.3131 -0.1138 -1.7353 0.836 -0.329 0.438 52 34 15 0 0
0.3151 -0.1142 -1.7394 0.836 -0.329 0.438 57 38 17 0 0
0.3213 -0.1156 -1.7517 0.959 -0.042 0.279 52 32 8 0 0
0.3167 -0.1150 -1.7602 0.836 -0.245 0.491 60 40 16 0 0
0.3204 -0.1159 -1.7688 0.911 -0.287 0.295 70 47 23 0 0
0.3922 -0.1343 -1.9862 0.884 -0.174 0.434 59 37 16 0 0
0.3924 -0.1344 -1.9917 0.979 -0.167 0.113 59 37 16 0 0
0.3954 -0.1351 -1.9952 0.896 -0.251 0.367 60 37 16 0 0
0.3878 -0.1343 -2.0183 0.869 -0.111 0.483 62 39 10 0 0
0.3991 -0.1371 -2.0500 0.871 0.002 0.491 77 52 23 0 0
0.4378 -0.1456 -2.1118 0.951 -0.146 0.273 78 55 24 0 0
0.4552 -0.1498 -2.1559 0.914 -0.235 0.330 68 47 16 0 0
0.4807 -0.1550 -2.1811 0.869 -0.183 0.460 89 67 30 0 0
-0.1693 -0.0146 -1.0199 0.183 -0.975 0.130 179 182 185 0 0
-0.1173 -0.0283 -1.1919 0.391 -0.497 0.775 90 78 62 0 0
0.0648 -0.0629 -1.2879 0.610 -0.701 0.369 78 64 41 0 0
0.1306 -0.0769 -1.3761 0.574 -0.390 0.720 118 99 69 0 0
0.2582 -0.1042 -1.5593 0.909 -0.209 0.361 64 45 25 0 0
0.2601 -0.1046 -1.5635 0.919 -0.233 0.319 68 46 25 0 0
0.3216 -0.1165 -1.6011 0.297 0.054 0.953 162 137 86 0 0
0.3538 -0.1226 -1.6182 0.766 -0.161 0.623 125 100 62 0 0
0.3558 -0.1239 -1.6538 0.651 -0.575 -0.496 105 84 53 0 0
0.3357 -0.1210 -1.6770 0.663 -0.407 -0.628 98 74 41 0 0
0.3102 -0.1179 -1.7310 0.841 -0.355 0.409 64 46 27 0 0
0.3187 -0.1212 -1.8023 0.971 -0.115 0.209 90 67 37 0 0
0.3632 -0.1324 -1.9276 0.868 -0.408 0.284 68 43 20 0 0
0.3644 -0.1329 -1.9380 0.863 0.063 0.501 66 42 19 0 0
0.3761 -0.1353 -1.9520 0.855 -0.330 0.399 63 39 17 0 0
0.3928 -0.1394 -1.9964 0.790 -0.482 0.379 58 36 15 0 0
0.3984 -0.1418 -2.0497 0.833 -0.200 0.516 78 53 24 0 0
0.4013 -0.1424 -2.0531 0.861 -0.012 0.508 78 53 25 0 0
0.4796 -0.1596 -2.1812 0.809 -0.383 0.447 90 67 31 0 0
0.5234 -0.1688 -2.2371 0.880 -0.142 0.453 101 80 40 0 0
-0.1275 -0.0316 -1.1954 0.857 -0.089 0.508 129 122 115 0 0
-0.1250 -0.0321 -1.1997 0.857 -0.089 0.508 126 119 109 0 0
-0.0726 -0.0415 -1.2054 0.241 -0.439 0.866 80 70 51 0 0
0.0615 -0.0672 -1.2889 0.625 -0.522 0.580 83 71 50 0 0
0.0599 -0.0671 -1.2947 0.874 -0.455 -0.173 54 42 20 0 0
0.1859 -0.0925 -1.4205 0.599 -0.395 0.696 119 95 58 0 0
0.3514 -0.1278 -1.6559 0.684 -0.316 -0.657 95 75 42 0 0
0.3407 -0.1262 -1.6680 0.672 -0.315 -0.670 120 96 58 0 0
0.3292 -0.1245 -1.6805 0.680 -0.350 -0.644 94 71 39 0 0
0.3002 -0.1203 -1.7096 0.824 -0.304 0.478 73 53 28 0 0
0.3167 -0.1255 -1.7973 0.936 -0.267 0.229 79 59 25 0 0
0.3178 -0.1258 -1.8021 0.936 -0.267 0.229 88 65 37 0 0
0.3287 -0.1286 -1.8335 0.992 -0.129 0.008 75 47 23 0 0
0.3634 -0.1373 -1.9323 0.952 -0.197 0.234 67 43 19 0 0
0.3643 -0.1376 -1.9373 0.863 0.063 0.501 65 42 19 0 0
0.3675 -0.1384 -1.9463 0.878 -0.106 0.466 60 38 17 0 0
0.3691 -0.1391 -1.9622 0.790 -0.130 0.600 60 38 17 0 0
0.3718 -0.1397 -1.9658 0.790 -0.130 0.600 60 38 17 0 0
0.3971 -0.1463 -2.0498 0.851 -0.443 0.282 77 51 23 0 0
0.4028 -0.1474 -2.0512 0.971 0.092 0.219 77 52 22 0 0
0.4454 -0.1572 -2.1389 0.899 -0.261 0.352 69 46 15 0 0
0.4477 -0.1577 -2.1428 0.918 -0.083 0.387 70 48 17 0 0
0.4981 -0.1684 -2.2115 0.611 -0.331 0.719 107 84 42 0 0
-0.0758 -0.0458 -1.2062 0.187 -0.432 0.882 82 71 54 0 0
0.0652 -0.0735 -1.3228 0.848 -0.467 0.252 74 61 43 0 0
0.0648 -0.0739 -1.3386 0.793 -0.497 0.351 69 56 37 0 0
0.0665 -0.0743 -1.3430 0.793 -0.497 0.351 71 56 37 0 0
0.3314 -0.1294 -1.6732 0.662 -0.329 -0.673 122 99 63 0 0
0.3122 -0.1283 -1.7557 0.941 -0.138 0.310 59 38 16 0 0
0.3305 -0.1331 -1.8149 0.812 -0.340 0.474 80 53 24 0 0
0.3474 -0.1374 -1.8643 0.822 -0.306 0.480 74 46 22 0 0
0.3423 -0.1368 -1.8736 0.900 0.004 0.437 73 47 22 0 0
0.3526 -0.1399 -1.9224 0.833 -0.102 0.544 70 44 21 0 0
0.3551 -0.1404 -1.9263 0.833 -0.102 0.544 70 44 21 0 0
0.3669 -0.1429 -1.9403 0.851 -0.072 0.520 60 38 15 0 0
0.3902 -0.1499 -2.0487 0.785 -0.517 0.341 77 52 24 0 0
0.3968 -0.1511 -2.0493 0.855 0.059 0.516 77 52 24 0 0
0.4043 -0.1525 -2.0549 0.917 0.220 0.332 77 52 22 0 0
0.4184 -0.1561 -2.0959 0.971 0.101 0.218 90 69 34 0 0
0.4338 -0.1594 -2.1183 0.929 -0.187 0.318 75 52 21 0 0
0.4472 -0.1624 -2.1424 0.918 -0.083 0.387 72 50 19 0 0
0.5261 -0.1790 -2.2507 0.925 -0.174 0.338 78 65 37 0 0
0.5282 -0.1795 -2.2547 0.958 -0.152 0.243 78 68 40 0 0
-0.1643 -0.0350 -1.1874 0.159 -0.959 0.233 189 190 192 0 0
-0.0648 -0.0528 -1.2118 0.261 -0.448 0.855 105 92 76 0 0
0.0577 -0.0764 -1.2999 0.756 0.013 0.654 66 53 35 0 0
0.0609 -0.0771 -1.3036 0.756 0.013 0.654 81 68 52 0 0
0.0602 -0.0771 -1.3091 0.589 -0.752 0.297 76 64 48 0 0
0.0619 -0.0775 -1.3135 0.790 -0.598 -0.135 70 59 42 0 0
0.1829 -0.1015 -1.4261 0.937 -0.016 0.350 111 88 52 0 0
0.1814 -0.1014 -1.4321 0.929 -0.368 0.048 88 64 28 0 0
0.2295 -0.1119 -1.5107 0.859 -0.375 0.349 49 28 13 0 0
0.2616 -0.1189 -1.5609 0.888 -0.220 0.404 81 60 29 0 0
0.3212 -0.1326 -1.6842 0.642 -0.474 -0.603 88 67 39 0 0
0.2987 -0.1296 -1.7147 0.916 -0.286 0.280 60 38 20 0 0
0.2996 -0.1299 -1.7196 0.941 -0.178 0.288 48 29 10 0 0
0.3009 -0.1302 -1.7241 0.941 -0.178 0.288 51 32 15 0 0
0.3039 -0.1310 -1.7331 0.943 -0.117 0.311 57 38 21 0 0
0.3066 -0.1317 -1.7422 0.955 -0.122 0.270 75 58 30 0 0
0.3078 -0.1320 -1.7470 0.904 -0.372 0.211 109 91 54 0 0
0.3182 -0.1358 -1.8170 0.665 -0.610 0.432 78 51 22 0 0
0.3440 -0.1421 -1.8828 0.994 0.102 0.046 72 46 21 0 0
0.3544 -0.1451 -1.9261 0.833 -0.102 0.544 67 42 19 0 0
0.3765 -0.1510 -2.0008 0.729 -0.143 0.669 57 36 15 0 0
0.3827 -0.1521 -2.0018 0.868 0.104 0.485 57 37 14 0 0
0.3874 -0.1530 -2.0039 0.818 -0.382 0.430 57 37 15 0 0
0.3969 -0.1555 -2.0368 0.912 -0.301 0.279 85 59 24 0 0
0.4011 -0.1565 -2.0451 0.946 -0.175 0.273 79 54 26 0 0
0.4459 -0.1668 -2.1367 0.920 0.017 0.391 72 49 18 0 0
0.4468 -0.1671 -2.1418 0.939 -0.200 0.281 72 50 19 0 0
0.4538 -0.1689 -2.1653 0.859 -0.015 0.511 72 50 19 0 0
0.4723 -0.1728 -2.1908 0.843 -0.221 0.490 91 67 31 0 0
0.5062 -0.1797 -2.2261 0.857 -0.233 0.460 102 78 37 0 0
-0.0140 -0.0666 -1.2168 0.322 -0.026 0.946 120 105 81 0 0
0.0465 -0.0772 -1.2276 0.196 -0.154 0.968 129 104 76 0 0
0.3662 -0.1531 -1.9677 0.815 -0.048 0.578 59 37 16 0 0
0.3806 -0.1565 -2.0026 0.898 -0.171 0.406 57 36 16 0 0
0.3861 -0.1575 -2.0041 0.781 -0.560 0.277 56 38 13 0 0
0.3884 -0.1580 -2.0080 0.936 -0.350 0.035 59 38 15 0 0
0.3943 -0.1599 -2.0380 0.793 -0.256 0.553 83 58 22 0 0
0.5079 -0.1848 -2.2296 0.882 -0.095 0.461 105 81 40 0 0
0.5270 -0.1889 -2.2599 0.922 -0.108 0.372 81 73 51 0 0
0.5231 -0.1887 -2.2754 0.954 -0.298 -0.046 146 145 140 0 0
-0.1161 -0.0537 -1.2049 0.666 0.488 0.564 194 193 195 0 0
-0.1125 -0.0545 -1.2087 0.604 0.558 0.568 173 169 167 0 0
0.0446 -0.0817 -1.2279 0.177 -0.214 0.961 121 98 70 0 0
0.0499 -0.0849 -1.3075 0.398 -0.675 0.622 80 67 51 0 0
0.2268 -0.1208 -1.5110 0.946 -0.132 0.297 50 32 15 0 0
0.2917 -0.1376 -1.7070 0.784 -0.555 0.278 82 62 35 0 0
0.3214 -0.1464 -1.8357 0.573 -0.579 0.580 71 45 22 0 0
0.3243 -0.1470 -1.8392 0.573 -0.579 0.580 70 44 21 0 0
0.3347 -0.1489 -1.8432 0.814 -0.573 0.095 70 44 20 0 0
0.3709 -0.1595 -1.9977 0.947 -0.192 0.258 58 37 16 0 0
0.3752 -0.1605 -2.0059 0.949 -0.119 0.291 56 35 15 0 0
0.5263 -0.1935 -2.2596 0.922 -0.108 0.372 81 72 52 0 0
0.5284 -0.1940 -2.2637 0.825 -0.092 0.558 111 106 94 0 0
0.5208 -0.1931 -2.2766 0.966 -0.247 -0.076 151 150 146 0 0
0.5286 -0.1944 -2.2755 0.749 -0.660 0.068 180 180 183 0 0
-0.1051 -0.0607 -1.2106 0.579 0.512 0.634 168 165 163 0 0
0.0392 -0.0856 -1.2297 0.154 -0.490 0.858 102 84 56 0 0
0.1067 -0.1015 -1.3844 0.866 -0.089 0.492 123 101 72 0 0
0.1095 -0.1021 -1.3883 0.835 0.154 0.528 148 120 83 0 0
0.2161 -0.1233 -1.4954 0.835 -0.262 0.484 65 43 21 0 0
0.2498 -0.1312 -1.5711 0.860 -0.485 0.157 63 43 19 0 0
0.2504 -0.1314 -1.5761 0.873 -0.413 0.259 54 36 16 0 0
0.3449 -0.1494 -1.6462 0.920 -0.332 -0.208 71 45 23 0 0
0.2890 -0.1419 -1.7080 0.784 -0.555 0.278 88 67 38 0 0
0.2951 -0.1441 -1.7477 0.854 -0.212 0.475 94 78 50 0 0
0.2976 -0.1446 -1.7515 0.822 -0.279 0.497 107 87 55 0 0
0.3000 -0.1451 -1.7555 0.826 -0.358 0.436 60 39 13 0 0
0.3060 -0.1477 -1.8066 0.819 0.021 0.574 60 40 16 0 0
0.3086 -0.1482 -1.8103 0.819 0.021 0.574 66 43 22 0 0
0.3330 -0.1533 -1.8436 0.930 -0.118 0.348 68 44 20 0 0
0.3870 -0.1682 -2.0363 0.861 -0.332 0.385 93 70 33 0 0
0.4470 -0.1818 -2.1567 0.874 -0.033 0.485 76 55 24 0 0
0.4492 -0.1823 -2.1607 0.874 -0.033 0.485 75 54 23 0 0
0.4516 -0.1829 -2.1646 0.841 -0.129 0.526 72 51 20 0 0
0.5259 -0.1978 -2.2471 0.933 0.010 0.361 82 69 41 0 0
0.5276 -0.1982 -2.2515 0.786 -0.050 0.617 84 72 48 0 0
0.5289 -0.1986 -2.2563 0.849 -0.369 0.378 90 81 62 0 0
0.5307 -0.1990 -2.2606 0.849 -0.369 0.378 116 111 100 0 0
0.5231 -0.1981 -2.2736 0.978 -0.121 -0.170 154 153 150 0 0
0.5244 -0.1985 -2.2784 0.945 -0.274 0.178 180 179 183 0 0
-0.1020 -0.0663 -1.2142 0.146 -0.231 0.962 174 172 168 0 0
0.1695 -0.1181 -1.4256 0.900 -0.314 0.303 107 86 47 0 0
0.1713 -0.1185 -1.4299 0.916 -0.380 0.129 90 68 33 0 0
0.2172 -0.1283 -1.4994 0.854 -0.260 0.450 69 45 20 0 0
0.2192 -0.1287 -1.5036 0.867 -0.333 0.370 67 45 19 0 0
0.3439 -0.1531 -1.6200 0.823 -0.334 0.459 72 52 24 0 0
0.3485 -0.1542 -1.6329 0.924 -0.040 0.380 65 42 18 0 0
0.2940 -0.1486 -1.7477 0.822 -0.279 0.497 96 79 51 0 0
0.2984 -0.1496 -1.7558 0.887 -0.240 0.394 56 34 10 0 0
0.3584 -0.1658 -1.9598 0.736 -0.332 0.590 52 33 12 0 0
0.3610 -0.1664 -1.9635 0.775 -0.311 0.550 46 28 8 0 0
0.3628 -0.1668 -1.9679 0.887 -0.208 0.412 49 31 11 0 0
0.3649 -0.1673 -1.9720 0.895 -0.202 0.398 53 33 12 0 0
0.3669 -0.1678 -1.9763 0.881 -0.226 0.415 56 35 14 0 0
0.3690 -0.1682 -1.9804 0.918 -0.106 0.382 65 44 23 0 0
0.4816 -0.1942 -2.2146 0.842 -0.430 0.324 105 82 41 0 0
0.4964 -0.1968 -2.2193 0.449 -0.240 0.861 99 76 35 0 0
0.5284 -0.2036 -2.2678 0.880 -0.318 0.352 158 157 154 0 0
0.5239 -0.2031 -2.2779 0.930 -0.351 0.110 182 182 185 0 0
0.0204 -0.0921 -1.2316 0.200 -0.638 0.744 112 93 70 0 0
0.0347 -0.0946 -1.2358 0.210 -0.814 0.541 115 97 72 0 0
-0.0229 -0.0874 -1.3120 -0.009 -0.967 0.256 134 131 127 0 0
0.1888 -0.1274 -1.4723 0.686 -0.695 0.214 75 51 25 0 0
0.1899 -0.1277 -1.4769 0.686 -0.695 0.214 76 55 27 0 0
0.3401 -0.1569 -1.6164 0.748 -0.249 0.616 100 75 44 0 0
0.2926 -0.1531 -1.7480 0.822 -0.279 0.497 88 70 42 0 0
0.3539 -0.1696 -1.9510 0.767 -0.553 0.326 62 40 18 0 0
0.3535 -0.1697 -1.9569 0.748 -0.370 0.552 54 33 13 0 0
0.3657 -0.1723 -1.9763 0.881 -0.226 0.415 56 35 14 0 0
0.4001 -0.1808 -2.0649 0.925 -0.178 0.336 68 44 16 0 0
0.4533 -0.1929 -2.1732 0.654 -0.192 0.732 76 53 24 0 0
0.4623 -0.1947 -2.1832 0.848 -0.280 0.449 89 67 30 0 0
0.4758 -0.1975 -2.2011 0.919 -0.199 0.339 91 68 29 0 0
0.4774 -0.1979 -2.2056 0.919 -0.199 0.339 96 73 32 0 0
0.4789 -0.1983 -2.2101 0.919 -0.199 0.339 99 76 35 0 0
0.4805 -0.1987 -2.2147 0.919 -0.199 0.339 100 77 36 0 0
0.5135 -0.2051 -2.2447 0.851 -0.316 0.420 92 74 38 0 0
0.5205 -0.2074 -2.2801 0.887 -0.457 -0.062 184 184 186 0 0
0.5228 -0.2079 -2.2840 0.951 -0.288 0.109 195 194 199 0 0
0.2289 -0.1411 -1.5495 0.709 -0.131 0.693 67 45 21 0 0
0.2503 -0.1459 -1.5901 0.623 0.200 0.757 87 67 40 0 0
0.3365 -0.1610 -1.6179 0.819 -0.483 0.311 86 62 30 0 0
0.3632 -0.1765 -1.9717 0.797 -0.216 0.564 56 35 14 0 0
0.3631 -0.1767 -1.9775 0.978 -0.148 0.146 55 34 13 0 0
0.4569 -0.1982 -2.1692 0.972 -0.175 0.159 78 56 26 0 0
0.4576 -0.1986 -2.1804 0.850 -0.051 0.524 86 63 26 0 0
0.4764 -0.2025 -2.2056 0.919 -0.199 0.339 94 71 30 0 0
0.4779 -0.2029 -2.2101 0.919 -0.199 0.339 101 78 37 0 0
0.4846 -0.2042 -2.2161 0.869 -0.281 0.408 102 79 38 0 0
0.5122 -0.2096 -2.2449 0.959 -0.153 0.240 93 77 38 0 0
0.5259 -0.2126 -2.2681 0.939 -0.338 -0.059 166 166 165 0 0
0.5192 -0.2121 -2.2863 0.797 -0.565 -0.213 196 195 200 0 0
0.0265 -0.1069 -1.3625 0.056 -0.455 0.888 102 82 55 0 0
0.1835 -0.1362 -1.4792 0.691 -0.298 0.659 78 57 32 0 0
0.2021 -0.1397 -1.4954 0.879 -0.367 0.304 70 48 25 0 0
0.2793 -0.1556 -1.5990 0.342 -0.075 0.937 147 122 85 0 0
0.3385 -0.1663 -1.6318 0.867 -0.212 0.452 52 34 16 0 0
0.3083 -0.1671 -1.8078 0.904 -0.408 0.130 61 41 18 0 0
0.3026 -0.1665 -1.8171 0.857 -0.019 0.514 65 43 22 0 0
0.3298 -0.1719 -1.8486 0.521 -0.827 0.211 52 34 12 0 0
0.3436 -0.1753 -1.8835 0.843 0.033 0.537 52 34 12 0 0
0.3426 -0.1762 -1.9180 0.945 -0.191 0.265 59 37 14 0 0
0.4606 -0.2042 -2.1887 0.873 -0.080 0.481 89 67 30 0 0
0.4738 -0.2067 -2.2010 0.919 -0.199 0.339 100 76 38 0 0
0.4750 -0.2071 -2.2059 0.873 -0.271 0.405 96 73 32 0 0
0.4768 -0.2075 -2.2102 0.873 -0.271 0.405 101 78 37 0 0
0.4787 -0.2079 -2.2145 0.873 -0.271 0.405 101 78 37 0 0
0.4966 -0.2111 -2.2224 0.823 -0.241 0.514 99 76 35 0 0
0.5230 -0.2171 -2.2759 0.917 -0.399 0.018 189 189 191 0 0
0.5218 -0.2172 -2.2830 0.862 -0.499 0.092 197 196 201 0 0
0.5280 -0.2182 -2.2832 0.938 -0.096 0.333 202 201 205 0 0
0.2004 -0.1442 -1.4958 0.879 -0.367 0.304 69 47 24 0 0
0.3020 -0.1711 -1.8168 0.912 -0.259 0.318 66 44 23 0 0
0.3173 -0.1763 -1.9015 0.985 -0.013 0.170 52 34 12 0 0
0.4226 -0.2013 -2.1434 0.831 -0.198 0.520 71 50 19 0 0
0.4568 -0.2080 -2.1793 0.807 0.047 0.589 90 67 30 0 0
0.4589 -0.2085 -2.1834 0.870 -0.186 0.456 91 69 32 0 0
0.4602 -0.2088 -2.1882 0.931 -0.126 0.343 95 73 36 0 0
0.4664 -0.2099 -2.1888 0.894 -0.058 0.443 85 63 26 0 0
0.4703 -0.2108 -2.1972 0.809 -0.132 0.573 96 74 37 0 0
0.4728 -0.2113 -2.2010 0.919 -0.199 0.339 98 74 36 0 0
0.4759 -0.2121 -2.2101 0.919 -0.199 0.339 98 75 34 0 0
0.4850 -0.2143 -2.2318 0.776 -0.294 0.558 100 78 37 0 0
0.1669 -0.1420 -1.4502 0.923 -0.333 0.195 83 62 32 0 0
0.1676 -0.1422 -1.4550 0.935 -0.257 0.244 81 58 26 0 0
0.1747 -0.1436 -1.4618 0.742 -0.401 0.538 84 61 29 0 0
0.3010 -0.1755 -1.8112 0.986 0.137 0.100 59 40 19 0 0
0.3197 -0.1812 -1.8934 0.822 0.057 0.566 53 35 13 0 0
0.4200 -0.2053 -2.1330 0.934 0.026 0.355 72 52 18 0 0
0.4298 -0.2074 -2.1483 0.914 -0.191 0.358 67 46 15 0 0
0.4589 -0.2134 -2.1885 0.793 -0.301 0.531 93 71 34 0 0
0.4770 -0.2170 -2.2082 0.809 -0.132 0.573 95 72 31 0 0
0.4813 -0.2181 -2.2222 0.924 -0.118 0.363 97 75 34 0 0
0.5109 -0.2237 -2.2493 0.752 -0.178 0.635 64 52 34 0 0
0.5206 -0.2266 -2.2882 0.989 0.093 0.117 202 202 207 0 0
0.1662 -0.1467 -1.4552 0.984 -0.084 0.155 92 69 36 0 0
0.2640 -0.1712 -1.7192 0.831 -0.063 0.553 55 33 16 0 0
0.3483 -0.1929 -1.9626 0.771 -0.191 0.607 62 40 19 0 0
0.4337 -0.2129 -2.1500 0.817 -0.281 0.503 66 45 14 0 0
0.5061 -0.2276 -2.2467 0.739 -0.359 0.570 74 59 28 0 0
0.5091 -0.2282 -2.2499 0.723 -0.148 0.675 67 55 37 0 0
0.1638 -0.1511 -1.4559 0.828 -0.478 0.294 87 64 33 0 0
0.3843 -0.2074 -2.0783 0.959 -0.253 0.132 78 61 34 0 0
0.3849 -0.2076 -2.0837 0.853 -0.256 0.455 64 47 22 0 0
0.3858 -0.2080 -2.0888 0.892 -0.411 0.186 91 69 38 0 0
0.4335 -0.2178 -2.1553 0.894 -0.188 0.407 61 40 9 0 0
0.4353 -0.2182 -2.1596 0.894 -0.188 0.407 62 41 10 0 0
0.4753 -0.2262 -2.2079 0.809 -0.132 0.573 103 80 39 0 0
0.5043 -0.2321 -2.2474 0.689 -0.374 0.621 77 62 30 0 0
0.5081 -0.2328 -2.2499 0.723 -0.148 0.675 65 53 34 0 0
0.0899 -0.1424 -1.4035 0.817 -0.422 0.394 150 122 84 0 0
0.1834 -0.1594 -1.4712 0.439 -0.530 0.726 120 95 58 0 0
0.3787 -0.2106 -2.0587 0.855 -0.098 0.509 69 45 22 0 0
0.4745 -0.2308 -2.2077 0.809 -0.132 0.573 103 80 39 0 0
0.5023 -0.2365 -2.2483 0.715 -0.300 0.632 82 68 35 0 0
0.5052 -0.2371 -2.2517 0.718 -0.341 0.606 72 59 38 0 0
0.5108 -0.2382 -2.2585 0.779 -0.411 0.473 99 91 78 0 0
0.0893 -0.1471 -1.4033 0.525 -0.646 0.554 148 118 82 0 0
0.1043 -0.1497 -1.4116 0.664 -0.579 0.472 191 158 112 0 0
0.1749 -0.1627 -1.4699 0.488 -0.638 0.596 118 95 59 0 0
0.1783 -0.1634 -1.4733 0.488 -0.638 0.596 109 83 49 0 0
0.3260 -0.1917 -1.6253 0.929 -0.335 0.160 63 41 19 0 0
0.3799 -0.2159 -2.0685 0.830 -0.205 0.519 69 47 21 0 0
0.4130 -0.2232 -2.1294 0.922 -0.227 0.314 70 47 16 0 0
0.4151 -0.2237 -2.1336 0.960 -0.070 0.271 66 45 14 0 0
0.4409 -0.2294 -2.1827 0.898 -0.161 0.409 73 50 15 0 0
0.4779 -0.2365 -2.2216 0.806 -0.294 0.513 101 78 37 0 0
0.4816 -0.2372 -2.2243 0.882 -0.371 0.289 100 77 36 0 0
0.5085 -0.2426 -2.2596 0.785 -0.517 0.342 105 98 86 0 0
0.5227 -0.2450 -2.2645 0.143 -0.553 0.821 188 187 191 0 0
-0.0287 -0.1335 -1.3950 -0.137 -0.778 0.614 111 90 66 0 0
0.0630 -0.1476 -1.3944 0.756 -0.007 0.654 128 103 72 0 0
0.0733 -0.1491 -1.3947 0.927 0.234 0.292 124 99 69 0 0
0.2441 -0.1826 -1.5942 0.236 -0.034 0.971 104 86 56 0 0
0.2822 -0.1973 -1.8371 0.897 -0.285 0.339 56 40 17 0 0
0.3503 -0.2151 -2.0385 0.896 0.084 0.437 103 76 42 0 0
0.4626 -0.2381 -2.1985 0.884 -0.417 0.210 99 74 33 0 0
0.4636 -0.2384 -2.2036 0.884 -0.417 0.210 98 75 33 0 0
0.4816 -0.2419 -2.2234 0.918 -0.159 0.363 100 77 37 0 0
0.5149 -0.2485 -2.2647 0.593 -0.724 0.353 174 175 174 0 0
0.0725 -0.1542 -1.4051 0.711 -0.686 0.157 129 104 73 0 0
0.1800 -0.1749 -1.5238 0.543 -0.709 0.450 83 61 29 0 0
0.1847 -0.1759 -1.5318 0.544 -0.839 0.017 112 89 53 0 0
0.2185 -0.1823 -1.5659 0.874 -0.464 -0.144 94 72 36 0 0
0.2202 -0.1827 -1.5702 0.917 -0.383 -0.110 76 54 20 0 0
0.2430 -0.1871 -1.5943 0.204 -0.035 0.978 112 93 62 0 0
0.2594 -0.1950 -1.7407 0.835 -0.445 0.324 49 30 13 0 0
0.3263 -0.2132 -1.9579 0.867 -0.260 0.425 56 34 13 0 0
0.3794 -0.2249 -2.0556 0.944 -0.315 -0.094 68 44 20 0 0
0.3850 -0.2278 -2.1095 0.845 -0.331 0.421 65 44 16 0 0
0.3981 -0.2300 -2.1165 0.943 -0.161 0.292 72 49 20 0 0
0.4579 -0.2427 -2.2136 0.815 -0.109 0.569 97 73 32 0 0
0.4774 -0.2461 -2.2262 0.913 -0.129 0.388 100 77 37 0 0
0.5112 -0.2528 -2.2672 0.593 -0.724 0.353 177 179 178 0 0
0.0839 -0.1607 -1.4043 0.913 -0.301 0.277 123 99 69 0 0
0.1315 -0.1695 -1.4488 0.677 -0.680 0.283 123 97 63 0 0
0.1538 -0.1732 -1.4583 0.845 -0.295 0.445 110 87 54 0 0
0.1553 -0.1736 -1.4628 0.866 -0.494 0.072 101 78 46 0 0
0.2423 -0.1917 -1.5941 0.394 -0.316 0.863 116 95 63 0 0
0.3223 -0.2051 -1.6309 0.952 -0.281 0.124 69 49 24 0 0
0.3307 -0.2187 -1.9596 0.926 -0.194 0.323 59 37 16 0 0
0.3322 -0.2191 -1.9642 0.926 -0.194 0.323 59 38 17 0 0
0.3338 -0.2195 -1.9687 0.926 -0.194 0.323 63 42 21 0 0
0.3714 -0.2291 -2.0727 0.848 -0.256 0.464 75 53 25 0 0
0.3737 -0.2298 -2.0826 0.923 -0.375 0.089 122 99 52 0 0
0.3791 -0.2316 -2.1076 0.944 -0.067 0.322 66 43 15 0 0
0.4575 -0.2474 -2.2130 0.797 -0.131 0.589 100 75 34 0 0
0.5067 -0.2567 -2.2644 0.877 -0.475 -0.063 159 157 155 0 0
0.5090 -0.2572 -2.2684 0.882 -0.419 0.215 180 181 181 0 0
-0.0412 -0.1472 -1.4153 -0.061 -0.640 0.766 109 88 65 0 0
-0.0358 -0.1482 -1.4181 -0.070 -0.538 0.840 111 90 64 0 0
0.1211 -0.1727 -1.4483 0.522 -0.589 0.617 115 92 57 0 0
0.1607 -0.1800 -1.4856 0.695 -0.663 0.279 91 68 37 0 0
0.2707 -0.2009 -1.6033 0.337 -0.097 0.937 173 142 98 0 0
0.2776 -0.2020 -1.6045 0.468 -0.273 0.841 147 119 72 0 0
0.2831 -0.2029 -1.6065 0.419 -0.340 0.842 146 120 77 0 0
0.2553 -0.2037 -1.7364 0.861 -0.290 0.418 60 43 25 0 0
0.2371 -0.2044 -1.8260 0.847 -0.288 0.447 68 46 22 0 0
0.3876 -0.2380 -2.1174 0.898 -0.362 0.248 65 44 15 0 0
0.4613 -0.2527 -2.2148 0.738 -0.442 0.509 104 79 39 0 0
0.5057 -0.2613 -2.2644 0.894 -0.376 -0.246 166 163 163 0 0
0.5062 -0.2616 -2.2699 0.879 -0.149 0.452 182 184 184 0 0
-0.0549 -0.1504 -1.4211 -0.032 -0.645 0.763 112 92 74 0 0
0.0676 -0.1683 -1.4163 0.814 -0.580 -0.012 117 96 67 0 0
0.1420 -0.1813 -1.4685 0.316 -0.734 0.601 74 52 21 0 0
0.1464 -0.1821 -1.4715 0.528 -0.811 0.251 132 109 76 0 0
0.1493 -0.1827 -1.4752 0.736 -0.661 -0.147 116 94 57 0 0
0.2696 -0.2054 -1.6033 0.337 -0.097 0.937 174 143 94 0 0
0.2758 -0.2064 -1.6049 0.468 -0.273 0.841 140 111 65 0 0
0.2466 -0.2067 -1.7248 0.894 -0.173 0.413 52 35 14 0 0
0.3351 -0.2310 -2.0122 0.813 -0.060 0.579 64 44 20 0 0
0.3817 -0.2417 -2.1096 0.885 -0.368 0.287 69 47 18 0 0
0.5074 -0.2659 -2.2559 0.950 -0.299 0.087 145 139 135 0 0
0.5054 -0.2662 -2.2697 0.919 -0.165 0.357 186 187 189 0 0
-0.0464 -0.1566 -1.4221 -0.121 -0.682 0.721 110 93 72 0 0
0.1464 -0.1876 -1.4920 0.999 0.041 -0.010 93 70 38 0 0
0.1571 -0.1900 -1.5127 0.635 -0.558 0.534 89 66 34 0 0
0.2834 -0.2123 -1.6104 0.560 -0.290 0.776 182 157 117 0 0
0.3345 -0.2368 -2.0408 0.809 -0.494 0.319 79 60 33 0 0
0.3519 -0.2400 -2.0564 0.992 -0.121 0.032 62 42 17 0 0
0.3800 -0.2462 -2.1102 0.885 -0.368 0.287 67 46 17 0 0
0.3813 -0.2466 -2.1150 0.895 -0.399 0.199 66 45 16 0 0
0.3823 -0.2469 -2.1201 0.895 -0.399 0.199 67 46 17 0 0
0.4461 -0.2584 -2.1729 0.978 -0.148 0.149 91 68 28 0 0
0.4468 -0.2587 -2.1781 0.978 -0.148 0.149 96 73 30 0 0
0.4888 -0.2681 -2.2600 0.746 -0.392 0.539 88 81 60 0 0
0.4933 -0.2690 -2.2678 0.797 -0.308 0.520 150 148 142 0 0
0.4955 -0.2695 -2.2719 0.834 -0.367 0.413 175 174 174 0 0
0.5038 -0.2709 -2.2762 0.686 -0.382 0.619 198 198 200 0 0
0.1437 -0.1924 -1.5034 0.829 -0.487 0.276 97 75 38 0 0
0.1450 -0.1928 -1.5080 0.829 -0.487 0.276 91 68 34 0 0
0.1512 -0.1938 -1.5100 0.742 -0.162 0.650 82 59 27 0 0
0.2985 -0.2200 -1.6324 0.961 -0.218 0.170 71 51 27 0 0
0.3369 -0.2419 -2.0382 0.800 -0.483 0.356 76 57 29 0 0
0.3869 -0.2525 -2.1214 0.958 -0.183 0.220 70 47 19 0 0
0.4921 -0.2736 -2.2680 0.852 -0.145 0.503 157 155 151 0 0
0.4930 -0.2739 -2.2731 0.828 -0.209 0.521 180 180 181 0 0
0.4994 -0.2749 -2.2734 0.557 -0.337 0.759 191 190 195 0 0
0.5059 -0.2758 -2.2733 0.390 -0.425 0.817 197 198 200 0 0
0.5643 -0.2838 -2.2609 0.659 -0.024 0.751 210 210 212 0 0
-0.0689 -0.1639 -1.4370 0.043 -0.714 0.698 117 103 87 0 0
0.0794 -0.1858 -1.4512 0.680 -0.583 0.444 110 88 61 0 0
0.1520 -0.1990 -1.5195 0.434 -0.862 0.262 89 66 34 0 0
0.2711 -0.2197 -1.6059 0.622 -0.381 0.684 158 132 91 0 0
0.2736 -0.2202 -1.6097 0.562 -0.547 0.621 170 147 105 0 0
0.2768 -0.2208 -1.6131 0.495 -0.525 0.692 161 136 93 0 0
0.2391 -0.2241 -1.8274 0.582 -0.726 0.368 76 55 26 0 0
0.3150 -0.2404 -1.9615 0.971 -0.182 0.152 64 46 22 0 0
0.3156 -0.2407 -1.9668 0.966 -0.218 0.136 71 53 29 0 0
0.3357 -0.2465 -2.0382 0.944 -0.170 0.283 74 56 26 0 0
0.3405 -0.2473 -2.0404 0.804 -0.478 0.354 67 45 22 0 0
0.3533 -0.2494 -2.0479 0.871 -0.347 0.349 66 46 21 0 0
0.3921 -0.2583 -2.1280 0.501 0.003 0.865 68 44 16 0 0
0.4905 -0.2781 -2.2686 0.957 -0.189 0.218 163 161 159 0 0
0.4914 -0.2785 -2.2737 0.852 -0.303 0.426 183 182 186 0 0
0.4979 -0.2794 -2.2738 0.747 -0.463 0.477 194 193 198 0 0
0.5036 -0.2803 -2.2745 0.443 -0.445 0.778 198 199 201 0 0
-0.0851 -0.1667 -1.4386 -0.152 -0.675 0.722 135 128 121 0 0
-0.0685 -0.1692 -1.4417 0.018 -0.683 0.730 118 102 87 0 0
0.1174 -0.1978 -1.4948 0.875 -0.479 -0.062 110 89 54 0 0
0.1642 -0.2070 -1.5549 0.813 -0.331 0.479 99 76 35 0 0
0.2702 -0.2242 -1.6058 0.673 -0.294 0.679 157 131 89 0 0
0.2745 -0.2249 -1.6086 0.567 -0.272 0.778 180 155 114 0 0
0.2367 -0.2286 -1.8283 0.703 -0.611 0.365 80 59 30 0 0
0.2528 -0.2318 -1.8513 0.423 -0.211 0.881 72 51 27 0 0
0.3967 -0.2642 -2.1410 0.820 -0.324 0.472 78 55 24 0 0
0.4885 -0.2826 -2.2694 0.734 -0.428 0.527 167 165 165 0 0
0.4983 -0.2841 -2.2725 0.535 -0.404 0.742 195 194 198 0 0
-0.0346 -0.1792 -1.4468 0.085 -0.644 0.760 111 93 68 0 0
0.0587 -0.1920 -1.4391 0.800 -0.149 0.581 107 87 58 0 0
0.0782 -0.1950 -1.4454 0.800 -0.136 0.584 103 82 54 0 0
0.1617 -0.2112 -1.5503 0.778 -0.627 0.036 111 87 49 0 0
0.1861 -0.2160 -1.5848 0.390 -0.563 0.729 105 82 47 0 0
0.2474 -0.2357 -1.8486 0.315 -0.482 0.818 70 49 24 0 0
0.4287 -0.2761 -2.2020 0.956 -0.084 0.281 103 79 35 0 0
0.4337 -0.2769 -2.2036 0.802 -0.029 0.596 110 86 42 0 0
0.4798 -0.2862 -2.2704 0.838 -0.545 0.044 142 142 135 0 0
0.5872 -0.3016 -2.2779 0.746 0.450 0.491 213 213 213 0 0
0.1751 -0.2190 -1.5797 0.704 -0.463 0.538 100 76 38 0 0
0.1783 -0.2196 -1.5832 0.544 -0.534 0.647 96 73 35 0 0
0.1830 -0.2204 -1.5859 0.400 -0.471 0.786 122 97 59 0 0
