ply
format ascii 1.0
element vertex 855
property float x
property float y
property float z
property float nx
property float ny
property float nz
property uchar diffuse_red
property uchar diffuse_green
property uchar diffuse_blue
property uchar class
property uchar detection
end_header
-0.1284 0.0924 -0.9374 -0.507 0.833 0.220 72 50 28 0 0
-0.1285 0.0917 -1.0173 -0.766 0.549 0.333 71 48 24 0 0
-0.1299 0.0949 -1.0256 -0.319 0.926 0.204 61 39 15 0 0
-0.1304 0.0956 -1.0396 -0.530 0.834 0.153 71 49 25 0 0
-0.1303 0.0943 -1.1467 -0.293 0.726 0.622 79 59 31 0 0
-0.1315 0.0970 -1.1505 -0.293 0.726 0.622 77 57 31 0 0
-0.1325 0.0990 -1.1545 -0.250 0.873 0.418 76 54 25 0 0
-0.1380 0.1105 -1.1989 -0.464 0.806 0.367 83 65 40 0 0
-0.1201 0.0700 -1.3403 -0.918 0.268 0.292 160 129 80 0 0
-0.1617 0.1601 -1.3979 -0.490 0.697 0.524 134 107 74 0 0
-0.1634 0.1636 -1.4064 -0.429 0.850 0.307 166 134 87 0 0
-0.1757 0.1901 -1.4335 -0.544 0.765 0.346 111 90 59 0 0
-0.1797 0.1985 -1.4706 -0.096 0.667 0.739 108 87 54 0 0
-0.1815 0.2024 -1.4788 -0.336 0.757 0.561 83 62 28 0 0
-0.1809 0.2010 -1.4849 -0.561 0.721 0.406 89 68 30 0 0
-0.1826 0.2045 -1.4934 -0.682 0.319 0.657 202 169 106 0 0
-0.1848 0.2092 -1.5012 -0.740 0.412 0.531 189 158 102 0 0
-0.1884 0.2169 -1.5231 -0.442 0.858 0.262 87 62 24 0 0
-0.1890 0.2179 -1.5385 -0.704 0.655 0.276 74 51 23 0 0
-0.1918 0.2239 -1.5561 -0.604 0.706 0.371 172 143 98 0 0
-0.1899 0.2197 -1.5641 -0.093 0.993 0.074 73 50 18 0 0
-0.1991 0.2396 -1.5786 -0.430 0.567 0.702 137 117 82 0 0
-0.2330 0.3094 -1.9370 -0.595 0.631 0.497 77 55 24 0 0
-0.2340 0.3116 -1.9527 -0.587 0.797 0.143 81 57 30 0 0
-0.2343 0.3121 -1.9582 -0.555 0.825 0.112 89 67 39 0 0
-0.2401 0.3240 -2.0252 -0.345 0.678 0.649 74 53 25 0 0
-0.2459 0.3365 -2.0326 -0.859 0.504 0.090 85 63 27 0 0
-0.2777 0.4040 -2.1964 -0.653 0.665 0.362 87 65 28 0 0
-0.1231 0.0918 -0.9244 -0.361 0.765 0.533 109 85 52 0 0
-0.1231 0.0918 -0.9290 -0.327 0.920 0.216 99 75 48 0 0
-0.1242 0.0941 -0.9374 -0.280 0.893 0.353 73 52 29 0 0
-0.1292 0.1044 -0.9897 -0.647 0.573 0.503 74 53 26 0 0
-0.1248 0.0947 -1.0122 0.247 0.870 0.427 81 60 34 0 0
-0.1249 0.0946 -1.0503 0.024 0.949 0.314 73 51 27 0 0
-0.1262 0.0972 -1.0589 -0.276 0.952 -0.130 73 52 26 0 0
-0.1259 0.0966 -1.0639 -0.276 0.952 -0.130 75 53 29 0 0
-0.1256 0.0960 -1.0690 -0.288 0.949 -0.127 62 40 18 0 0
-0.1271 0.0990 -1.0726 -0.117 0.992 -0.055 66 44 22 0 0
-0.1225 0.0887 -1.1058 -0.732 0.641 0.231 72 53 29 0 0
-0.1259 0.0958 -1.1469 -0.213 0.833 0.511 55 34 12 0 0
-0.1264 0.0969 -1.1513 -0.259 0.737 0.625 46 26 6 0 0
-0.1320 0.1085 -1.1907 -0.244 0.838 0.488 88 69 39 0 0
-0.1339 0.1128 -1.1988 -0.464 0.806 0.367 92 74 43 0 0
-0.1180 0.0768 -1.3379 -0.728 0.473 0.496 147 117 70 0 0
-0.1553 0.1574 -1.3952 -0.437 0.666 0.605 150 118 82 0 0
-0.1766 0.2027 -1.4798 -0.533 0.723 0.439 82 61 26 0 0
-0.1893 0.2297 -1.5538 -0.665 0.549 0.506 188 159 111 0 0
-0.1869 0.2243 -1.5625 -0.592 0.741 -0.317 76 53 21 0 0
-0.1890 0.2288 -1.5758 -0.628 0.264 0.732 85 63 31 0 0
-0.2032 0.2595 -1.5887 -0.481 0.619 0.621 128 111 75 0 0
-0.2045 0.2623 -1.5923 -0.274 0.643 0.715 113 91 62 0 0
-0.2153 0.2857 -1.5987 -0.167 0.184 0.969 162 140 95 0 0
-0.2318 0.3214 -1.6287 -0.220 0.894 0.391 121 95 53 0 0
-0.2323 0.3224 -1.6334 -0.359 0.649 0.671 109 82 44 0 0
-0.2115 0.2762 -1.7468 -0.405 0.908 0.105 108 86 46 0 0
-0.2151 0.2827 -1.8838 -0.446 0.698 0.560 101 78 44 0 0
-0.2222 0.2979 -1.9011 -0.068 0.945 0.321 86 66 31 0 0
-0.2229 0.2994 -1.9057 -0.068 0.945 0.321 84 62 28 0 0
-0.2298 0.3140 -1.9408 -0.316 0.885 0.342 80 56 26 0 0
-0.2291 0.3125 -1.9478 -0.408 0.850 0.334 75 50 24 0 0
-0.2292 0.3126 -1.9535 -0.558 0.768 0.314 79 56 29 0 0
-0.2333 0.3211 -1.9879 -0.693 0.670 0.265 75 54 26 0 0
-0.2409 0.3375 -2.0098 -0.746 0.617 0.250 67 46 21 0 0
-0.2363 0.3272 -2.0242 -0.337 0.823 0.457 70 49 22 0 0
-0.2368 0.3283 -2.0293 0.120 0.879 0.461 78 57 27 0 0
-0.2378 0.3305 -2.0334 0.120 0.879 0.461 98 78 47 0 0
-0.2492 0.3547 -2.0906 -0.436 0.872 0.222 69 55 31 0 0
-0.2498 0.3559 -2.0956 -0.409 0.868 0.282 53 44 21 0 0
-0.2505 0.3575 -2.1003 -0.395 0.872 0.289 40 33 10 0 0
-0.2562 0.3696 -2.1199 -0.578 0.788 0.214 86 66 29 0 0
-0.2609 0.3798 -2.1229 -0.583 0.670 0.460 85 63 26 0 0
-0.2685 0.3959 -2.1691 -0.346 0.725 0.596 92 68 34 0 0
-0.2727 0.4048 -2.1914 -0.459 0.766 0.450 92 70 33 0 0
-0.2839 0.4290 -2.2179 -0.243 0.917 0.317 102 81 39 0 0
-0.2834 0.4278 -2.2251 -0.423 0.718 0.552 100 78 36 0 0
-0.1185 0.0926 -0.9201 -0.375 0.756 0.537 94 68 34 0 0
-0.1190 0.0936 -0.9290 -0.283 0.936 0.212 91 69 42 0 0
-0.1230 0.1020 -0.9632 -0.049 0.961 0.273 73 52 31 0 0
-0.1245 0.1050 -0.9902 -0.261 0.753 0.604 74 53 26 0 0
-0.1190 0.0930 -1.0041 -0.464 0.816 0.344 70 48 24 0 0
-0.1212 0.0966 -1.1425 -0.516 0.771 0.373 76 55 27 0 0
-0.1185 0.0892 -1.3327 -0.422 0.901 0.105 108 81 40 0 0
-0.1193 0.0909 -1.3527 -0.031 0.695 0.718 207 175 113 0 0
-0.1513 0.1598 -1.3950 -0.437 0.666 0.605 188 158 113 0 0
-0.1531 0.1637 -1.3981 -0.429 0.741 0.516 165 136 93 0 0
-0.1557 0.1692 -1.4055 -0.328 0.777 0.538 192 158 111 0 0
-0.1725 0.2050 -1.4796 -0.711 0.558 0.428 80 57 23 0 0
-0.1791 0.2191 -1.5189 -0.655 0.599 0.460 85 58 23 0 0
-0.1833 0.2277 -1.5616 -0.677 0.658 -0.330 88 64 32 0 0
-0.1832 0.2276 -1.5670 -0.174 0.507 0.844 65 47 25 0 0
-0.2113 0.2882 -1.5984 -0.350 0.219 0.911 144 117 75 0 0
-0.2100 0.2844 -1.7259 -0.534 0.838 0.115 114 92 52 0 0
-0.2248 0.3146 -1.9478 -0.408 0.850 0.334 72 50 23 0 0
-0.2255 0.3161 -1.9525 -0.408 0.850 0.334 76 55 28 0 0
-0.2262 0.3175 -1.9571 -0.408 0.850 0.334 84 63 36 0 0
-0.2282 0.3218 -1.9713 -0.736 0.516 0.438 82 61 32 0 0
-0.2294 0.3243 -1.9752 -0.713 0.450 0.538 85 64 35 0 0
-0.2332 0.3318 -2.0579 -0.409 0.878 -0.250 129 105 63 0 0
-0.2454 0.3580 -2.0956 -0.409 0.868 0.282 56 48 28 0 0
-0.2461 0.3595 -2.1003 -0.395 0.872 0.289 35 30 11 0 0
-0.2521 0.3723 -2.1192 -0.578 0.788 0.214 86 66 29 0 0
-0.2585 0.3859 -2.1557 -0.593 0.788 0.168 88 66 29 0 0
-0.2592 0.3873 -2.1605 -0.581 0.736 0.348 92 70 33 0 0
-0.2685 0.4072 -2.1911 -0.459 0.766 0.450 92 70 33 0 0
-0.2694 0.4092 -2.1954 -0.459 0.766 0.450 94 72 35 0 0
-0.2799 0.4318 -2.2172 -0.244 0.824 0.512 100 78 37 0 0
-0.2830 0.4384 -2.2293 -0.378 0.708 0.596 103 81 40 0 0
-0.2874 0.4478 -2.2450 -0.258 0.966 0.026 101 80 36 0 0
-0.2913 0.4562 -2.2553 -0.336 0.724 0.603 97 83 48 0 0
-0.2896 0.4522 -2.2716 -0.571 0.719 -0.397 154 153 149 0 0
-0.0821 0.0247 -0.9111 -0.183 -0.048 0.982 179 177 177 0 0
-0.1160 0.0973 -1.0032 -0.651 0.737 0.181 72 50 26 0 0
-0.1150 0.0941 -1.1345 0.091 0.981 0.170 85 64 36 0 0
-0.1154 0.0950 -1.1391 0.091 0.981 0.170 90 69 39 0 0
-0.1169 0.0983 -1.1426 -0.450 0.821 0.351 76 54 23 0 0
-0.1343 0.1354 -1.2201 -0.523 0.679 0.516 116 94 53 0 0
-0.1184 0.1004 -1.3282 -0.548 0.836 -0.023 82 58 24 0 0
-0.1156 0.0943 -1.3416 -0.463 0.830 0.309 157 123 66 0 0
-0.1471 0.1618 -1.3950 -0.439 0.736 0.515 180 154 113 0 0
-0.1497 0.1674 -1.4024 -0.328 0.787 0.522 184 159 119 0 0
-0.1711 0.2131 -1.4656 -0.478 0.684 0.552 115 91 56 0 0
-0.1695 0.2096 -1.4781 -0.864 0.379 0.330 79 56 22 0 0
-0.1754 0.2223 -1.5076 -0.782 0.622 0.025 89 57 19 0 0
-0.1755 0.2224 -1.5128 -0.773 0.602 0.200 89 59 23 0 0
-0.1749 0.2209 -1.5243 -0.211 0.973 0.094 82 55 24 0 0
-0.2081 0.2922 -1.5971 -0.504 0.116 0.856 130 106 70 0 0
-0.2182 0.3121 -1.8933 -0.298 0.696 0.653 88 68 35 0 0
-0.2185 0.3126 -1.8987 -0.402 0.889 0.218 85 63 31 0 0
-0.2216 0.3194 -1.9107 -0.172 0.884 0.435 85 62 32 0 0
-0.2221 0.3203 -1.9158 -0.417 0.808 0.416 85 61 33 0 0
-0.2213 0.3186 -1.9230 -0.349 0.869 0.352 82 58 28 0 0
-0.2220 0.3200 -1.9568 -0.499 0.851 0.164 81 61 34 0 0
-0.2232 0.3224 -1.9666 -0.639 0.765 0.078 78 57 28 0 0
-0.2245 0.3253 -1.9701 -0.367 0.758 0.539 78 57 28 0 0
-0.2251 0.3264 -1.9751 -0.133 0.752 0.645 84 63 33 0 0
-0.2337 0.3444 -2.0550 -0.333 0.875 0.352 91 66 33 0 0
-0.2385 0.3548 -2.0642 -0.501 0.802 0.324 81 62 30 0 0
-0.2390 0.3558 -2.0873 -0.428 0.827 0.364 79 59 26 0 0
-0.2531 0.3859 -2.1212 -0.589 0.687 0.425 86 64 27 0 0
-0.2657 0.4128 -2.1879 -0.454 0.782 0.427 92 70 33 0 0
-0.2655 0.4123 -2.1944 -0.291 0.791 0.538 94 72 34 0 0
-0.2695 0.4208 -2.1927 -0.448 0.727 0.521 96 74 35 0 0
-0.2705 0.4230 -2.1967 -0.448 0.727 0.521 97 75 36 0 0
-0.2716 0.4253 -2.2007 -0.448 0.727 0.521 97 75 36 0 0
-0.2727 0.4278 -2.2045 -0.488 0.599 0.635 94 72 33 0 0
-0.2780 0.4391 -2.2245 -0.423 0.732 0.534 95 73 34 0 0
-0.2812 0.4458 -2.2427 -0.377 0.711 0.593 101 79 33 0 0
-0.2872 0.4587 -2.2549 -0.385 0.857 0.343 98 83 48 0 0
-0.2860 0.4559 -2.2700 -0.588 0.729 -0.351 152 151 146 0 0
-0.1095 0.0944 -0.9162 -0.264 0.787 0.558 132 103 66 0 0
-0.1186 0.1127 -1.1915 -0.363 0.809 0.462 117 96 57 0 0
-0.1315 0.1402 -1.2237 -0.487 0.747 0.453 97 75 35 0 0
-0.1321 0.1415 -1.2281 -0.558 0.797 0.231 118 96 58 0 0
-0.1180 0.1110 -1.2727 -0.719 0.667 -0.195 67 54 30 0 0
-0.1156 0.1055 -1.3266 -0.515 0.837 -0.184 79 55 24 0 0
-0.1430 0.1641 -1.3948 -0.439 0.736 0.515 180 156 115 0 0
-0.1750 0.2322 -1.5399 -0.844 0.532 0.065 73 53 23 0 0
-0.1849 0.2533 -1.5803 -0.527 0.627 0.574 128 106 69 0 0
-0.2035 0.2932 -1.5977 -0.347 0.320 0.881 134 108 75 0 0
-0.2212 0.3311 -1.6368 -0.312 0.700 0.642 104 80 48 0 0
-0.1971 0.2788 -1.7492 -0.610 0.676 0.413 114 92 51 0 0
-0.2007 0.2863 -1.7944 -0.532 0.598 0.599 128 105 66 0 0
-0.1969 0.2779 -1.8118 -0.606 0.758 0.242 88 68 35 0 0
-0.1971 0.2784 -1.8172 -0.561 0.711 0.425 74 53 22 0 0
-0.2132 0.3127 -1.8945 -0.260 0.738 0.623 89 66 34 0 0
-0.2131 0.3123 -1.9005 -0.412 0.890 0.194 85 62 30 0 0
-0.2159 0.3183 -1.9132 -0.399 0.845 0.356 84 61 30 0 0
-0.2194 0.3256 -1.9657 -0.639 0.765 0.078 83 62 33 0 0
-0.2194 0.3256 -1.9716 -0.181 0.830 0.528 81 60 31 0 0
-0.2820 0.4590 -2.2505 -0.554 0.599 0.578 100 82 45 0 0
-0.2832 0.4615 -2.2542 -0.547 0.799 0.251 99 83 50 0 0
-0.2837 0.4624 -2.2595 -0.572 0.786 -0.235 109 98 76 0 0
-0.2825 0.4599 -2.2682 -0.618 0.719 -0.317 150 148 139 0 0
-0.0979 0.0801 -0.9078 -0.269 0.397 0.877 136 113 82 0 0
-0.1044 0.0941 -0.9169 -0.210 0.885 0.415 132 104 61 0 0
-0.1144 0.1146 -1.1915 -0.363 0.809 0.462 117 94 54 0 0
-0.1238 0.1345 -1.2423 -0.835 0.431 -0.342 67 47 25 0 0
-0.1178 0.1215 -1.2585 -0.490 0.687 -0.536 70 55 31 0 0
-0.1161 0.1179 -1.2653 -0.599 0.663 -0.450 60 44 21 0 0
-0.1148 0.1152 -1.2716 -0.670 0.690 -0.273 62 47 24 0 0
-0.1103 0.1055 -1.2865 -0.789 0.459 0.408 102 87 64 0 0
-0.1159 0.1174 -1.3114 -0.611 0.677 0.410 60 41 23 0 0
-0.1127 0.1105 -1.3252 -0.362 0.852 -0.378 78 55 26 0 0
-0.1090 0.1025 -1.3343 -0.029 0.933 0.358 105 77 35 0 0
-0.1168 0.1192 -1.3518 -0.549 0.648 0.529 165 131 72 0 0
-0.1309 0.1494 -1.3725 -0.363 0.600 0.713 125 97 66 0 0
-0.1324 0.1525 -1.3761 -0.482 0.702 0.524 143 118 80 0 0
-0.1631 0.2180 -1.4651 -0.704 0.530 0.473 96 76 42 0 0
-0.1641 0.2202 -1.4690 -0.704 0.530 0.473 95 75 40 0 0
-0.1931 0.2814 -1.7100 -0.878 0.428 0.215 90 67 33 0 0
-0.2254 0.3498 -2.0124 -0.410 0.773 0.483 74 52 28 0 0
-0.2308 0.3612 -2.0622 -0.497 0.854 0.151 75 54 23 0 0
-0.2309 0.3614 -2.0680 -0.458 0.879 0.133 85 64 33 0 0
-0.2381 0.3766 -2.1150 -0.228 0.754 0.616 89 69 32 0 0
-0.2487 0.3991 -2.1433 -0.191 0.916 0.352 87 65 28 0 0
-0.2487 0.3992 -2.1493 -0.409 0.842 0.350 85 63 26 0 0
-0.2511 0.4044 -2.1568 -0.354 0.752 0.556 91 69 32 0 0
-0.2522 0.4068 -2.1606 -0.353 0.774 0.526 86 63 27 0 0
-0.2670 0.4383 -2.2169 -0.454 0.815 0.360 91 69 28 0 0
-0.2778 0.4611 -2.2690 -0.581 0.784 -0.220 148 147 138 0 0
-0.0906 0.0750 -0.9009 -0.619 0.552 0.558 125 108 85 0 0
-0.0928 0.0797 -0.9039 -0.581 0.456 0.674 131 110 86 0 0
-0.0959 0.0863 -0.9063 -0.128 0.775 0.619 137 112 82 0 0
-0.0988 0.0927 -0.9134 -0.221 0.735 0.641 204 178 140 0 0
-0.1009 0.0972 -0.9211 -0.107 0.945 0.310 92 70 39 0 0
-0.1009 0.0970 -0.9584 -0.249 0.849 0.466 73 50 31 0 0
-0.1139 0.1243 -1.1980 -0.326 0.802 0.501 89 71 42 0 0
-0.1149 0.1264 -1.2020 -0.326 0.802 0.501 61 45 21 0 0
-0.1155 0.1278 -1.2063 -0.403 0.784 0.472 77 61 39 0 0
-0.1127 0.1216 -1.2644 -0.611 0.647 -0.457 64 46 24 0 0
-0.1115 0.1192 -1.2707 -0.706 0.613 -0.354 76 60 37 0 0
-0.1124 0.1210 -1.3158 -0.516 0.813 -0.270 63 45 21 0 0
-0.1157 0.1280 -1.3535 -0.488 0.578 0.654 160 127 74 0 0
-0.1171 0.1310 -1.3572 -0.488 0.578 0.654 157 126 78 0 0
-0.1509 0.2030 -1.4173 -0.406 0.725 0.556 148 115 70 0 0
-0.1519 0.2051 -1.4214 -0.441 0.783 0.439 155 122 75 0 0
-0.1527 0.2069 -1.4255 -0.441 0.783 0.439 153 123 75 0 0
-0.1547 0.2110 -1.4388 -0.457 0.834 0.311 117 95 59 0 0
-0.1630 0.2287 -1.4601 -0.551 0.823 0.140 99 79 43 0 0
-0.1629 0.2285 -1.4969 -0.808 0.284 0.516 187 156 99 0 0
-0.1692 0.2420 -1.5153 -0.141 0.756 0.640 79 55 25 0 0
-0.1699 0.2433 -1.5569 -0.554 0.160 0.817 142 116 79 0 0
-0.2062 0.3208 -1.6090 -0.889 0.391 0.237 166 140 91 0 0
-0.2146 0.3386 -1.6344 -0.164 0.940 0.298 115 90 50 0 0
-0.2107 0.3297 -1.9658 -0.339 0.724 0.601 84 63 34 0 0
-0.2125 0.3335 -1.9744 -0.294 0.679 0.673 81 60 31 0 0
-0.2627 0.4403 -2.2170 -0.391 0.842 0.373 91 69 27 0 0
-0.2748 0.4662 -2.2475 -0.612 0.758 0.225 102 82 46 0 0
-0.2737 0.4637 -2.2561 -0.363 0.785 0.502 98 81 48 0 0
-0.2745 0.4655 -2.2668 -0.367 0.919 -0.146 147 144 136 0 0
-0.0872 0.0784 -0.9004 -0.619 0.552 0.558 117 101 78 0 0
-0.0882 0.0806 -0.9042 -0.625 0.461 0.630 136 116 93 0 0
-0.0963 0.0978 -0.9215 -0.107 0.945 0.310 81 59 33 0 0
-0.0965 0.0982 -0.9586 -0.271 0.842 0.467 69 48 28 0 0
-0.0966 0.0985 -0.9632 -0.230 0.776 0.588 65 44 22 0 0
-0.1105 0.1279 -1.2022 -0.403 0.784 0.472 80 63 37 0 0
-0.1113 0.1296 -1.2064 -0.402 0.842 0.358 70 53 30 0 0
-0.1125 0.1322 -1.2102 -0.360 0.740 0.569 114 97 76 0 0
-0.1093 0.1254 -1.2636 -0.611 0.647 -0.457 65 48 25 0 0
-0.1084 0.1234 -1.2696 -0.706 0.613 -0.354 68 52 30 0 0
-0.1019 0.1097 -1.3379 -0.395 0.554 0.733 118 86 44 0 0
-0.1127 0.1326 -1.3522 -0.555 0.757 0.345 155 123 70 0 0
-0.1177 0.1433 -1.3622 -0.381 0.520 0.765 126 101 73 0 0
-0.1231 0.1547 -1.3718 -0.367 0.656 0.660 151 132 92 0 0
-0.1244 0.1576 -1.3755 -0.482 0.702 0.524 154 131 94 0 0
-0.1306 0.1708 -1.3944 -0.278 0.901 0.333 114 96 60 0 0
-0.1468 0.2052 -1.4172 -0.406 0.725 0.556 151 118 70 0 0
-0.1481 0.2079 -1.4209 -0.457 0.834 0.311 175 142 86 0 0
-0.1493 0.2106 -1.4298 -0.457 0.834 0.311 128 103 62 0 0
-0.1500 0.2119 -1.4342 -0.457 0.834 0.311 117 91 54 0 0
-0.1506 0.2132 -1.4387 -0.457 0.834 0.311 123 99 64 0 0
-0.1585 0.2300 -1.4919 -0.757 0.385 0.527 223 190 138 0 0
-0.1642 0.2422 -1.5005 -0.706 0.322 0.630 139 111 69 0 0
-0.1644 0.2426 -1.5479 -0.810 0.278 0.517 209 183 131 0 0
-0.1657 0.2454 -1.5515 -0.810 0.278 0.517 205 177 121 0 0
-0.1856 0.2877 -1.7473 -0.630 0.772 0.080 106 82 42 0 0
-0.1870 0.2907 -1.8070 -0.594 0.621 0.511 93 73 40 0 0
-0.2060 0.3310 -1.9313 -0.262 0.882 0.391 76 52 24 0 0
-0.2070 0.3332 -1.9704 -0.344 0.775 0.531 81 60 31 0 0
-0.2090 0.3375 -1.9728 -0.597 0.674 0.434 82 61 32 0 0
-0.2228 0.3668 -2.0670 -0.389 0.920 0.057 75 54 23 0 0
-0.2285 0.3789 -2.1166 -0.572 0.722 0.388 90 70 33 0 0
-0.2702 0.4677 -2.2481 -0.476 0.879 -0.036 102 82 45 0 0
-0.2693 0.4657 -2.2561 -0.363 0.785 0.502 100 82 49 0 0
-0.2704 0.4682 -2.2600 -0.293 0.903 0.314 107 94 73 0 0
-0.2685 0.4640 -2.2703 -0.301 0.870 -0.391 144 140 132 0 0
-0.0841 0.0823 -0.8997 -0.576 0.646 0.501 109 95 72 0 0
-0.0919 0.0991 -0.9543 -0.280 0.888 0.365 62 43 22 0 0
-0.0922 0.0997 -0.9587 -0.271 0.842 0.467 67 49 26 0 0
-0.0923 0.0999 -0.9634 -0.230 0.776 0.588 61 41 19 0 0
-0.0823 0.0788 -1.1501 0.464 0.704 0.537 28 23 16 0 0
-0.1022 0.1211 -1.1912 -0.373 0.695 0.614 137 112 76 0 0
-0.1051 0.1273 -1.1984 -0.415 0.720 0.557 92 69 39 0 0
-0.1080 0.1335 -1.2105 -0.231 0.885 0.405 111 95 72 0 0
-0.1150 0.1484 -1.2385 -0.389 0.819 -0.422 75 52 24 0 0
-0.1014 0.1196 -1.2877 -0.540 0.611 0.578 67 51 27 0 0
-0.1040 0.1252 -1.2952 -0.592 0.766 0.252 98 83 56 0 0
-0.1042 0.1255 -1.3052 -0.600 0.800 -0.005 61 44 18 0 0
-0.1050 0.1271 -1.3095 -0.194 0.837 0.511 79 61 34 0 0
-0.0970 0.1103 -1.3386 -0.335 0.277 0.901 100 72 33 0 0
-0.1084 0.1345 -1.3523 -0.278 0.859 0.430 161 128 75 0 0
-0.1188 0.1566 -1.3719 -0.404 0.606 0.686 148 130 95 0 0
-0.1205 0.1603 -1.3751 -0.617 0.568 0.545 125 105 73 0 0
-0.1267 0.1734 -1.3941 -0.400 0.854 0.332 98 82 51 0 0
-0.1415 0.2049 -1.4185 -0.277 0.790 0.547 144 111 60 0 0
-0.1436 0.2094 -1.4212 -0.319 0.868 0.379 171 138 86 0 0
-0.1461 0.2145 -1.4339 -0.471 0.804 0.363 127 101 62 0 0
-0.1467 0.2159 -1.4383 -0.542 0.715 0.442 95 70 36 0 0
-0.1478 0.2182 -1.4422 -0.462 0.681 0.567 95 72 36 0 0
-0.1548 0.2332 -1.4807 -0.802 0.502 0.323 81 59 26 0 0
-0.1546 0.2327 -1.4914 -0.421 0.198 0.885 213 179 130 0 0
-0.1623 0.2491 -1.4976 -0.603 0.360 0.711 166 139 97 0 0
-0.1578 0.2395 -1.5457 -0.234 0.739 0.631 104 78 42 0 0
-0.1618 0.2480 -1.5458 -0.882 0.338 0.328 196 169 116 0 0
-0.1812 0.2892 -1.6000 -0.017 0.504 0.863 152 126 79 0 0
-0.1842 0.2956 -1.6012 0.013 0.281 0.960 183 157 110 0 0
-0.1835 0.2943 -1.6998 -0.539 0.804 0.254 118 96 53 0 0
-0.1840 0.2954 -1.7045 -0.539 0.804 0.254 107 86 48 0 0
-0.1823 0.2918 -1.7458 -0.587 0.804 0.096 107 84 44 0 0
-0.1810 0.2891 -1.7533 -0.719 0.670 0.183 112 88 49 0 0
-0.1820 0.2913 -1.7574 -0.723 0.484 0.493 118 95 53 0 0
-0.1832 0.2939 -1.8062 -0.467 0.818 0.336 92 72 39 0 0
-0.1866 0.3011 -1.8179 -0.394 0.803 0.448 84 64 31 0 0
-0.1882 0.3044 -1.8382 -0.531 0.694 0.486 88 66 36 0 0
-0.2014 0.3325 -1.9317 -0.416 0.768 0.486 75 51 24 0 0
-0.2209 0.3741 -2.0985 -0.286 0.752 0.594 96 77 38 0 0
-0.2227 0.3779 -2.1012 -0.519 0.595 0.614 148 125 79 0 0
-0.2242 0.3812 -2.1043 -0.681 0.606 0.412 184 157 114 0 0
-0.2238 0.3803 -2.1173 -0.603 0.797 0.037 97 75 38 0 0
-0.2480 0.4317 -2.2107 -0.326 0.758 0.564 94 72 33 0 0
-0.2516 0.4394 -2.2218 -0.390 0.695 0.605 99 77 37 0 0
-0.2578 0.4525 -2.2401 -0.457 0.755 0.470 98 79 37 0 0
-0.2661 0.4702 -2.2477 -0.505 0.863 0.021 100 80 43 0 0
-0.2660 0.4699 -2.2541 -0.346 0.784 0.515 103 85 52 0 0
-0.2638 0.4653 -2.2711 -0.279 0.823 -0.495 145 140 132 0 0
-0.0826 0.0897 -0.9024 -0.417 0.780 0.467 119 102 76 0 0
-0.0835 0.0915 -0.9064 -0.585 0.619 0.525 145 121 89 0 0
-0.0879 0.1010 -0.9543 -0.564 0.679 0.471 62 44 21 0 0
-0.0873 0.0997 -0.9594 -0.492 0.716 0.495 66 49 25 0 0
-0.0887 0.1028 -0.9630 -0.474 0.749 0.463 67 47 23 0 0
-0.1018 0.1311 -1.2025 -0.331 0.821 0.465 104 84 57 0 0
-0.1027 0.1331 -1.2066 -0.231 0.885 0.405 103 87 58 0 0
-0.1034 0.1345 -1.2109 -0.280 0.912 0.299 117 103 73 0 0
-0.1133 0.1556 -1.2260 -0.239 0.776 0.584 138 113 80 0 0
-0.1015 0.1306 -1.2680 -0.444 0.877 -0.186 71 54 31 0 0
-0.0985 0.1243 -1.2914 -0.040 0.945 0.324 63 47 22 0 0
-0.0994 0.1263 -1.3058 -0.232 0.964 0.133 60 40 19 0 0
-0.0972 0.1217 -1.3287 -0.480 0.833 -0.276 68 48 21 0 0
-0.1003 0.1283 -1.3460 -0.636 0.280 0.719 179 148 90 0 0
-0.1022 0.1323 -1.3492 -0.636 0.280 0.719 172 141 86 0 0
-0.1037 0.1357 -1.3527 -0.223 0.849 0.479 163 130 77 0 0
-0.1109 0.1509 -1.3603 -0.315 0.483 0.817 139 118 89 0 0
-0.1225 0.1754 -1.3941 -0.400 0.854 0.332 117 98 65 0 0
-0.1375 0.2071 -1.4183 -0.406 0.664 0.628 164 134 79 0 0
-0.1394 0.2113 -1.4212 -0.440 0.830 0.343 164 131 78 0 0
-0.1401 0.2127 -1.4256 -0.440 0.830 0.343 173 141 91 0 0
-0.1413 0.2152 -1.4294 -0.416 0.784 0.460 164 133 91 0 0
-0.1420 0.2168 -1.4337 -0.471 0.804 0.363 112 85 47 0 0
-0.1428 0.2184 -1.4380 -0.467 0.792 0.394 109 84 47 0 0
-0.1438 0.2206 -1.4420 -0.462 0.681 0.567 117 94 54 0 0
-0.1769 0.2910 -1.6002 -0.265 0.289 0.920 153 128 83 0 0
-0.1799 0.2976 -1.7044 -0.590 0.773 0.233 104 83 44 0 0
-0.1808 0.2995 -1.7141 -0.617 0.703 0.353 117 93 52 0 0
-0.1763 0.2901 -1.7596 -0.454 0.882 -0.125 110 87 46 0 0
-0.1789 0.2958 -1.8062 -0.740 0.581 0.339 88 68 37 0 0
-0.1915 0.3227 -1.9121 -0.383 0.914 0.134 84 61 30 0 0
-0.2176 0.3784 -2.0725 -0.723 0.619 0.307 83 59 29 0 0
-0.2172 0.3776 -2.0973 -0.532 0.543 0.649 113 91 49 0 0
-0.2210 0.3856 -2.1023 -0.772 0.516 0.371 197 167 119 0 0
-0.2206 0.3849 -2.1150 -0.724 0.686 0.073 100 77 38 0 0
-0.2536 0.4549 -2.2398 -0.457 0.755 0.470 99 80 39 0 0
-0.2674 0.4841 -2.2360 -0.415 0.904 -0.102 100 79 42 0 0
-0.0793 0.0932 -0.9019 -0.342 0.883 0.321 115 98 74 0 0
-0.0818 0.0983 -0.9048 -0.207 0.780 0.591 149 124 93 0 0
-0.0829 0.1009 -0.9085 -0.207 0.780 0.591 164 135 97 0 0
-0.0822 0.0995 -0.9461 -0.522 0.825 0.217 81 59 36 0 0
-0.0845 0.1043 -0.9537 -0.541 0.753 0.375 63 44 22 0 0
-0.0839 0.1031 -0.9589 -0.243 0.898 0.366 67 49 24 0 0
-0.0846 0.1046 -0.9630 -0.243 0.898 0.366 69 49 25 0 0
-0.0974 0.1326 -1.2027 -0.536 0.741 0.405 127 106 67 0 0
-0.1000 0.1382 -1.2101 -0.404 0.898 0.176 109 91 50 0 0
-0.0973 0.1326 -1.2680 -0.447 0.877 -0.174 83 65 41 0 0
-0.1166 0.1738 -1.3856 -0.409 0.778 0.477 129 105 68 0 0
-0.1221 0.1856 -1.4001 -0.561 0.750 0.352 158 134 100 0 0
-0.1309 0.2041 -1.4107 -0.248 0.522 0.816 198 166 117 0 0
-0.1337 0.2101 -1.4178 -0.497 0.791 0.358 132 106 57 0 0
-0.1355 0.2138 -1.4261 -0.428 0.811 0.398 173 142 92 0 0
-0.1380 0.2191 -1.4335 -0.478 0.821 0.312 98 71 34 0 0
-0.1387 0.2207 -1.4379 -0.462 0.681 0.567 120 95 58 0 0
-0.1399 0.2231 -1.4417 -0.488 0.669 0.561 118 95 59 0 0
-0.1484 0.2413 -1.4782 -0.752 0.626 0.205 87 66 32 0 0
-0.1501 0.2451 -1.5447 -0.527 0.671 0.522 89 64 30 0 0
-0.1683 0.2837 -1.5900 -0.669 0.363 0.649 163 144 99 0 0
-0.1716 0.2906 -1.5963 -0.372 0.553 0.745 169 146 100 0 0
-0.1731 0.2939 -1.5995 -0.234 0.397 0.888 174 150 101 0 0
-0.1763 0.3011 -1.7144 -0.554 0.787 0.270 112 89 47 0 0
-0.1770 0.3025 -1.7190 -0.252 0.851 0.462 113 87 48 0 0
-0.1759 0.3006 -1.8042 -0.118 0.971 0.208 98 77 48 0 0
-0.1768 0.3025 -1.8199 -0.340 0.757 0.558 78 58 25 0 0
-0.1779 0.3049 -1.8238 -0.340 0.757 0.558 81 60 30 0 0
-0.1857 0.3216 -1.8741 -0.278 0.939 0.201 85 62 31 0 0
-0.1887 0.3281 -1.9211 -0.293 0.842 0.452 87 64 33 0 0
-0.1953 0.3422 -1.9741 -0.490 0.740 0.461 84 62 33 0 0
-0.1970 0.3458 -1.9829 -0.459 0.786 0.413 79 55 26 0 0
-0.2019 0.3564 -2.0334 -0.435 0.840 0.326 93 72 40 0 0
-0.2026 0.3578 -2.0381 -0.435 0.840 0.326 97 74 29 0 0
-0.2132 0.3805 -2.0966 -0.607 0.677 0.418 115 93 49 0 0
-0.2159 0.3863 -2.1035 -0.491 0.657 0.572 189 161 109 0 0
-0.2172 0.3889 -2.1072 -0.460 0.646 0.610 164 139 95 0 0
-0.2293 0.4148 -2.1873 -0.175 0.879 0.444 93 71 34 0 0
-0.2462 0.4505 -2.2275 -0.466 0.762 0.449 103 81 45 0 0
-0.2594 0.4786 -2.2559 -0.268 0.963 0.016 106 90 71 0 0
-0.0782 0.1016 -0.9460 -0.221 0.911 0.349 81 61 35 0 0
-0.0795 0.1044 -0.9591 -0.243 0.898 0.366 73 53 31 0 0
-0.0407 0.0238 -1.1257 0.694 0.574 0.434 185 185 189 0 0
-0.0949 0.1380 -1.2111 -0.304 0.857 0.416 142 118 77 0 0
-0.0959 0.1403 -1.2150 -0.296 0.775 0.558 129 105 60 0 0
-0.0915 0.1315 -1.3052 -0.293 0.835 0.466 73 53 29 0 0
-0.0924 0.1335 -1.3094 -0.293 0.835 0.466 69 49 25 0 0
-0.1175 0.1867 -1.3953 -0.561 0.750 0.352 186 155 107 0 0
-0.1183 0.1883 -1.3997 -0.561 0.750 0.352 171 143 95 0 0
-0.1270 0.2066 -1.4104 -0.476 0.623 0.621 177 147 97 0 0
-0.1279 0.2087 -1.4145 -0.634 0.618 0.466 154 124 76 0 0
-0.1298 0.2127 -1.4226 -0.510 0.805 0.302 148 117 70 0 0
-0.1315 0.2163 -1.4258 -0.471 0.668 0.576 165 137 89 0 0
-0.1389 0.2320 -1.4482 -0.417 0.837 0.354 99 75 47 0 0
-0.1405 0.2354 -1.4567 -0.394 0.866 0.306 96 72 36 0 0
-0.1464 0.2478 -1.4756 -0.470 0.628 0.620 86 63 29 0 0
-0.1447 0.2447 -1.5462 0.159 0.971 0.178 80 55 23 0 0
-0.1662 0.2900 -1.5873 -0.839 0.469 0.277 160 139 88 0 0
-0.1660 0.2897 -1.5928 -0.551 0.644 0.531 175 154 106 0 0
-0.1675 0.2929 -1.5961 -0.577 0.697 0.425 160 135 89 0 0
-0.1687 0.2953 -1.5999 -0.278 0.617 0.737 158 131 84 0 0
-0.1726 0.3043 -1.7247 -0.546 0.824 0.151 109 86 45 0 0
-0.1731 0.3058 -1.8189 -0.142 0.869 0.473 75 55 22 0 0
-0.1794 0.3192 -1.8374 -0.510 0.773 0.377 87 64 32 0 0
-0.1829 0.3268 -1.8889 -0.266 0.891 0.367 80 56 28 0 0
-0.1928 0.3482 -1.9826 -0.459 0.786 0.413 84 60 32 0 0
-0.1930 0.3486 -2.0000 -0.321 0.879 0.352 76 52 26 0 0
-0.2107 0.3865 -2.0992 -0.474 0.821 0.319 171 145 94 0 0
-0.2113 0.3877 -2.1041 -0.407 0.897 0.171 198 169 120 0 0
-0.2122 0.3898 -2.1083 -0.484 0.865 0.129 167 140 94 0 0
-0.2148 0.3952 -2.1095 -0.610 0.625 0.487 102 77 37 0 0
-0.2210 0.4084 -2.1523 -0.792 0.572 0.212 82 59 25 0 0
-0.2248 0.4166 -2.1815 -0.512 0.791 0.335 91 69 31 0 0
-0.2248 0.4167 -2.1875 -0.320 0.830 0.458 95 73 34 0 0
-0.0763 0.1085 -1.0101 -0.818 -0.354 0.453 181 182 186 0 0
-0.0371 0.0272 -1.1352 0.681 0.600 0.420 187 187 190 0 0
-0.0905 0.1397 -1.2112 -0.296 0.775 0.558 109 87 44 0 0
-0.0916 0.1420 -1.2151 -0.244 0.751 0.613 162 136 95 0 0
-0.1048 0.1698 -1.2320 -0.446 0.525 0.725 122 99 58 0 0
-0.1131 0.1883 -1.3955 -0.221 0.841 0.493 185 157 106 0 0
-0.1148 0.1918 -1.3988 -0.449 0.834 0.321 189 163 110 0 0
-0.1266 0.2168 -1.4266 -0.340 0.800 0.494 176 148 97 0 0
-0.1276 0.2189 -1.4307 -0.340 0.800 0.494 178 150 106 0 0
-0.1351 0.2346 -1.4478 -0.233 0.870 0.436 107 85 49 0 0
-0.1373 0.2393 -1.4556 -0.403 0.787 0.466 86 63 29 0 0
-0.1382 0.2412 -1.4597 -0.403 0.787 0.466 97 74 37 0 0
-0.1388 0.2425 -1.4641 -0.463 0.767 0.444 92 72 34 0 0
-0.1615 0.2909 -1.5879 -0.426 0.841 0.334 147 124 73 0 0
-0.1614 0.2909 -1.5933 -0.213 0.784 0.583 163 138 89 0 0
-0.1626 0.2933 -1.5971 -0.142 0.827 0.544 164 139 96 0 0
-0.1639 0.2961 -1.6007 -0.199 0.777 0.598 159 134 86 0 0
-0.1660 0.3006 -1.6032 0.062 0.459 0.886 161 133 86 0 0
-0.1802 0.3303 -1.5998 -0.013 0.387 0.922 139 112 65 0 0
-0.1832 0.3366 -1.6063 -0.079 0.730 0.679 141 115 74 0 0
-0.1856 0.3418 -1.6242 -0.678 0.695 0.240 123 99 61 0 0
-0.1862 0.3429 -1.6288 -0.543 0.716 0.438 96 71 38 0 0
-0.1876 0.3458 -1.6322 -0.513 0.675 0.530 118 94 59 0 0
-0.1673 0.3042 -1.7372 -0.464 0.786 0.408 108 85 44 0 0
-0.1686 0.3069 -1.7409 -0.387 0.859 0.336 105 82 42 0 0
-0.1698 0.3100 -1.8230 -0.287 0.855 0.431 83 62 32 0 0
-0.1760 0.3233 -1.8702 -0.248 0.955 0.161 85 63 31 0 0
-0.1783 0.3284 -1.8893 -0.266 0.891 0.367 76 52 24 0 0
-0.1833 0.3392 -1.9505 -0.591 0.722 0.361 76 52 24 0 0
-0.1894 0.3523 -1.9810 -0.580 0.632 0.515 84 60 32 0 0
-0.1890 0.3516 -1.9993 -0.300 0.902 0.310 75 51 25 0 0
-0.2105 0.3975 -2.1276 -0.547 0.822 0.158 82 59 25 0 0
-0.2200 0.4178 -2.1823 -0.516 0.738 0.436 97 75 36 0 0
-0.2282 0.4351 -2.2153 -0.371 0.732 0.571 94 72 31 0 0
-0.0322 0.0281 -1.1457 0.702 0.582 0.410 186 186 191 0 0
-0.1005 0.1712 -1.2323 -0.316 0.698 0.642 121 96 53 0 0
-0.1216 0.2170 -1.4224 -0.300 0.870 0.391 167 138 83 0 0
-0.1233 0.2207 -1.4308 -0.340 0.800 0.494 166 135 90 0 0
-0.1584 0.2953 -1.5971 -0.110 0.954 0.279 140 111 74 0 0
-0.1673 0.3140 -1.6011 -0.307 0.209 0.928 164 133 88 0 0
-0.1769 0.3340 -1.6040 -0.218 0.637 0.740 156 130 83 0 0
-0.1866 0.3545 -1.6383 -0.551 0.821 0.149 98 74 45 0 0
-0.1637 0.3074 -1.7142 -0.488 0.842 0.232 92 68 33 0 0
-0.1642 0.3084 -1.7190 -0.488 0.842 0.232 110 86 48 0 0
-0.1646 0.3094 -1.7239 -0.488 0.842 0.232 110 87 46 0 0
-0.1634 0.3069 -1.7367 -0.430 0.773 0.466 112 89 48 0 0
-0.1641 0.3090 -1.8025 -0.586 0.481 0.652 110 90 59 0 0
-0.1650 0.3111 -1.8351 -0.335 0.713 0.616 91 68 37 0 0
-0.1719 0.3260 -1.8754 -0.278 0.939 0.201 86 63 32 0 0
-0.1724 0.3270 -1.8804 -0.304 0.913 0.272 88 65 35 0 0
-0.1738 0.3300 -1.8896 -0.191 0.896 0.400 75 51 23 0 0
-0.1750 0.3328 -1.9222 -0.526 0.807 0.267 82 59 28 0 0
-0.1846 0.3536 -2.0052 -0.084 0.811 0.579 75 51 23 0 0
-0.1887 0.3622 -2.0099 -0.026 0.968 0.249 80 56 27 0 0
-0.2180 0.4242 -2.1235 -0.436 0.420 0.796 83 60 26 0 0
-0.2171 0.4225 -2.1493 -0.050 0.986 0.157 84 62 25 0 0
-0.2165 0.4215 -2.1563 -0.403 0.894 -0.195 84 62 25 0 0
-0.2160 0.4206 -2.1877 -0.572 0.765 0.296 96 74 35 0 0
-0.0654 0.1056 -0.9094 -0.155 0.780 0.606 118 92 64 0 0
-0.0666 0.1082 -0.9132 -0.155 0.780 0.606 82 61 33 0 0
-0.0967 0.1739 -1.2319 -0.494 0.689 0.530 99 73 32 0 0
-0.0846 0.1494 -1.2942 -0.546 0.752 0.368 63 42 22 0 0
-0.0863 0.1530 -1.2975 -0.458 0.648 0.609 66 45 26 0 0
-0.0968 0.1757 -1.3733 -0.376 0.843 0.385 108 84 51 0 0
-0.1191 0.2226 -1.4308 -0.340 0.800 0.494 176 146 101 0 0
-0.1564 0.3029 -1.7022 -0.740 0.583 0.335 115 94 60 0 0
-0.1570 0.3041 -1.7068 -0.754 0.530 0.388 92 71 41 0 0
-0.1594 0.3093 -1.7143 -0.555 0.803 0.217 74 51 18 0 0
-0.1601 0.3107 -1.7188 -0.488 0.842 0.232 98 75 39 0 0
-0.1605 0.3118 -1.7236 -0.470 0.865 0.175 108 85 46 0 0
-0.1651 0.3221 -1.8001 0.042 0.944 0.328 92 72 44 0 0
-0.1624 0.3166 -1.8098 -0.422 0.774 0.472 75 54 25 0 0
-0.1674 0.3277 -1.8757 -0.342 0.906 0.247 87 64 33 0 0
-0.1678 0.3286 -1.8808 -0.304 0.913 0.272 83 60 29 0 0
-0.1680 0.3290 -1.8862 -0.202 0.926 0.318 84 60 31 0 0
-0.1737 0.3413 -1.9345 -0.457 0.825 0.332 75 51 24 0 0
-0.1795 0.3540 -1.9889 -0.343 0.792 0.505 79 55 27 0 0
-0.1836 0.3626 -2.0113 -0.026 0.968 0.249 81 57 26 0 0
-0.1827 0.3611 -2.0364 -0.590 0.730 0.344 94 75 42 0 0
-0.1925 0.3816 -2.0667 -0.381 0.623 0.683 82 59 28 0 0
-0.0629 0.1109 -0.9175 -0.304 0.804 0.512 83 62 33 0 0
-0.0608 0.1068 -0.9469 -0.352 0.936 -0.002 71 51 27 0 0
-0.0500 0.0872 -1.1774 0.001 0.781 0.625 72 57 24 0 0
-0.0803 0.1513 -1.3044 -0.480 0.868 0.128 66 45 26 0 0
-0.0921 0.1766 -1.3687 -0.634 0.666 0.393 136 115 79 0 0
-0.0930 0.1786 -1.3728 -0.475 0.790 0.388 118 90 55 0 0
-0.1101 0.2143 -1.4105 -0.284 0.775 0.565 205 178 123 0 0
-0.1757 0.3527 -1.6155 -0.346 0.888 0.304 214 191 150 0 0
-0.1753 0.3519 -1.6267 -0.295 0.775 0.559 73 49 18 0 0
-0.1548 0.3105 -1.7093 -0.697 0.660 0.280 71 50 20 0 0
-0.1554 0.3119 -1.7139 -0.555 0.803 0.217 82 61 30 0 0
-0.1560 0.3130 -1.7186 -0.488 0.842 0.232 77 57 24 0 0
-0.1564 0.3141 -1.7234 -0.464 0.854 0.235 101 79 43 0 0
-0.1567 0.3148 -1.7285 -0.470 0.865 0.175 113 90 53 0 0
-0.1577 0.3180 -1.8273 -0.027 0.859 0.511 95 72 39 0 0
-0.1597 0.3222 -1.8299 -0.209 0.778 0.592 93 70 38 0 0
-0.1625 0.3281 -1.8369 -0.257 0.804 0.535 84 60 31 0 0
-0.1634 0.3304 -1.8867 -0.296 0.943 0.154 84 61 30 0 0
-0.1897 0.3872 -2.0697 -0.677 0.664 0.316 82 59 28 0 0
-0.2062 0.4223 -2.1533 -0.259 0.931 0.256 85 63 26 0 0
-0.2075 0.4249 -2.1570 -0.632 0.752 0.186 88 66 29 0 0
-0.0447 0.0870 -1.1784 -0.300 0.671 0.678 67 51 21 0 0
-0.0471 0.0920 -1.1812 -0.115 0.605 0.788 72 57 19 0 0
-0.0659 0.1310 -1.2038 -0.266 0.887 0.377 113 93 48 0 0
-0.0782 0.1566 -1.2169 0.021 0.740 0.672 108 86 37 0 0
-0.0885 0.1781 -1.2318 -0.398 0.596 0.697 86 62 25 0 0
-0.0895 0.1803 -1.2357 -0.424 0.736 0.528 118 97 59 0 0
-0.0747 0.1501 -1.2703 -0.180 0.612 0.770 72 55 29 0 0
-0.0760 0.1529 -1.2740 -0.768 0.601 0.222 74 57 28 0 0
-0.0752 0.1513 -1.2850 -0.685 0.663 0.300 56 36 15 0 0
-0.0882 0.1793 -1.3683 -0.475 0.790 0.388 139 114 78 0 0
-0.0942 0.1918 -1.3772 -0.283 0.924 0.257 121 96 64 0 0
-0.1027 0.2098 -1.4037 -0.229 0.736 0.637 201 173 125 0 0
-0.1081 0.2212 -1.4234 -0.500 0.732 0.463 183 152 95 0 0
-0.1091 0.2232 -1.4275 -0.426 0.867 0.260 178 151 95 0 0
-0.1143 0.2341 -1.4421 -0.316 0.782 0.537 105 82 48 0 0
-0.1618 0.3344 -1.6022 -0.077 0.455 0.887 177 151 102 0 0
-0.1497 0.3107 -1.6995 -0.672 0.636 0.379 98 77 42 0 0
-0.1507 0.3128 -1.7037 -0.573 0.777 0.260 103 85 52 0 0
-0.1515 0.3145 -1.7190 -0.455 0.875 0.166 80 60 29 0 0
-0.1552 0.3237 -1.8303 -0.611 0.741 0.279 99 76 44 0 0
-0.1661 0.3476 -1.9386 -0.616 0.705 0.351 76 52 26 0 0
-0.1739 0.3647 -2.0130 -0.385 0.875 0.292 82 59 28 0 0
-0.1795 0.3763 -2.0152 -0.218 0.856 0.468 79 56 25 0 0
-0.1821 0.3816 -2.0166 0.111 0.863 0.494 81 60 28 0 0
-0.1801 0.3779 -2.0436 0.160 0.721 0.674 174 145 94 0 0
-0.1826 0.3832 -2.0450 0.270 0.902 0.338 99 75 36 0 0
-0.1933 0.4062 -2.1272 -0.886 0.456 0.091 83 60 26 0 0
-0.2035 0.4277 -2.1442 -0.565 0.711 0.418 84 61 27 0 0
-0.2027 0.4260 -2.1518 -0.657 0.701 0.277 85 63 26 0 0
-0.2248 0.4729 -2.2488 -0.529 0.694 0.488 93 74 32 0 0
-0.0480 0.1002 -0.8947 -0.034 0.998 0.055 118 101 74 0 0
-0.0414 0.0910 -1.1825 -0.205 0.706 0.678 47 31 8 0 0
-0.0431 0.0946 -1.1859 -0.306 0.752 0.584 83 65 26 0 0
-0.0612 0.1320 -1.2042 -0.601 0.696 0.392 112 92 46 0 0
-0.0620 0.1336 -1.2085 -0.272 0.545 0.793 117 95 50 0 0
-0.0723 0.1556 -1.2534 -0.708 0.611 0.355 70 49 18 0 0
-0.0719 0.1551 -1.2841 -0.685 0.622 0.379 63 45 23 0 0
-0.1037 0.2227 -1.4237 -0.412 0.829 0.378 147 114 69 0 0
-0.1045 0.2245 -1.4279 -0.362 0.857 0.368 149 121 71 0 0
-0.1254 0.2680 -1.4707 0.066 0.773 0.631 84 59 26 0 0
-0.1299 0.2786 -1.5593 -0.391 0.864 0.317 61 43 22 0 0
-0.1336 0.2866 -1.5810 -0.658 0.728 0.192 76 61 35 0 0
-0.1344 0.2882 -1.5853 -0.453 0.835 0.313 65 48 22 0 0
-0.1392 0.2982 -1.5897 -0.513 0.758 0.404 144 124 84 0 0
-0.1679 0.3578 -1.6307 -0.292 0.601 0.744 98 76 45 0 0
-0.1469 0.3155 -1.6976 -0.398 0.857 -0.327 114 93 58 0 0
-0.1467 0.3155 -1.7142 -0.362 0.929 0.079 79 60 28 0 0
-0.1459 0.3142 -1.7485 -0.557 0.811 0.182 104 81 43 0 0
-0.1493 0.3220 -1.7990 -0.077 0.985 0.152 115 94 61 0 0
-0.1498 0.3237 -1.8490 -0.182 0.890 0.417 81 58 26 0 0
-0.1620 0.3503 -1.9382 -0.494 0.761 0.420 77 53 27 0 0
-0.1679 0.3631 -1.9923 -0.531 0.713 0.458 78 54 26 0 0
-0.1749 0.3780 -2.0155 -0.335 0.910 0.245 81 58 27 0 0
-0.1752 0.3789 -2.0385 -0.177 0.982 0.068 121 93 42 0 0
-0.1746 0.3776 -2.0456 -0.045 0.827 0.561 162 133 82 0 0
-0.1993 0.4305 -2.1741 -0.332 0.894 0.301 86 63 28 0 0
-0.2181 0.4700 -2.2289 -0.211 0.729 0.651 95 77 32 0 0
-0.2196 0.4730 -2.2321 -0.252 0.649 0.718 94 75 32 0 0
-0.0385 0.0957 -1.1863 -0.196 0.616 0.763 67 50 20 0 0
-0.0445 0.1082 -1.1958 -0.144 0.597 0.789 112 95 43 0 0
-0.0665 0.1551 -1.3055 -0.058 0.967 0.247 64 43 24 0 0
-0.0977 0.2209 -1.4153 -0.321 0.721 0.614 189 158 110 0 0
-0.1134 0.2538 -1.4645 -0.301 0.824 0.480 103 81 41 0 0
-0.1230 0.2744 -1.5153 -0.401 0.808 0.432 76 50 22 0 0
-0.1222 0.2731 -1.5373 -0.300 0.940 0.162 73 46 14 0 0
-0.1293 0.2875 -1.5390 -0.402 0.856 0.325 221 196 143 0 0
-0.1353 0.3007 -1.5893 -0.513 0.758 0.404 118 97 61 0 0
-0.1433 0.3187 -1.6913 -0.761 0.596 -0.254 104 81 43 0 0
-0.1421 0.3164 -1.6984 -0.587 0.809 -0.027 89 69 36 0 0
-0.1429 0.3182 -1.7026 -0.541 0.658 0.523 94 76 48 0 0
-0.1424 0.3176 -1.7363 -0.545 0.811 0.212 99 76 42 0 0
-0.1458 0.3265 -1.8484 -0.264 0.789 0.555 80 57 25 0 0
-0.1510 0.3380 -1.9030 -0.630 0.633 0.449 82 61 29 0 0
-0.1519 0.3400 -1.9130 -0.448 0.820 0.356 83 60 29 0 0
-0.1531 0.3425 -1.9168 -0.490 0.845 0.214 86 63 32 0 0
-0.1607 0.3592 -1.9796 -0.268 0.890 0.370 83 60 29 0 0
-0.1618 0.3615 -1.9836 -0.355 0.904 0.239 80 57 26 0 0
-0.1624 0.3628 -1.9884 -0.328 0.797 0.507 82 59 28 0 0
-0.1635 0.3650 -1.9925 -0.328 0.797 0.507 81 58 29 0 0
-0.1699 0.3786 -2.0108 -0.150 0.910 0.387 83 59 29 0 0
-0.1702 0.3792 -2.0162 0.176 0.913 0.369 83 60 29 0 0
-0.1693 0.3778 -2.0472 0.076 0.918 0.388 147 122 70 0 0
-0.1751 0.3901 -2.0726 -0.349 0.859 0.375 86 63 31 0 0
-0.1942 0.4309 -2.1756 -0.603 0.719 0.345 88 64 28 0 0
-0.0400 0.1096 -1.1961 -0.144 0.597 0.789 124 103 53 0 0
-0.0621 0.1559 -1.2603 -0.507 0.847 0.157 63 43 18 0 0
-0.1041 0.2452 -1.4549 -0.533 0.685 0.497 89 65 29 0 0
-0.1213 0.2821 -1.5542 -0.546 0.792 0.273 122 97 52 0 0
-0.1251 0.2903 -1.5812 -0.414 0.829 0.376 70 53 29 0 0
-0.1257 0.2916 -1.5857 -0.255 0.838 0.483 61 42 23 0 0
-0.1292 0.2989 -1.5864 -0.457 0.875 0.161 71 55 30 0 0
-0.1297 0.3000 -1.5911 -0.452 0.827 0.334 117 94 60 0 0
-0.1607 0.3641 -1.6398 -0.522 0.848 -0.093 95 72 38 0 0
-0.1384 0.3203 -1.7414 -0.368 0.925 0.090 97 74 38 0 0
-0.1462 0.3385 -1.8695 -0.397 0.855 0.333 94 71 39 0 0
-0.1472 0.3407 -1.8735 -0.300 0.823 0.482 91 68 36 0 0
-0.1483 0.3438 -1.9233 -0.208 0.855 0.475 85 62 31 0 0
-0.1599 0.3687 -1.9912 -0.501 0.754 0.423 83 59 30 0 0
-0.2161 0.4884 -2.2646 -0.644 0.763 0.052 99 88 64 0 0
-0.0308 0.0957 -0.8934 0.040 0.845 0.533 107 91 68 0 0
-0.0319 0.0981 -0.8972 0.040 0.845 0.533 104 88 63 0 0
-0.0240 0.0874 -1.1816 -0.203 0.739 0.642 111 95 67 0 0
-0.0363 0.1127 -1.1956 -0.277 0.466 0.840 91 69 26 0 0
-0.0581 0.1583 -1.2600 -0.342 0.936 -0.087 65 45 18 0 0
-0.0754 0.1959 -1.3792 -0.264 0.894 0.362 108 80 46 0 0
-0.0892 0.2246 -1.4155 -0.398 0.702 0.590 166 137 89 0 0
-0.1004 0.2481 -1.4491 -0.350 0.832 0.431 89 69 31 0 0
-0.1179 0.2861 -1.5744 0.015 0.828 0.561 110 86 49 0 0
-0.1186 0.2876 -1.5788 -0.196 0.832 0.519 131 113 78 0 0
-0.1222 0.2952 -1.5900 -0.255 0.838 0.483 68 52 29 0 0
-0.1428 0.3388 -1.6802 -0.311 0.704 -0.638 107 86 48 0 0
-0.1427 0.3427 -1.8909 -0.264 0.815 0.516 85 61 29 0 0
-0.2007 0.4673 -2.2314 -0.440 0.845 0.305 74 54 23 0 0
-0.0324 0.1100 -0.9310 -0.435 0.864 0.255 75 54 30 0 0
-0.0330 0.1112 -0.9353 -0.562 0.763 0.319 76 56 31 0 0
-0.0329 0.1115 -0.9586 -0.089 0.873 0.480 64 45 25 0 0
-0.0321 0.1148 -1.1955 -0.598 0.415 0.685 87 68 31 0 0
-0.0333 0.1173 -1.2044 -0.053 0.557 0.829 97 78 31 0 0
-0.0506 0.1549 -1.3240 0.149 0.988 -0.029 51 34 15 0 0
-0.0506 0.1550 -1.3291 0.136 0.990 0.023 57 35 13 0 0
-0.0671 0.1891 -1.3632 -0.182 0.745 0.641 119 98 69 0 0
-0.0679 0.1910 -1.3674 -0.472 0.721 0.508 125 106 66 0 0
-0.0702 0.1958 -1.3752 -0.307 0.882 0.357 81 57 18 0 0
-0.0709 0.1973 -1.3795 -0.307 0.882 0.357 106 82 45 0 0
-0.0869 0.2305 -1.4185 -0.086 0.830 0.551 153 124 80 0 0
-0.0898 0.2367 -1.4306 -0.524 0.808 0.268 81 56 23 0 0
-0.0961 0.2499 -1.4492 -0.350 0.832 0.431 90 69 32 0 0
-0.1059 0.2702 -1.4740 -0.653 0.549 0.521 83 60 25 0 0
-0.1099 0.2794 -1.5265 -0.792 0.341 0.506 73 46 19 0 0
-0.1188 0.2987 -1.5891 -0.298 0.897 0.326 71 55 35 0 0
-0.1459 0.3608 -1.9363 -0.280 0.844 0.458 79 56 26 0 0
-0.1472 0.3642 -1.9688 -0.434 0.635 0.639 89 66 35 0 0
-0.1513 0.3731 -2.0028 -0.268 0.789 0.553 76 52 24 0 0
-0.1615 0.3944 -2.0205 -0.086 0.655 0.751 95 76 39 0 0
-0.1930 0.4621 -2.2075 -0.390 0.662 0.640 93 70 32 0 0
-0.1943 0.4648 -2.2111 -0.390 0.662 0.640 87 65 27 0 0
-0.1956 0.4675 -2.2208 -0.286 0.829 0.480 72 51 24 0 0
-0.1965 0.4696 -2.2250 -0.286 0.829 0.480 69 47 25 0 0
-0.1971 0.4709 -2.2361 -0.440 0.845 0.305 87 68 27 0 0
-0.0282 0.1116 -0.9311 -0.369 0.774 0.514 76 56 31 0 0
-0.0327 0.1209 -0.9372 -0.519 0.516 0.682 70 50 26 0 0
-0.0331 0.1217 -0.9416 -0.308 0.686 0.659 71 51 27 0 0
-0.0308 0.1176 -0.9665 -0.509 0.341 0.790 72 50 28 0 0
-0.0340 0.1241 -0.9688 -0.634 0.627 0.452 70 51 28 0 0
-0.0269 0.1148 -1.1964 -0.424 0.527 0.737 79 63 24 0 0
-0.0286 0.1184 -1.2048 -0.302 0.581 0.756 93 75 31 0 0
-0.0374 0.1365 -1.2167 0.012 0.854 0.521 119 99 46 0 0
-0.0458 0.1551 -1.2941 -0.440 0.866 0.237 49 30 16 0 0
-0.0463 0.1562 -1.2987 -0.235 0.915 0.327 39 22 8 0 0
-0.0464 0.1566 -1.3036 -0.364 0.903 0.227 56 38 18 0 0
-0.0465 0.1569 -1.3086 -0.375 0.915 0.148 71 54 28 0 0
-0.0477 0.1596 -1.3175 0.202 0.914 0.352 54 37 18 0 0
-0.0638 0.1932 -1.3672 -0.235 0.834 0.499 104 87 49 0 0
-0.0656 0.1970 -1.3756 -0.317 0.854 0.411 88 65 27 0 0
-0.0664 0.1988 -1.3798 -0.264 0.894 0.362 100 78 43 0 0
-0.0995 0.2683 -1.5026 -0.596 0.756 0.271 233 203 151 0 0
-0.1053 0.2805 -1.5270 -0.099 0.714 0.694 65 39 12 0 0
-0.1120 0.2949 -1.5606 -0.144 0.883 0.446 72 47 25 0 0
-0.1148 0.3011 -1.5888 -0.473 0.798 0.375 68 53 34 0 0
-0.1513 0.3759 -1.6251 -0.209 0.764 0.610 70 49 22 0 0
-0.1249 0.3244 -1.7150 -0.392 0.827 0.404 82 63 31 0 0
-0.1253 0.3254 -1.7199 -0.537 0.691 0.484 82 64 28 0 0
-0.1314 0.3403 -1.8384 -0.204 0.963 0.178 83 62 31 0 0
-0.1312 0.3403 -1.8556 -0.355 0.930 0.097 94 71 37 0 0
-0.1335 0.3459 -1.8975 -0.330 0.869 0.369 86 63 31 0 0
-0.1351 0.3491 -1.9007 -0.459 0.679 0.574 88 65 33 0 0
-0.1538 0.3908 -2.0732 -0.093 0.953 0.287 83 58 27 0 0
-0.1869 0.4605 -2.2048 -0.103 0.796 0.597 91 69 32 0 0
-0.1890 0.4650 -2.2129 -0.276 0.690 0.669 83 61 25 0 0
-0.1913 0.4697 -2.2207 -0.401 0.777 0.486 68 49 22 0 0
-0.1999 0.4876 -2.2405 -0.583 0.744 0.327 90 72 23 0 0
-0.0143 0.0929 -0.8916 0.096 0.973 0.209 112 101 86 0 0
-0.0164 0.0974 -0.9040 -0.057 0.748 0.661 175 148 111 0 0
-0.0288 0.1232 -0.9417 -0.423 0.718 0.553 73 53 29 0 0
-0.0275 0.1211 -0.9659 -0.509 0.341 0.790 75 54 30 0 0
-0.0304 0.1271 -0.9684 -0.804 0.564 0.188 72 54 31 0 0
-0.0126 0.0963 -1.1904 -0.034 0.871 0.489 63 45 21 0 0
-0.0137 0.0985 -1.1945 -0.034 0.871 0.489 69 53 21 0 0
-0.0238 0.1191 -1.2004 -0.623 0.458 0.634 80 65 25 0 0
-0.0346 0.1413 -1.2204 0.079 0.806 0.587 114 94 44 0 0
-0.0434 0.1616 -1.3278 0.320 0.839 0.440 61 38 11 0 0
-0.0421 0.1593 -1.3445 -0.666 0.745 0.040 178 147 82 0 0
-0.0613 0.1987 -1.3757 -0.317 0.854 0.411 92 71 31 0 0
-0.0623 0.2009 -1.3797 -0.368 0.869 0.330 106 82 47 0 0
-0.0812 0.2403 -1.4308 -0.463 0.740 0.488 108 83 48 0 0
-0.0975 0.2740 -1.4689 0.236 0.780 0.580 76 52 19 0 0
-0.1081 0.2973 -1.5550 -0.508 0.830 0.232 69 44 22 0 0
-0.1217 0.3259 -1.6008 -0.100 0.409 0.907 163 137 93 0 0
-0.1216 0.3285 -1.7191 -0.420 0.803 0.422 86 66 32 0 0
-0.1216 0.3286 -1.7246 -0.487 0.615 0.620 85 64 32 0 0
-0.1199 0.3254 -1.7324 -0.420 0.855 0.304 80 57 28 0 0
-0.1205 0.3267 -1.7371 -0.448 0.832 0.329 85 62 29 0 0
-0.1168 0.3198 -1.7644 -0.548 0.696 0.464 97 75 38 0 0
-0.1184 0.3233 -1.7731 -0.462 0.745 0.480 55 36 10 0 0
-0.1194 0.3253 -1.7773 -0.462 0.745 0.480 54 35 11 0 0
-0.1268 0.3421 -1.8558 -0.272 0.933 0.237 95 72 38 0 0
-0.1287 0.3467 -1.8926 -0.400 0.826 0.397 92 69 37 0 0
-0.1321 0.3541 -1.9158 -0.487 0.744 0.457 88 65 34 0 0
-0.1330 0.3561 -1.9201 -0.487 0.744 0.457 84 60 32 0 0
-0.1821 0.4618 -2.2056 -0.103 0.796 0.597 91 69 32 0 0
-0.1832 0.4641 -2.2095 -0.189 0.718 0.670 93 70 34 0 0
-0.1858 0.4695 -2.2167 -0.307 0.871 0.384 76 57 25 0 0
-0.1870 0.4719 -2.2206 -0.401 0.777 0.486 68 49 22 0 0
-0.1885 0.4753 -2.2359 -0.440 0.845 0.305 89 70 28 0 0
-0.0112 0.0968 -0.8956 -0.592 0.435 0.678 109 90 69 0 0
-0.0129 0.1003 -0.8990 -0.667 0.637 0.387 135 111 83 0 0
-0.0189 0.1133 -0.9365 -0.010 0.821 0.571 72 52 28 0 0
-0.0236 0.1228 -0.9378 -0.342 0.754 0.561 74 54 30 0 0
-0.0245 0.1247 -0.9418 -0.102 0.874 0.474 73 53 29 0 0
-0.0219 0.1200 -0.9670 -0.508 0.625 0.593 78 58 33 0 0
-0.0231 0.1226 -0.9707 -0.451 0.885 -0.111 78 60 38 0 0
-0.0269 0.1362 -1.2136 -0.293 0.684 0.668 133 113 58 0 0
-0.0284 0.1392 -1.2173 -0.293 0.684 0.668 126 107 52 0 0
-0.0298 0.1422 -1.2209 -0.301 0.819 0.489 117 97 46 0 0
-0.0378 0.1601 -1.2987 -0.575 0.722 0.385 51 34 18 0 0
-0.0369 0.1592 -1.3301 -0.349 0.928 0.132 65 41 13 0 0
-0.0383 0.1624 -1.3491 -0.732 0.675 0.098 191 162 107 0 0
-0.0407 0.1674 -1.3518 -0.506 0.476 0.720 207 183 132 0 0
-0.0569 0.2004 -1.3759 -0.185 0.902 0.391 88 70 32 0 0
-0.0577 0.2021 -1.3801 -0.185 0.902 0.391 105 82 50 0 0
-0.0586 0.2042 -1.3842 -0.368 0.869 0.330 111 88 49 0 0
-0.0608 0.2087 -1.3922 -0.404 0.642 0.652 168 142 104 0 0
-0.0642 0.2157 -1.3987 -0.369 0.784 0.499 195 171 135 0 0
-0.0818 0.2521 -1.4409 -0.311 0.802 0.510 81 58 23 0 0
-0.0992 0.2893 -1.5293 -0.185 0.914 0.361 73 48 18 0 0
-0.0980 0.2870 -1.5361 -0.082 0.833 0.547 76 52 19 0 0
-0.1176 0.3281 -1.6007 -0.234 0.308 0.922 133 111 79 0 0
-0.1307 0.3545 -1.6100 -0.172 0.414 0.894 135 108 67 0 0
-0.1314 0.3575 -1.6673 -0.514 0.611 -0.602 103 84 51 0 0
-0.1134 0.3237 -1.7686 -0.457 0.738 0.496 93 73 40 0 0
-0.1141 0.3252 -1.7732 -0.594 0.687 0.418 54 36 11 0 0
-0.1191 0.3365 -1.8272 -0.198 0.720 0.665 87 63 35 0 0
-0.1234 0.3461 -1.8601 -0.378 0.904 0.200 96 73 41 0 0
-0.0079 0.1002 -0.8950 -0.583 0.618 0.527 106 89 66 0 0
-0.0090 0.1025 -0.8989 -0.583 0.618 0.527 137 113 83 0 0
-0.0097 0.1042 -0.9030 -0.718 0.615 0.325 186 160 120 0 0
-0.0101 0.1051 -0.9074 -0.649 0.704 0.287 151 126 85 0 0
-0.0105 0.1058 -0.9118 -0.599 0.786 0.151 113 90 54 0 0
-0.0193 0.1241 -0.9380 -0.258 0.791 0.554 74 53 31 0 0
-0.0146 0.1155 -0.9693 0.010 0.866 0.499 78 57 28 0 0
-0.0172 0.1208 -0.9721 -0.080 0.996 -0.033 79 60 38 0 0
-0.0226 0.1380 -1.2137 -0.259 0.732 0.630 133 113 55 0 0
-0.0239 0.1408 -1.2174 -0.415 0.699 0.582 124 104 50 0 0
-0.0260 0.1450 -1.2205 -0.547 0.675 0.496 116 95 47 0 0
-0.0271 0.1473 -1.2245 -0.559 0.667 0.493 139 120 63 0 0
-0.0411 0.1754 -1.2314 -0.277 0.754 0.595 125 101 67 0 0
-0.0422 0.1778 -1.2353 -0.313 0.876 0.366 144 120 83 0 0
-0.0424 0.1783 -1.2400 -0.175 0.898 0.403 118 94 56 0 0
-0.0370 0.1704 -1.3512 -0.506 0.476 0.720 171 144 92 0 0
-0.0529 0.2031 -1.3807 -0.241 0.904 0.352 114 94 64 0 0
-0.0541 0.2057 -1.3897 -0.394 0.752 0.529 143 116 77 0 0
-0.0952 0.2928 -1.5711 -0.584 0.719 0.376 81 57 26 0 0
-0.0960 0.2944 -1.5754 -0.584 0.719 0.376 137 113 78 0 0
-0.1009 0.3045 -1.5851 -0.223 0.762 0.608 49 33 15 0 0
-0.1158 0.3349 -1.6029 -0.550 0.258 0.794 115 89 59 0 0
-0.1265 0.3564 -1.6101 -0.172 0.414 0.894 131 106 73 0 0
-0.1293 0.3621 -1.6116 -0.394 0.539 0.745 154 130 93 0 0
-0.1330 0.3697 -1.6172 -0.281 0.555 0.783 184 161 117 0 0
-0.1283 0.3615 -1.6659 -0.514 0.611 -0.602 103 81 49 0 0
-0.1105 0.3280 -1.7446 -0.305 0.950 0.066 100 78 42 0 0
-0.1155 0.3402 -1.8317 -0.281 0.773 0.568 94 71 40 0 0
-0.1222 0.3553 -1.8949 -0.632 0.743 0.221 94 71 38 0 0
-0.1540 0.4246 -2.1153 -0.069 0.800 0.596 73 49 21 0 0
-0.1644 0.4471 -2.1742 -0.183 0.945 0.270 84 62 27 0 0
-0.1688 0.4563 -2.1901 -0.314 0.841 0.441 85 63 26 0 0
-0.1713 0.4616 -2.2035 -0.374 0.751 0.543 89 68 31 0 0
0.0103 0.0737 -0.8905 0.145 0.385 0.911 176 175 177 0 0
-0.0040 0.1025 -0.8949 -0.385 0.670 0.634 106 89 65 0 0
-0.0047 0.1041 -0.8990 -0.596 0.677 0.432 153 130 99 0 0
-0.0056 0.1059 -0.9031 -0.676 0.656 0.335 166 145 105 0 0
-0.0071 0.1100 -0.9390 -0.055 0.693 0.718 70 50 28 0 0
-0.0108 0.1180 -0.9644 -0.678 0.678 0.285 75 54 27 0 0
-0.0102 0.1170 -0.9695 -0.573 0.819 -0.034 79 56 26 0 0
-0.0232 0.1499 -1.2242 -0.169 0.894 0.414 131 112 55 0 0
-0.0354 0.1745 -1.2327 -0.123 0.827 0.549 133 110 74 0 0
-0.0363 0.1765 -1.2418 -0.215 0.929 0.301 103 79 43 0 0
-0.0317 0.1701 -1.3420 -0.478 0.866 0.146 179 147 87 0 0
-0.0330 0.1730 -1.3509 -0.450 0.830 0.329 169 138 92 0 0
-0.0344 0.1758 -1.3546 -0.199 0.721 0.664 133 107 69 0 0
-0.0499 0.2078 -1.3896 -0.394 0.752 0.529 128 99 61 0 0
-0.0596 0.2276 -1.4048 -0.470 0.647 0.600 194 163 112 0 0
-0.0611 0.2306 -1.4083 -0.313 0.712 0.629 205 174 118 0 0
-0.0735 0.2563 -1.4460 -0.310 0.759 0.573 98 74 41 0 0
-0.0847 0.2804 -1.5054 -0.247 0.830 0.499 138 112 75 0 0
-0.0904 0.2934 -1.5666 -0.370 0.854 0.366 65 43 17 0 0
-0.1111 0.3359 -1.6036 -0.222 0.335 0.916 126 100 66 0 0
-0.1226 0.3589 -1.6098 -0.139 0.518 0.844 147 122 94 0 0
-0.1256 0.3649 -1.6111 -0.520 0.398 0.756 132 108 73 0 0
-0.1323 0.3789 -1.6284 -0.571 0.727 0.382 69 47 22 0 0
-0.1111 0.3420 -1.8319 -0.281 0.773 0.568 90 67 35 0 0
-0.1123 0.3445 -1.8357 -0.604 0.539 0.587 89 66 34 0 0
-0.1125 0.3453 -1.8466 -0.365 0.863 0.350 84 61 29 0 0
-0.1198 0.3610 -1.8920 -0.559 0.724 0.405 96 73 40 0 0
-0.1215 0.3652 -1.9236 -0.214 0.727 0.653 86 63 32 0 0
-0.1260 0.3763 -1.9969 -0.310 0.942 0.131 78 55 24 0 0
-0.1380 0.4028 -2.0881 -0.497 0.823 0.276 81 57 28 0 0
-0.1490 0.4254 -2.1165 0.068 0.768 0.637 79 56 25 0 0
-0.1509 0.4295 -2.1250 -0.389 0.553 0.737 82 59 27 0 0
-0.1625 0.4543 -2.1816 -0.440 0.885 0.151 86 63 29 0 0
-0.1631 0.4556 -2.1866 -0.459 0.852 0.252 86 64 27 0 0
-0.1638 0.4571 -2.1913 -0.422 0.800 0.427 86 64 27 0 0
-0.1655 0.4609 -2.2001 -0.403 0.702 0.588 85 66 26 0 0
-0.1669 0.4637 -2.2035 -0.374 0.751 0.543 86 66 29 0 0
-0.1694 0.4689 -2.2109 -0.378 0.703 0.603 86 66 31 0 0
-0.1739 0.4784 -2.2327 -0.459 0.810 0.366 87 68 28 0 0
0.0156 0.0735 -0.8912 0.145 0.385 0.911 176 173 172 0 0
-0.0029 0.1125 -0.9671 -0.433 0.780 0.452 74 53 26 0 0
-0.0036 0.1139 -0.9713 -0.195 0.947 -0.254 81 58 28 0 0
-0.0039 0.1147 -0.9757 0.036 0.856 -0.516 82 63 41 0 0
-0.0277 0.1726 -1.3470 -0.324 0.946 0.031 186 152 92 0 0
-0.0289 0.1753 -1.3508 -0.041 0.903 0.427 124 93 52 0 0
-0.0354 0.1886 -1.3645 -0.403 0.655 0.640 99 75 46 0 0
-0.0544 0.2273 -1.4009 -0.389 0.750 0.536 207 177 135 0 0
-0.0556 0.2298 -1.4047 -0.313 0.712 0.629 213 181 130 0 0
-0.0569 0.2325 -1.4084 -0.313 0.712 0.629 206 175 119 0 0
-0.0572 0.2333 -1.4131 -0.317 0.898 0.305 122 92 41 0 0
-0.0578 0.2346 -1.4176 -0.317 0.898 0.305 159 130 88 0 0
-0.0728 0.2655 -1.4523 -0.374 0.748 0.549 93 74 37 0 0
-0.0864 0.2958 -1.5664 -0.510 0.637 0.578 66 44 18 0 0
-0.1182 0.3605 -1.6100 -0.139 0.518 0.844 159 134 102 0 0
-0.1015 0.3307 -1.7288 -0.340 0.933 0.116 93 71 35 0 0
-0.1001 0.3293 -1.7803 -0.343 0.911 0.229 55 37 13 0 0
-0.1003 0.3299 -1.7855 -0.432 0.813 0.391 91 70 39 0 0
-0.1069 0.3445 -1.8373 -0.467 0.858 0.214 86 63 32 0 0
-0.1074 0.3455 -1.8422 -0.467 0.858 0.214 86 63 32 0 0
-0.1078 0.3466 -1.8472 -0.545 0.792 0.274 85 62 29 0 0
-0.1194 0.3721 -1.9314 -0.354 0.903 0.245 77 54 23 0 0
-0.1214 0.3779 -1.9973 -0.310 0.942 0.131 78 55 24 0 0
