ply
format ascii 1.0
element vertex 851
property float x
property float y
property float z
property float nx
property float ny
property float nz
property uchar diffuse_red
property uchar diffuse_green
property uchar diffuse_blue
property uchar class
property uchar detection
end_header
-0.5361 0.9097 -2.2495 -0.098 -0.115 0.989 217 217 217 0 0
-0.5340 0.8930 -2.2523 -0.240 0.006 0.971 217 217 217 0 0
-0.4921 0.2788 -2.2876 -0.713 0.529 0.459 201 201 202 0 0
-0.4648 0.3203 -2.2842 -0.326 0.302 0.896 201 202 202 0 0
-0.4519 0.3253 -2.2911 -0.349 0.429 0.833 199 199 201 0 0
-0.4255 0.3789 -2.2709 -0.363 0.344 0.866 203 203 205 0 0
-0.4506 0.2768 -2.2410 -0.633 0.727 0.266 113 92 63 0 0
-0.4226 0.3581 -2.2865 -0.507 0.446 0.738 200 199 201 0 0
-0.4040 0.4074 -2.2771 -0.257 0.919 0.298 204 204 206 0 0
-0.3968 0.4259 -2.2676 -0.260 0.336 0.905 205 205 207 0 0
-0.4040 0.4089 -2.2890 -0.241 0.967 -0.088 206 206 206 0 0
-0.4124 0.3706 -2.2878 -0.540 0.544 0.643 199 199 201 0 0
-0.3976 0.4107 -2.2862 -0.241 0.967 -0.088 205 205 205 0 0
-0.4392 0.2745 -2.2207 0.102 0.965 0.243 110 89 60 0 0
-0.4369 0.2810 -2.2221 0.155 0.929 0.336 107 86 55 0 0
-0.4369 0.2816 -2.2282 -0.106 0.864 0.492 106 85 55 0 0
-0.3918 0.4093 -2.2666 -0.264 0.464 0.846 201 201 203 0 0
-0.4464 0.2365 -2.1967 -0.505 0.607 0.614 101 83 61 0 0
-0.4340 0.2731 -2.2207 0.137 0.589 0.797 116 96 63 0 0
-0.4309 0.2824 -2.2265 0.168 0.823 0.543 108 87 54 0 0
-0.4220 0.3087 -2.2448 -0.028 0.916 0.399 117 94 60 0 0
-0.4208 0.3132 -2.2544 -0.196 0.979 0.064 113 90 56 0 0
-0.4133 0.3177 -2.2495 0.325 0.931 0.170 115 92 58 0 0
-0.4053 0.3223 -2.2314 -0.512 0.824 0.245 117 94 60 0 0
-0.3943 0.3548 -2.2505 -0.396 0.475 0.786 113 93 57 0 0
-0.3707 0.4230 -2.2775 -0.495 0.746 0.445 202 202 202 0 0
-0.3664 0.4198 -2.2791 -0.553 0.775 0.305 200 200 200 0 0
-0.3657 0.4221 -2.2837 -0.553 0.775 0.305 201 201 202 0 0
-0.3663 0.4212 -2.2910 -0.487 0.793 0.366 203 203 204 0 0
-0.3648 0.4258 -2.2936 -0.301 0.679 0.670 204 204 204 0 0
-0.3543 0.4384 -2.2813 -0.615 0.596 0.517 203 203 202 0 0
-0.3926 0.3064 -2.1884 -0.303 0.938 -0.169 119 98 64 0 0
-0.3933 0.3051 -2.1960 -0.356 0.934 0.013 120 97 63 0 0
-0.3734 0.3628 -2.2142 -0.077 0.994 0.071 120 97 63 0 0
-0.3628 0.3970 -2.2573 -0.490 0.530 0.692 120 97 59 0 0
-0.3493 0.4365 -2.2753 -0.490 0.677 0.549 200 200 202 0 0
-0.3476 0.4421 -2.2834 -0.592 0.624 0.511 203 203 203 0 0
-0.3876 0.3034 -2.1767 0.389 0.530 0.754 118 98 65 0 0
-0.3866 0.3073 -2.1866 0.201 0.840 0.505 118 98 63 0 0
-0.3861 0.3091 -2.1917 0.192 0.870 0.454 119 97 60 0 0
-0.3693 0.3583 -2.2103 -0.144 0.826 0.545 121 97 63 0 0
-0.3550 0.4025 -2.2514 -0.661 0.736 0.146 124 100 61 0 0
-0.3556 0.4017 -2.2586 -0.496 0.585 0.641 125 103 66 0 0
-0.3512 0.4177 -2.2972 -0.378 0.659 0.651 199 199 201 0 0
-0.3332 0.4652 -2.2619 -0.204 0.560 0.803 202 202 204 0 0
-0.3480 0.4273 -2.3019 -0.500 0.766 0.405 203 203 204 0 0
-0.4026 0.2433 -2.1575 0.121 0.971 -0.206 121 100 71 0 0
-0.4009 0.2483 -2.1601 0.752 0.653 0.091 120 99 68 0 0
-0.3884 0.2859 -2.1831 -0.206 -0.153 0.967 117 97 64 0 0
-0.3649 0.3551 -2.2119 0.266 0.875 0.405 123 99 65 0 0
-0.3493 0.4001 -2.2198 0.038 0.935 -0.353 120 97 57 0 0
-0.3479 0.4072 -2.2528 -0.545 0.798 0.257 125 102 62 0 0
-0.3472 0.4097 -2.2572 -0.554 0.774 0.305 123 102 63 0 0
-0.3470 0.4109 -2.2626 -0.303 0.507 0.807 118 104 71 0 0
-0.3450 0.4166 -2.2643 -0.349 0.447 0.824 134 124 104 0 0
-0.3418 0.4279 -2.2870 -0.435 0.643 0.630 196 197 199 0 0
-0.3416 0.4295 -2.2988 -0.598 0.745 0.297 202 202 204 0 0
-0.3701 0.3226 -2.1917 -0.167 0.601 0.782 117 94 60 0 0
-0.3574 0.3614 -2.2185 0.530 0.742 0.410 123 99 62 0 0
-0.3525 0.3597 -2.2189 -0.369 0.847 0.382 124 100 63 0 0
-0.3395 0.3964 -2.2142 0.543 0.775 -0.323 122 98 61 0 0
-0.3413 0.3928 -2.2302 0.386 0.921 0.048 122 99 58 0 0
-0.3410 0.3941 -2.2356 0.345 0.924 0.166 123 100 59 0 0
-0.3356 0.4089 -2.2295 -0.326 0.866 0.378 122 99 58 0 0
-0.3222 0.4516 -2.2770 -0.363 0.428 0.828 199 199 201 0 0
-0.3206 0.4564 -2.2793 -0.359 0.498 0.790 201 201 201 0 0
-0.3590 0.3192 -2.1533 0.191 0.952 0.238 116 95 62 0 0
-0.3589 0.3205 -2.1652 -0.255 0.768 0.588 117 94 60 0 0
-0.3312 0.4060 -2.2309 0.223 0.562 0.797 123 100 59 0 0
-0.3306 0.4080 -2.2356 0.293 0.678 0.674 122 99 58 0 0
-0.3188 0.4454 -2.2748 -0.346 0.447 0.825 189 189 190 0 0
-0.3163 0.4527 -2.2749 -0.330 0.493 0.805 196 196 198 0 0
-0.3148 0.4574 -2.2773 -0.359 0.498 0.790 199 199 199 0 0
-0.3069 0.4789 -2.2647 -0.439 0.566 0.698 202 202 202 0 0
-0.3565 0.3109 -2.1589 -0.118 0.614 0.780 117 94 61 0 0
-0.3551 0.3151 -2.1620 -0.118 0.614 0.780 117 94 60 0 0
-0.3231 0.4130 -2.2239 -0.299 0.878 0.375 123 100 59 0 0
-0.3243 0.4102 -2.2327 0.602 0.693 0.397 124 101 60 0 0
-0.3226 0.4152 -2.2349 0.710 0.424 0.563 123 100 59 0 0
-0.3122 0.4495 -2.2831 -0.409 0.751 0.519 196 196 197 0 0
-0.3116 0.4517 -2.2876 -0.453 0.795 0.403 199 199 199 0 0
-0.2990 0.4860 -2.2637 -0.346 0.537 0.769 202 202 202 0 0
-0.3516 0.3084 -2.1533 0.698 0.704 0.134 119 96 64 0 0
-0.3509 0.3108 -2.1578 -0.109 0.767 0.633 118 95 62 0 0
-0.3496 0.3150 -2.1610 -0.118 0.614 0.780 117 94 60 0 0
-0.3149 0.4218 -2.2346 0.769 0.624 0.138 126 103 62 0 0
-0.3031 0.4604 -2.2852 -0.257 0.786 0.563 201 201 201 0 0
-0.3587 0.2685 -2.1187 -0.502 0.762 0.409 116 96 63 0 0
-0.3470 0.3057 -2.1544 0.068 0.939 0.337 120 97 65 0 0
-0.3456 0.3099 -2.1575 0.220 0.746 0.628 119 96 63 0 0
-0.3417 0.3216 -2.1612 -0.131 0.850 0.510 118 95 61 0 0
-0.3001 0.4521 -2.2719 -0.296 0.548 0.782 173 171 167 0 0
-0.3415 0.3060 -2.1595 0.706 0.432 0.561 121 98 64 0 0
-0.3377 0.3169 -2.1574 0.454 0.882 0.129 120 97 63 0 0
-0.3332 0.3296 -2.1537 -0.262 0.963 0.057 120 96 62 0 0
-0.3266 0.3502 -2.1694 -0.768 0.626 0.135 119 95 59 0 0
-0.2948 0.4522 -2.2772 -0.426 0.903 0.055 179 176 175 0 0
-0.2920 0.4608 -2.2826 -0.150 0.859 0.489 195 195 195 0 0
-0.3449 0.2775 -2.1355 -0.229 0.932 0.281 117 94 60 0 0
-0.3150 0.3680 -2.1667 -0.780 0.615 0.115 121 97 61 0 0
-0.2883 0.4551 -2.2735 -0.426 0.903 0.055 167 160 153 0 0
-0.2884 0.4554 -2.2797 -0.426 0.903 0.055 182 181 178 0 0
-0.2862 0.4619 -2.2804 -0.327 0.763 0.558 191 192 191 0 0
-0.2852 0.4650 -2.2842 -0.299 0.797 0.525 198 197 197 0 0
-0.3490 0.2110 -1.6682 -0.794 0.457 0.400 215 216 220 0 0
-0.3450 0.2228 -1.6670 -0.715 0.540 0.445 215 216 220 0 0
-0.3447 0.2572 -2.0791 -0.559 0.725 0.402 118 98 66 0 0
-0.3032 0.3848 -2.1456 -0.022 0.949 0.316 122 98 62 0 0
-0.2834 0.4522 -2.2555 -0.445 0.875 0.190 123 102 59 0 0
-0.2818 0.4579 -2.2699 -0.426 0.903 0.055 150 140 121 0 0
-0.2814 0.4595 -2.2749 -0.463 0.886 0.029 173 170 161 0 0
-0.2805 0.4625 -2.2788 -0.436 0.859 0.266 184 185 183 0 0
-0.2801 0.4642 -2.2837 -0.436 0.859 0.266 193 193 191 0 0
-0.2730 0.4846 -2.2786 -0.393 0.582 0.712 202 202 202 0 0
-0.3564 0.1690 -1.6157 0.700 0.639 0.319 163 156 148 0 0
-0.3525 0.1809 -1.6205 0.832 0.525 0.179 160 153 143 0 0
-0.3521 0.1826 -1.6254 0.251 0.964 0.092 158 152 140 0 0
-0.3419 0.2154 -1.6589 -0.794 0.491 0.359 213 213 213 0 0
-0.3405 0.2198 -1.6621 -0.776 0.512 0.368 215 216 219 0 0
-0.3374 0.2291 -1.6624 -0.715 0.540 0.445 215 216 220 0 0
-0.3360 0.2336 -1.6656 -0.715 0.540 0.445 215 216 220 0 0
-0.3364 0.2650 -2.0786 -0.228 0.904 0.362 120 99 67 0 0
-0.3359 0.2671 -2.0835 -0.228 0.904 0.362 118 97 65 0 0
-0.3345 0.2714 -2.0866 -0.343 0.760 0.551 116 93 62 0 0
-0.3267 0.2985 -2.1364 -0.438 0.894 0.095 119 96 62 0 0
-0.2804 0.4450 -2.2542 0.142 0.892 0.430 132 111 68 0 0
-0.2797 0.4472 -2.2587 0.038 0.828 0.559 126 104 62 0 0
-0.2754 0.4607 -2.2663 -0.426 0.903 0.055 132 120 93 0 0
-0.2746 0.4634 -2.2704 -0.431 0.879 0.203 158 153 140 0 0
-0.2743 0.4648 -2.2756 -0.431 0.879 0.203 175 175 172 0 0
-0.2738 0.4664 -2.2806 -0.436 0.859 0.266 189 189 185 0 0
-0.2720 0.4719 -2.2823 -0.465 0.699 0.544 195 195 195 0 0
-0.2699 0.4782 -2.2831 -0.421 0.727 0.543 199 199 199 0 0
-0.3520 0.1663 -1.6164 0.477 0.755 0.450 127 112 91 0 0
-0.3321 0.2283 -1.6563 -0.776 0.512 0.368 208 207 206 0 0
-0.3302 0.2343 -1.6585 -0.744 0.558 0.367 215 215 218 0 0
-0.3284 0.2399 -1.6610 -0.715 0.540 0.445 214 216 220 0 0
-0.3455 0.2181 -2.0356 -0.316 0.460 0.830 122 102 77 0 0
-0.3421 0.2286 -2.0407 0.408 0.214 0.888 120 100 75 0 0
-0.3403 0.2343 -2.0429 0.408 0.214 0.888 122 102 75 0 0
-0.3364 0.2462 -2.0470 -0.199 0.478 0.855 121 101 74 0 0
-0.2961 0.3737 -2.1461 0.173 0.913 0.371 120 96 60 0 0
-0.2750 0.4405 -2.1991 0.632 0.702 0.328 133 107 66 0 0
-0.2760 0.4426 -2.2616 0.527 0.818 0.230 127 105 63 0 0
-0.2680 0.4670 -2.2725 -0.409 0.886 0.218 166 161 152 0 0
-0.2677 0.4684 -2.2777 -0.409 0.886 0.218 183 181 177 0 0
-0.2661 0.4733 -2.2799 -0.389 0.690 0.610 193 191 190 0 0
-0.2638 0.4803 -2.2801 -0.330 0.646 0.688 196 196 195 0 0
-0.2617 0.4865 -2.2810 -0.280 0.764 0.582 198 200 200 0 0
-0.3494 0.1572 -1.6091 0.262 0.371 0.891 127 107 80 0 0
-0.3223 0.2414 -1.6535 -0.744 0.558 0.367 186 183 177 0 0
-0.3208 0.2461 -1.6565 -0.715 0.540 0.445 212 212 213 0 0
-0.3194 0.2507 -1.6596 -0.694 0.533 0.484 215 216 220 0 0
-0.3182 0.2546 -1.6630 -0.700 0.589 0.404 215 216 220 0 0
-0.3556 0.1694 -2.0118 -0.249 0.540 0.804 129 111 91 0 0
-0.3468 0.1968 -2.0244 -0.241 0.428 0.871 125 107 85 0 0
-0.3449 0.2026 -2.0266 -0.236 0.455 0.859 126 107 83 0 0
-0.3226 0.2699 -2.0348 -0.276 0.957 -0.090 120 99 71 0 0
-0.3220 0.2720 -2.0396 -0.398 0.903 0.164 121 101 73 0 0
-0.3217 0.2734 -2.0449 -0.369 0.929 0.038 121 101 73 0 0
-0.3209 0.2758 -2.0494 -0.377 0.925 -0.049 121 101 73 0 0
-0.3147 0.2973 -2.0841 -0.670 0.538 0.511 118 95 63 0 0
-0.2960 0.3567 -2.1332 -0.071 0.996 -0.063 122 98 64 0 0
-0.2616 0.4698 -2.2689 -0.329 0.612 0.719 148 141 127 0 0
-0.2599 0.4756 -2.2767 -0.454 0.835 0.311 187 186 184 0 0
-0.2589 0.4788 -2.2802 -0.444 0.865 0.234 195 194 192 0 0
-0.3709 0.0754 -1.5949 0.998 0.055 -0.009 212 213 214 0 0
-0.3478 0.1456 -1.6090 0.213 0.046 0.976 129 107 76 0 0
-0.3451 0.1539 -1.6102 0.383 0.228 0.895 131 109 77 0 0
-0.3423 0.1624 -1.6113 0.329 0.349 0.877 131 107 76 0 0
-0.3122 0.2560 -1.6556 -0.578 0.518 0.630 207 205 204 0 0
-0.3355 0.2141 -2.0301 -0.035 0.479 0.877 126 105 80 0 0
-0.3328 0.2227 -2.0366 0.339 0.482 0.808 122 102 77 0 0
-0.3149 0.2760 -2.0293 0.073 0.967 0.244 119 98 69 0 0
-0.3157 0.2742 -2.0369 0.008 0.995 0.102 119 98 69 0 0
-0.3154 0.2755 -2.0423 -0.142 0.989 -0.046 120 99 70 0 0
-0.3153 0.2767 -2.0541 -0.328 0.938 -0.113 118 97 68 0 0
-0.3140 0.2806 -2.0575 -0.315 0.937 0.153 117 96 65 0 0
-0.2537 0.4778 -2.2735 -0.471 0.868 0.156 181 176 172 0 0
-0.2531 0.4800 -2.2780 -0.469 0.857 0.212 192 189 186 0 0
-0.3086 0.2786 -2.0327 -0.001 0.520 0.854 117 96 66 0 0
-0.3086 0.2791 -2.0386 -0.483 0.872 0.083 117 96 65 0 0
-0.2868 0.3490 -2.0991 -0.242 0.833 0.498 124 101 67 0 0
-0.2469 0.4823 -2.2748 -0.471 0.851 0.234 184 183 179 0 0
-0.3019 0.2821 -2.0291 -0.199 0.477 0.856 116 95 64 0 0
-0.3007 0.2866 -2.0447 -0.608 0.790 0.078 115 94 62 0 0
-0.2720 0.3815 -2.1546 -0.282 0.794 0.539 126 101 61 0 0
-0.2672 0.3970 -2.1674 -0.132 0.749 0.650 128 103 63 0 0
-0.2597 0.4218 -2.1978 0.373 0.622 0.688 135 107 67 0 0
-0.2612 0.4180 -2.2074 0.062 0.998 0.026 133 108 68 0 0
-0.2577 0.4286 -2.2112 0.287 0.779 0.558 131 106 66 0 0
-0.2558 0.4347 -2.2125 0.195 0.980 -0.022 130 105 65 0 0
-0.3867 -0.0207 -1.6268 -0.248 -0.162 0.955 212 213 217 0 0
-0.2942 0.2892 -2.0354 -0.559 0.760 0.333 113 93 60 0 0
-0.2687 0.3718 -2.1106 -0.186 0.297 0.937 122 98 62 0 0
-0.2341 0.4880 -2.2675 -0.453 0.873 0.181 164 156 141 0 0
-0.2338 0.4892 -2.2728 -0.453 0.873 0.181 183 179 174 0 0
-0.3179 0.1697 -1.5924 -0.182 0.320 0.930 133 112 81 0 0
-0.3158 0.1763 -1.5945 -0.139 0.356 0.924 121 101 69 0 0
-0.2844 0.2733 -1.6133 -0.485 0.560 0.671 141 117 79 0 0
-0.2829 0.2780 -1.6163 -0.524 0.553 0.648 134 110 78 0 0
-0.2874 0.2934 -2.0376 -0.513 0.705 0.490 105 84 50 0 0
-0.2242 0.5023 -2.2728 -0.294 0.920 0.260 195 194 192 0 0
-0.3103 0.1765 -1.5937 0.034 0.266 0.963 129 107 74 0 0
-0.3081 0.1834 -1.5955 0.060 0.255 0.965 135 115 82 0 0
-0.2783 0.2760 -1.6110 -0.605 0.604 0.518 152 127 85 0 0
-0.2492 0.4023 -2.1662 0.159 0.985 -0.070 132 106 66 0 0
-0.2497 0.4018 -2.1793 -0.016 0.916 0.402 134 106 67 0 0
-0.2035 0.5488 -2.2616 -0.069 -0.108 0.992 205 205 205 0 0
-0.2644 0.3055 -1.6554 0.496 0.102 0.862 199 198 197 0 0
-0.2131 0.5036 -2.2693 -0.214 0.882 0.420 187 184 181 0 0
-0.2168 0.4934 -2.2849 -0.138 0.989 0.055 194 192 194 0 0
-0.2933 0.1961 -1.5926 -0.148 0.271 0.951 132 112 79 0 0
-0.2623 0.2963 -1.6602 0.539 0.825 0.172 136 131 120 0 0
-0.2617 0.3226 -2.0441 -0.475 0.629 0.615 118 96 58 0 0
-0.2406 0.3931 -2.1273 0.412 0.746 0.524 124 99 59 0 0
-0.2372 0.4065 -2.1732 -0.287 0.924 0.251 138 110 68 0 0
-0.2191 0.4669 -2.2431 0.120 0.986 -0.118 134 113 68 0 0
-0.2648 0.2909 -1.9608 -0.478 0.646 0.596 127 106 77 0 0
-0.2626 0.3019 -2.0273 -0.147 0.976 0.163 114 91 57 0 0
-0.2374 0.3864 -2.1253 0.318 0.879 0.355 124 101 60 0 0
-0.2259 0.4250 -2.1758 -0.227 0.797 0.559 145 116 72 0 0
-0.2007 0.5090 -2.2623 -0.258 0.662 0.704 170 165 154 0 0
-0.2657 0.2494 -1.6007 -0.494 0.555 0.669 143 120 88 0 0
-0.2750 0.2383 -1.8981 -0.568 0.815 0.114 124 104 79 0 0
-0.2564 0.3004 -1.9653 -0.446 0.710 0.545 124 103 74 0 0
-0.2544 0.3068 -1.9669 -0.263 0.747 0.611 122 101 70 0 0
-0.2358 0.3743 -2.1213 0.279 0.917 -0.285 124 100 60 0 0
-0.1950 0.5100 -2.2602 -0.254 0.632 0.732 156 150 135 0 0
-0.1967 0.5058 -2.2768 -0.348 0.912 -0.217 190 190 190 0 0
-0.2591 0.2536 -1.5975 -0.047 0.241 0.969 142 119 83 0 0
-0.2546 0.2678 -1.6006 -0.107 0.448 0.887 129 107 75 0 0
-0.2527 0.2738 -1.6028 0.027 0.351 0.936 135 113 78 0 0
-0.2561 0.2810 -1.9045 -0.135 0.868 0.478 126 105 76 0 0
-0.2553 0.2835 -1.9088 0.158 0.955 0.252 125 104 75 0 0
-0.2462 0.3154 -1.9658 -0.368 0.751 0.548 118 98 65 0 0
-0.2450 0.3234 -2.0342 -0.381 0.589 0.713 114 92 56 0 0
-0.2420 0.3339 -2.0513 -0.368 0.910 0.191 119 98 61 0 0
-0.2288 0.3782 -2.1045 0.035 0.940 0.338 119 99 66 0 0
-0.2290 0.3781 -2.1109 0.531 0.847 -0.023 133 107 69 0 0
-0.2244 0.3927 -2.1181 -0.082 0.856 0.511 132 106 64 0 0
-0.2270 0.3857 -2.1364 0.344 0.667 0.661 131 105 62 0 0
-0.2374 0.3062 -1.6112 0.039 0.837 0.546 147 120 85 0 0
-0.2574 0.2576 -1.8649 -0.463 0.594 0.657 122 102 75 0 0
-0.2389 0.3250 -2.0258 -0.493 0.800 0.343 113 90 56 0 0
-0.2350 0.3384 -2.0468 -0.047 0.569 0.821 112 92 55 0 0
-0.2342 0.3412 -2.0509 -0.307 0.695 0.650 118 98 62 0 0
-0.2272 0.3651 -2.0825 0.400 0.747 0.530 122 97 65 0 0
-0.2255 0.3709 -2.0905 0.594 0.629 0.502 102 83 53 0 0
-0.2248 0.3734 -2.0948 0.466 0.769 0.437 83 69 41 0 0
-0.2242 0.3754 -2.0994 0.588 0.787 0.187 91 77 48 0 0
-0.1849 0.5092 -2.2714 -0.374 0.927 -0.020 182 179 176 0 0
-0.2334 0.3022 -1.6071 0.063 0.664 0.745 159 134 93 0 0
-0.2327 0.3048 -1.6113 0.111 0.825 0.554 150 126 84 0 0
-0.2312 0.3096 -1.6141 -0.187 0.750 0.634 155 130 88 0 0
-0.2298 0.3163 -1.6554 -0.155 0.985 0.074 123 101 64 0 0
-0.2468 0.2754 -1.8883 0.129 0.977 0.172 127 106 77 0 0
-0.2458 0.2787 -1.8921 -0.119 0.863 0.491 131 110 79 0 0
-0.2451 0.2813 -1.8964 -0.119 0.863 0.491 129 108 77 0 0
-0.2219 0.3648 -2.0817 0.104 0.898 0.427 119 95 59 0 0
-0.2207 0.3692 -2.0908 0.390 0.850 0.355 118 95 62 0 0
-0.1770 0.5171 -2.2632 -0.174 0.456 0.873 173 170 164 0 0
-0.2305 0.2950 -1.6050 -0.291 0.693 0.660 160 136 93 0 0
-0.2287 0.3008 -1.6072 -0.006 0.880 0.475 153 128 85 0 0
-0.2161 0.3665 -2.0856 0.057 0.950 0.306 117 94 56 0 0
-0.2155 0.3693 -2.1022 0.215 0.943 0.254 120 98 58 0 0
-0.2152 0.3706 -2.1075 0.406 0.845 0.348 143 118 73 0 0
-0.2037 0.4105 -2.1698 0.888 0.455 0.069 143 114 70 0 0
-0.1759 0.5032 -2.2490 0.116 0.572 0.812 131 110 63 0 0
-0.1738 0.5113 -2.2799 -0.215 0.974 -0.071 192 192 189 0 0
-0.2244 0.2981 -1.6025 -0.101 0.648 0.755 156 131 91 0 0
-0.2282 0.3025 -1.9284 -0.512 0.859 0.012 117 95 63 0 0
-0.2210 0.3291 -1.9951 -0.359 0.864 0.354 113 90 56 0 0
-0.2205 0.3308 -1.9999 -0.475 0.823 0.312 106 84 47 0 0
-0.2095 0.3692 -2.0638 0.028 0.997 -0.076 122 98 62 0 0
-0.1681 0.5128 -2.2775 -0.215 0.974 -0.071 189 187 183 0 0
-0.2229 0.3026 -1.9335 -0.481 0.866 0.135 116 93 59 0 0
-0.1932 0.4090 -2.1563 -0.487 0.650 0.583 134 105 60 0 0
-0.1635 0.5092 -2.2477 -0.107 0.589 0.801 130 110 60 0 0
-0.2183 0.2840 -1.5979 0.338 0.457 0.823 132 108 74 0 0
-0.2340 0.2413 -1.7631 -0.571 0.801 0.179 117 98 65 0 0
-0.2169 0.3046 -1.9312 -0.407 0.861 0.306 115 92 58 0 0
-0.2047 0.3487 -2.0278 0.180 0.855 0.487 107 84 51 0 0
-0.1909 0.3958 -2.0845 0.173 0.985 -0.024 126 101 58 0 0
-0.1880 0.4081 -2.1434 0.375 0.797 0.474 133 105 58 0 0
-0.1799 0.4353 -2.1650 -0.262 0.958 -0.112 137 108 65 0 0
-0.1493 0.5390 -2.2705 -0.147 0.982 -0.115 202 200 198 0 0
-0.1500 0.5371 -2.2786 -0.458 0.869 0.187 203 202 200 0 0
-0.2110 0.3069 -1.9408 -0.387 0.420 0.821 112 89 55 0 0
-0.2039 0.3303 -1.9483 -0.258 0.715 0.649 109 86 52 0 0
-0.1893 0.3847 -2.1047 -0.427 0.855 0.294 145 115 66 0 0
-0.1886 0.3872 -2.1090 -0.408 0.872 0.270 166 135 83 0 0
-0.1879 0.3896 -2.1133 -0.534 0.735 0.417 159 128 78 0 0
-0.1661 0.4659 -2.2327 0.532 0.514 0.673 121 99 52 0 0
-0.1640 0.4731 -2.2392 0.288 0.822 0.492 125 105 55 0 0
-0.1588 0.4898 -2.2372 0.295 0.747 0.596 128 108 57 0 0
-0.2188 0.2482 -1.5833 -0.161 0.585 0.795 133 110 80 0 0
-0.2175 0.2527 -1.5863 -0.161 0.585 0.795 131 108 78 0 0
-0.2157 0.2587 -1.5885 -0.010 0.621 0.784 140 117 84 0 0
-0.2171 0.2614 -1.7605 -0.749 0.565 0.346 116 93 64 0 0
-0.2056 0.3040 -1.8692 -0.035 0.924 0.381 122 100 68 0 0
-0.1783 0.4019 -2.0775 -0.288 0.951 -0.112 122 97 56 0 0
-0.1829 0.3885 -2.1069 -0.321 0.827 0.462 144 114 67 0 0
-0.1686 0.4361 -2.1309 0.139 0.892 0.430 135 107 60 0 0
-0.1680 0.4382 -2.1354 0.139 0.892 0.430 134 106 59 0 0
-0.1673 0.4405 -2.1397 0.014 0.884 0.468 129 101 54 0 0
-0.1612 0.4647 -2.2327 0.546 0.272 0.793 122 100 53 0 0
-0.1599 0.4692 -2.2415 0.565 0.644 0.516 121 101 51 0 0
-0.2106 0.2582 -1.5881 -0.010 0.621 0.784 138 113 78 0 0
-0.2088 0.2641 -1.5903 0.018 0.518 0.855 144 122 87 0 0
-0.2073 0.2693 -1.5930 -0.159 0.483 0.861 119 102 71 0 0
-0.2057 0.2746 -1.5955 -0.179 0.377 0.909 108 90 61 0 0
-0.2016 0.2880 -1.5989 -0.134 0.329 0.935 129 108 73 0 0
-0.2017 0.2928 -1.7163 0.054 0.943 0.329 126 105 76 0 0
-0.1901 0.3414 -1.9689 0.298 0.719 0.628 117 94 60 0 0
-0.1904 0.3409 -1.9754 0.457 0.883 0.109 117 94 60 0 0
-0.1895 0.3444 -1.9911 0.345 0.910 0.230 112 89 55 0 0
-0.1807 0.3749 -2.0296 0.047 0.948 0.315 111 88 54 0 0
-0.1802 0.3765 -2.0345 0.047 0.948 0.315 111 88 53 0 0
-0.1798 0.3782 -2.0394 0.047 0.948 0.315 130 107 72 0 0
-0.1614 0.4424 -2.1370 -0.120 0.972 0.202 125 97 52 0 0
-0.1354 0.5333 -2.2660 -0.245 0.826 0.508 187 186 184 0 0
-0.2043 0.2619 -1.5908 -0.143 0.511 0.848 113 94 63 0 0
-0.1816 0.3378 -1.6191 -0.356 0.774 0.523 178 151 105 0 0
-0.1858 0.3386 -1.9761 0.314 0.948 0.046 109 86 52 0 0
-0.1858 0.3386 -1.9822 0.291 0.950 0.114 109 86 52 0 0
-0.1851 0.3412 -1.9864 0.250 0.926 0.283 112 89 55 0 0
-0.1758 0.3737 -2.0296 0.097 0.915 0.393 117 94 60 0 0
-0.1752 0.3756 -2.0342 0.097 0.915 0.393 106 83 49 0 0
-0.1737 0.3821 -2.0725 0.053 0.866 0.498 122 95 55 0 0
-0.1703 0.3937 -2.0758 0.498 0.766 0.407 126 99 57 0 0
-0.1303 0.5328 -2.2653 -0.312 0.874 0.372 182 180 178 0 0
-0.1298 0.5345 -2.2700 -0.230 0.958 0.172 193 191 193 0 0
-0.2420 0.1149 -1.4492 0.502 0.855 0.130 204 200 200 0 0
-0.2421 0.1146 -1.4549 -0.530 0.633 0.564 185 181 178 0 0
-0.1761 0.3392 -1.6175 -0.356 0.774 0.523 174 147 102 0 0
-0.1771 0.3509 -2.0089 0.207 0.877 0.434 108 86 49 0 0
-0.1765 0.3530 -2.0135 0.207 0.877 0.434 110 88 51 0 0
-0.1659 0.3903 -2.0713 0.106 0.832 0.545 122 95 55 0 0
-0.1631 0.4000 -2.0822 -0.155 0.792 0.591 124 97 54 0 0
-0.1515 0.4404 -2.1304 -0.115 0.986 0.125 126 97 53 0 0
-0.1522 0.4384 -2.1446 -0.068 0.960 -0.271 128 99 55 0 0
-0.1245 0.5347 -2.2624 -0.352 0.853 0.385 174 172 168 0 0
-0.1242 0.5358 -2.2678 -0.327 0.941 0.092 191 189 189 0 0
-0.1233 0.5390 -2.2711 -0.302 0.952 0.046 198 196 197 0 0
-0.1211 0.5463 -2.2708 -0.333 0.942 0.038 202 200 201 0 0
-0.2389 0.1077 -1.4578 0.388 0.793 0.469 113 103 93 0 0
-0.2085 0.2124 -1.5552 -0.497 0.809 0.314 111 90 61 0 0
-0.1810 0.3159 -1.8814 -0.121 0.956 0.268 113 90 56 0 0
-0.1754 0.3381 -1.9807 0.075 0.993 0.093 118 95 60 0 0
-0.1461 0.4408 -2.1290 -0.003 0.966 -0.259 124 96 52 0 0
-0.1479 0.4355 -2.1459 0.094 0.917 -0.387 125 96 53 0 0
-0.1185 0.5375 -2.2651 -0.327 0.941 0.092 186 185 182 0 0
-0.1186 0.5373 -2.2716 -0.273 0.956 -0.105 195 194 194 0 0
-0.1156 0.5473 -2.2751 -0.338 0.935 -0.109 204 202 201 0 0
-0.2080 0.1950 -1.5075 -0.285 0.692 0.663 109 90 61 0 0
-0.1638 0.3456 -1.6009 -0.233 0.949 0.212 146 123 83 0 0
-0.1620 0.3666 -2.0259 0.385 0.786 0.484 111 89 52 0 0
-0.1484 0.4149 -2.1117 0.153 0.984 0.094 171 140 95 0 0
-0.1483 0.4154 -2.1175 0.153 0.984 0.094 131 104 63 0 0
-0.1413 0.4393 -2.1354 0.058 0.943 -0.326 122 95 52 0 0
-0.1117 0.5425 -2.2594 -0.288 0.748 0.598 181 178 173 0 0
-0.1115 0.5433 -2.2650 -0.322 0.946 0.028 191 192 191 0 0
-0.2054 0.1860 -1.5004 -0.485 0.830 0.275 120 99 70 0 0
-0.2042 0.1899 -1.5039 -0.211 0.798 0.564 115 92 63 0 0
-0.2030 0.1943 -1.5072 -0.364 0.838 0.407 106 86 56 0 0
-0.2022 0.1972 -1.5113 -0.221 0.971 0.088 113 94 63 0 0
-0.1565 0.3536 -1.6121 -0.191 0.812 0.552 163 138 100 0 0
-0.1739 0.3002 -1.7598 0.497 0.808 -0.317 114 91 59 0 0
-0.1649 0.3356 -1.9198 -0.125 0.815 0.565 117 95 58 0 0
-0.1434 0.4140 -2.1052 0.310 0.888 0.339 164 134 81 0 0
-0.1429 0.4157 -2.1163 0.230 0.969 0.086 143 116 72 0 0
-0.1378 0.4334 -2.1330 -0.003 0.994 -0.107 120 93 50 0 0
-0.1344 0.4453 -2.1419 0.723 0.628 -0.289 120 93 50 0 0
-0.1245 0.4808 -2.2184 -0.252 0.923 0.290 105 85 35 0 0
-0.2224 0.1086 -1.4215 0.531 0.788 -0.311 184 182 180 0 0
-0.1953 0.2024 -1.5021 -0.540 0.736 0.408 110 90 59 0 0
-0.1945 0.2052 -1.5062 -0.410 0.909 0.074 108 89 57 0 0
-0.1626 0.3217 -1.7976 -0.191 0.692 0.696 109 89 59 0 0
-0.1639 0.3178 -1.8061 0.079 0.627 0.775 109 89 56 0 0
-0.1615 0.3287 -1.8998 0.121 0.749 0.652 115 92 59 0 0
-0.1378 0.4151 -2.1157 0.226 0.948 0.224 153 125 81 0 0
-0.1319 0.4351 -2.1119 0.044 0.758 0.651 120 96 53 0 0
-0.1288 0.4469 -2.1582 0.292 0.956 0.029 120 93 48 0 0
-0.1186 0.4832 -2.2152 -0.584 0.809 0.071 105 85 35 0 0
-0.1471 0.3511 -1.6065 -0.193 0.659 0.727 162 138 95 0 0
-0.1370 0.3861 -1.6351 0.301 0.910 0.285 113 90 54 0 0
-0.1598 0.3139 -1.8078 0.162 0.659 0.735 108 89 57 0 0
-0.1547 0.3309 -1.8023 0.613 0.754 0.236 111 92 58 0 0
-0.1562 0.3270 -1.8403 -0.400 0.825 0.399 119 96 59 0 0
-0.1345 0.4060 -2.0294 0.146 0.978 0.151 135 110 64 0 0
-0.1338 0.4107 -2.1058 0.253 0.754 0.606 161 131 80 0 0
-0.1327 0.4144 -2.1090 0.174 0.953 0.247 169 137 85 0 0
-0.1242 0.4446 -2.1528 0.453 0.854 -0.257 118 91 48 0 0
-0.1894 0.1854 -1.4428 -0.303 0.904 0.302 102 85 59 0 0
-0.1814 0.2142 -1.5000 -0.413 0.873 0.261 127 105 70 0 0
-0.1409 0.3550 -1.6089 -0.191 0.812 0.552 168 143 98 0 0
-0.1504 0.3289 -1.8382 -0.352 0.889 0.294 124 100 64 0 0
-0.1290 0.4090 -2.1061 0.328 0.657 0.679 143 114 65 0 0
-0.1277 0.4136 -2.1086 0.259 0.884 0.389 172 141 88 0 0
-0.1274 0.4147 -2.1139 0.174 0.953 0.247 171 140 90 0 0
-0.1273 0.4151 -2.1198 0.080 0.997 -0.004 152 122 77 0 0
-0.1197 0.4423 -2.1599 0.158 0.978 -0.138 115 89 46 0 0
-0.1027 0.5016 -2.2221 0.310 0.858 0.410 106 87 37 0 0
-0.1759 0.2153 -1.4875 -0.375 0.733 0.567 127 106 73 0 0
-0.1746 0.2200 -1.4961 -0.272 0.855 0.442 129 105 69 0 0
-0.1601 0.2713 -1.5738 -0.013 0.826 0.563 116 98 62 0 0
-0.1584 0.2772 -1.5760 -0.113 0.630 0.768 122 101 65 0 0
-0.1362 0.3540 -1.6088 -0.117 0.869 0.481 156 128 83 0 0
-0.1481 0.3159 -1.7174 -0.289 0.928 0.237 101 80 46 0 0
-0.1503 0.3097 -1.7620 0.646 0.707 -0.289 113 92 58 0 0
-0.1478 0.3190 -1.7968 -0.285 0.905 0.316 125 104 70 0 0
-0.1468 0.3241 -1.8584 -0.161 0.987 -0.001 127 103 67 0 0
-0.1368 0.3602 -1.9406 0.358 0.795 0.490 108 86 48 0 0
-0.1144 0.4425 -2.1587 0.607 0.764 0.219 113 89 45 0 0
-0.1679 0.2253 -1.4981 -0.378 0.768 0.517 128 104 68 0 0
-0.1602 0.2530 -1.5499 -0.533 0.744 0.402 132 110 72 0 0
-0.1587 0.2582 -1.5525 -0.455 0.744 0.488 120 98 64 0 0
-0.1437 0.3145 -1.7638 0.305 0.950 0.071 121 98 58 0 0
-0.1425 0.3195 -1.8074 0.166 0.764 0.624 101 81 51 0 0
-0.1413 0.3240 -1.8103 0.097 0.963 0.253 107 85 54 0 0
-0.1401 0.3282 -1.8192 0.135 0.989 0.058 129 105 70 0 0
-0.1362 0.3424 -1.8508 -0.052 0.986 0.158 127 103 67 0 0
-0.1359 0.3433 -1.8561 -0.052 0.986 0.158 124 100 64 0 0
-0.1361 0.3430 -1.8622 0.036 0.999 -0.028 126 102 66 0 0
-0.1318 0.3593 -1.9342 -0.114 0.897 0.428 106 84 48 0 0
-0.1312 0.3615 -1.9387 -0.114 0.897 0.428 107 84 47 0 0
-0.1223 0.3942 -2.0355 0.160 0.975 0.152 104 83 43 0 0
-0.1172 0.4133 -2.1006 -0.349 0.936 0.050 111 89 43 0 0
-0.1523 0.2624 -1.5494 -0.478 0.781 0.402 132 106 69 0 0
-0.1516 0.2650 -1.5535 -0.478 0.781 0.402 117 95 60 0 0
-0.1412 0.3016 -1.5939 0.052 0.802 0.595 147 123 84 0 0
-0.1370 0.3198 -1.7654 -0.263 0.691 0.673 133 104 64 0 0
-0.1306 0.3438 -1.8548 -0.273 0.956 0.111 128 104 68 0 0
-0.1225 0.3748 -2.0005 0.153 0.982 -0.112 101 79 42 0 0
-0.1150 0.4020 -2.0591 -0.530 0.700 0.479 106 82 43 0 0
-0.1486 0.2568 -1.5129 -0.578 0.814 0.048 111 89 52 0 0
-0.1502 0.2512 -1.5215 -0.571 0.695 0.438 109 86 52 0 0
-0.1494 0.2543 -1.5253 -0.571 0.695 0.438 111 90 55 0 0
-0.1469 0.2632 -1.5426 -0.586 0.772 0.245 141 118 76 0 0
-0.1416 0.2821 -1.5710 -0.284 0.845 0.454 131 107 69 0 0
-0.1368 0.2991 -1.5890 0.114 0.869 0.481 152 129 87 0 0
-0.1363 0.3009 -1.5936 0.011 0.748 0.664 150 127 85 0 0
-0.1336 0.3137 -1.7627 0.261 0.950 -0.172 114 94 60 0 0
-0.1305 0.3244 -1.7673 -0.211 0.621 0.755 146 117 76 0 0
-0.1307 0.3244 -1.8024 -0.260 0.948 0.182 123 103 66 0 0
-0.1265 0.3394 -1.8157 0.152 0.932 0.330 141 114 77 0 0
-0.1261 0.3406 -1.8208 -0.018 0.998 0.053 128 101 63 0 0
-0.1211 0.3603 -1.9317 -0.198 0.931 0.307 112 89 55 0 0
-0.0889 0.4766 -2.1705 -0.134 0.826 0.548 109 86 42 0 0
-0.0709 0.5414 -2.2891 -0.416 0.905 0.090 205 204 205 0 0
-0.1377 0.2780 -1.5614 -0.220 0.844 0.489 78 60 29 0 0
-0.1314 0.3004 -1.5931 0.011 0.748 0.664 145 119 81 0 0
-0.1192 0.3471 -1.8448 -0.134 0.844 0.520 116 92 56 0 0
-0.1153 0.3623 -1.9353 0.183 0.972 0.146 108 84 49 0 0
-0.1129 0.3707 -1.9412 0.080 0.810 0.581 105 81 45 0 0
-0.1118 0.3749 -1.9501 0.111 0.932 0.344 105 82 48 0 0
-0.1057 0.3980 -2.0602 0.042 0.882 0.469 110 88 46 0 0
-0.0894 0.4563 -2.1553 0.192 0.967 0.166 104 79 38 0 0
-0.1402 0.2499 -1.4765 0.081 0.728 0.680 101 81 43 0 0
-0.1305 0.2853 -1.5788 0.215 0.906 0.365 128 103 61 0 0
-0.1257 0.3026 -1.5911 -0.147 0.857 0.494 135 107 72 0 0
-0.1242 0.3077 -1.5937 -0.157 0.910 0.383 152 124 85 0 0
-0.0945 0.4190 -2.0612 0.055 0.932 0.357 98 74 38 0 0
-0.1316 0.2626 -1.5075 -0.279 0.919 0.277 122 99 62 0 0
-0.1318 0.2619 -1.5134 -0.004 0.909 0.416 117 95 56 0 0
-0.1190 0.3082 -1.5926 -0.157 0.910 0.383 144 122 88 0 0
-0.1181 0.3114 -1.5963 -0.063 0.793 0.606 139 116 81 0 0
-0.1126 0.3325 -1.7364 -0.018 0.971 0.240 105 85 51 0 0
-0.1097 0.3440 -1.8452 -0.009 0.981 0.194 115 93 56 0 0
-0.1090 0.3467 -1.8611 -0.135 0.777 0.615 120 98 61 0 0
-0.1077 0.3518 -1.8931 -0.241 0.933 0.269 120 98 61 0 0
-0.0943 0.4005 -2.0075 0.281 0.823 0.493 100 77 43 0 0
-0.0886 0.4214 -2.0522 -0.485 0.616 0.620 99 75 41 0 0
-0.0885 0.4216 -2.0581 0.208 0.975 -0.082 98 74 38 0 0
-0.1508 0.1755 -1.4039 -0.038 0.873 0.487 127 103 64 0 0
-0.1504 0.1772 -1.4085 -0.045 0.781 0.623 127 104 66 0 0
-0.1281 0.2569 -1.4769 -0.455 0.618 0.642 106 85 45 0 0
-0.1245 0.2699 -1.5194 -0.308 0.779 0.546 104 81 46 0 0
-0.1140 0.3080 -1.5920 0.157 0.895 0.418 107 90 65 0 0
-0.1133 0.3105 -1.5961 0.107 0.750 0.653 124 103 76 0 0
-0.1120 0.3153 -1.5989 0.092 0.332 0.939 129 108 82 0 0
-0.1076 0.3323 -1.7357 -0.044 0.998 0.052 97 77 45 0 0
-0.1462 0.1737 -1.3986 0.210 0.739 0.640 143 118 78 0 0
-0.1452 0.1773 -1.4078 0.122 0.790 0.601 124 101 67 0 0
-0.1427 0.1862 -1.4143 -0.224 0.803 0.551 124 99 59 0 0
-0.1405 0.1940 -1.4159 -0.177 0.832 0.526 134 108 68 0 0
-0.1188 0.2721 -1.5175 -0.087 0.771 0.631 119 96 59 0 0
-0.1161 0.2818 -1.5176 0.079 0.643 0.762 122 96 60 0 0
-0.1434 0.1651 -1.3858 0.427 0.720 0.547 119 95 57 0 0
-0.1426 0.1680 -1.3899 0.471 0.715 0.516 133 106 65 0 0
-0.1355 0.1937 -1.4154 -0.062 0.937 0.345 136 111 69 0 0
-0.1150 0.2678 -1.5246 -0.123 0.881 0.457 110 88 49 0 0
-0.0935 0.3451 -1.6074 0.270 0.509 0.817 138 113 75 0 0
-0.0902 0.3570 -1.6057 0.131 0.405 0.905 141 116 74 0 0
-0.0796 0.3954 -1.6486 -0.138 0.984 0.109 97 74 39 0 0
-0.0863 0.3715 -1.6692 0.185 0.720 -0.669 107 83 52 0 0
-0.0991 0.3261 -1.7611 -0.479 0.865 0.152 121 98 62 0 0
-0.0988 0.3273 -1.7662 -0.528 0.674 0.517 126 102 62 0 0
-0.0797 0.3971 -1.9951 -0.265 0.962 0.070 97 74 40 0 0
-0.0732 0.4206 -2.0681 0.014 0.855 0.519 94 72 38 0 0
-0.0726 0.4231 -2.0723 0.014 0.855 0.519 97 77 42 0 0
-0.0414 0.5356 -2.2435 0.304 0.946 0.114 105 87 43 0 0
-0.0389 0.5447 -2.2604 -0.013 0.804 0.594 160 158 154 0 0
-0.1609 0.0828 -1.1375 -0.172 0.930 0.324 106 84 50 0 0
-0.1395 0.1609 -1.3873 0.354 0.609 0.710 168 142 98 0 0
-0.1384 0.1647 -1.3908 0.381 0.778 0.500 180 155 104 0 0
-0.1377 0.1672 -1.3951 0.381 0.778 0.500 165 142 93 0 0
-0.1359 0.1739 -1.4027 0.169 0.873 0.458 120 100 67 0 0
-0.1321 0.1874 -1.4124 0.105 0.742 0.663 138 112 71 0 0
-0.1293 0.1977 -1.4127 -0.028 0.957 0.288 144 117 74 0 0
-0.1283 0.2013 -1.4163 -0.202 0.828 0.523 139 112 71 0 0
-0.0856 0.3557 -1.6057 0.131 0.405 0.905 163 136 88 0 0
-0.0908 0.3375 -1.7586 -0.429 0.902 0.051 129 103 65 0 0
-0.0884 0.3463 -1.8225 0.122 0.986 0.113 123 98 61 0 0
-0.0831 0.3659 -1.9331 -0.114 0.931 0.347 107 85 49 0 0
-0.0825 0.3681 -1.9375 0.104 0.953 0.286 103 81 43 0 0
-0.0817 0.3711 -1.9472 0.096 0.929 0.358 99 76 42 0 0
-0.0822 0.3695 -1.9725 0.084 0.990 0.112 109 85 51 0 0
-0.0675 0.4226 -2.0716 0.014 0.855 0.519 95 75 41 0 0
-0.0367 0.5341 -2.2437 0.308 0.951 0.020 104 85 43 0 0
-0.0367 0.5343 -2.2560 0.370 0.888 0.274 85 73 50 0 0
-0.0349 0.5408 -2.2691 0.095 0.992 0.083 181 181 178 0 0
-0.1554 0.0839 -1.0023 0.119 0.979 0.167 83 63 36 0 0
-0.1555 0.0838 -1.0075 0.060 0.956 0.286 82 61 34 0 0
-0.1557 0.0829 -1.0796 -0.023 0.955 0.295 89 68 37 0 0
-0.1561 0.0816 -1.1270 -0.146 0.972 0.185 105 85 50 0 0
-0.1338 0.1627 -1.3912 0.381 0.778 0.500 158 136 90 0 0
-0.1328 0.1663 -1.3949 0.350 0.796 0.493 121 101 59 0 0
-0.1315 0.1710 -1.3980 0.336 0.618 0.711 115 96 63 0 0
-0.1306 0.1745 -1.4018 0.252 0.718 0.649 114 93 60 0 0
-0.1119 0.2422 -1.4601 -0.186 0.907 0.378 146 123 82 0 0
-0.0862 0.3358 -1.7647 -0.034 0.964 0.265 128 99 54 0 0
-0.0850 0.3399 -1.7794 -0.131 0.976 0.172 117 94 51 0 0
-0.0853 0.3390 -1.8033 -0.079 0.993 0.089 110 88 55 0 0
-0.0792 0.3612 -1.8878 0.199 0.951 0.236 108 86 48 0 0
-0.0789 0.3622 -1.8931 -0.121 0.936 0.332 113 91 54 0 0
-0.0663 0.4080 -1.9849 -0.126 0.986 0.106 97 74 40 0 0
-0.0317 0.5336 -2.2493 -0.085 0.868 0.489 91 72 39 0 0
-0.0309 0.5365 -2.2592 0.359 0.889 0.283 114 107 90 0 0
-0.0299 0.5402 -2.2684 0.095 0.992 0.083 178 177 174 0 0
-0.1492 0.0883 -1.0513 0.137 0.725 0.675 87 66 35 0 0
-0.1499 0.0857 -1.1406 -0.266 0.938 0.223 112 91 55 0 0
-0.1361 0.1359 -1.2305 0.244 0.693 0.679 198 197 195 0 0
-0.1290 0.1615 -1.3856 -0.178 0.766 0.617 125 100 64 0 0
-0.1282 0.1646 -1.3896 -0.053 0.880 0.472 108 87 52 0 0
-0.1275 0.1669 -1.3939 -0.053 0.880 0.472 92 76 44 0 0
-0.1258 0.1733 -1.4017 0.165 0.696 0.699 113 90 54 0 0
-0.1188 0.1985 -1.4109 -0.251 0.909 0.334 130 101 57 0 0
-0.0941 0.2884 -1.5775 -0.199 0.792 0.576 143 110 67 0 0
-0.0797 0.3407 -1.7780 -0.252 0.938 0.239 124 99 55 0 0
-0.0804 0.3382 -1.7854 -0.130 0.981 0.147 111 87 48 0 0
-0.0806 0.3375 -1.8209 0.073 0.983 0.169 101 79 45 0 0
-0.0743 0.3602 -1.8877 0.199 0.951 0.236 113 90 52 0 0
-0.0611 0.4082 -1.9837 0.350 0.933 0.084 96 73 39 0 0
-0.0604 0.4107 -2.0120 0.108 0.762 0.639 94 70 36 0 0
-0.0686 0.3809 -2.0533 -0.094 0.702 0.706 98 77 40 0 0
-0.0416 0.4791 -2.1835 0.150 0.947 0.284 100 77 37 0 0
-0.0412 0.4806 -2.1885 0.162 0.967 0.199 100 77 38 0 0
-0.1498 0.0679 -0.9312 -0.276 0.713 0.645 177 179 183 0 0
-0.1488 0.0717 -0.9350 -0.283 0.777 0.562 179 178 177 0 0
-0.1473 0.0773 -0.9382 -0.406 0.703 0.584 146 139 130 0 0
-0.1444 0.0874 -1.0154 -0.088 0.953 0.290 88 67 38 0 0
-0.1448 0.0860 -1.0517 0.099 0.991 0.093 90 69 37 0 0
-0.1450 0.0852 -1.0623 0.016 0.994 0.104 82 58 31 0 0
-0.1318 0.1329 -1.2365 0.036 0.952 -0.303 187 186 184 0 0
-0.0937 0.2714 -1.5087 0.050 0.917 0.396 162 133 90 0 0
-0.0894 0.2870 -1.5775 -0.004 0.913 0.409 136 105 65 0 0
-0.0746 0.3408 -1.7597 0.590 0.807 0.032 127 101 59 0 0
-0.0739 0.3431 -1.7872 0.258 0.921 0.292 104 81 48 0 0
-0.0735 0.3445 -1.8329 0.357 0.863 0.358 111 89 50 0 0
-0.0696 0.3587 -1.8878 0.060 0.878 0.474 115 91 53 0 0
-0.0690 0.3610 -1.8921 0.060 0.878 0.474 110 86 48 0 0
-0.0585 0.3990 -2.0079 0.295 0.955 -0.023 95 71 39 0 0
-0.0555 0.4098 -2.0117 0.108 0.762 0.639 93 69 37 0 0
-0.0634 0.3807 -2.0525 -0.094 0.702 0.706 93 73 37 0 0
-0.0453 0.4467 -2.1106 -0.446 0.720 0.532 126 101 62 0 0
-0.0163 0.5523 -2.2677 -0.108 0.976 0.187 194 194 194 0 0
-0.1388 0.0900 -0.9485 -0.155 0.840 0.521 75 58 30 0 0
-0.0866 0.2791 -1.5258 -0.053 0.717 0.695 99 76 38 0 0
-0.0834 0.2905 -1.5692 -0.099 0.987 0.126 110 84 46 0 0
-0.0525 0.4036 -1.6450 0.166 0.981 0.101 93 73 39 0 0
-0.0700 0.3393 -1.7083 0.086 0.984 0.154 79 61 30 0 0
-0.0539 0.3967 -2.0027 0.105 0.986 -0.126 92 69 36 0 0
-0.0539 0.3967 -2.0087 0.009 0.999 0.042 92 69 38 0 0
-0.0520 0.4036 -2.0094 0.136 0.961 0.242 91 69 37 0 0
-0.0511 0.4069 -2.0190 -0.536 0.798 0.274 89 67 35 0 0
-0.0402 0.4467 -2.1095 -0.288 0.784 0.551 153 124 82 0 0
-0.0133 0.5445 -2.2800 -0.189 0.941 0.282 199 199 200 0 0
-0.1342 0.0886 -0.9435 -0.169 0.862 0.478 73 54 31 0 0
-0.1339 0.0889 -1.0909 0.330 0.918 0.220 92 69 38 0 0
-0.1333 0.0908 -1.1109 0.078 0.907 0.414 95 72 41 0 0
-0.0875 0.2575 -1.4821 0.120 0.964 -0.238 100 76 32 0 0
-0.0814 0.2796 -1.5358 0.077 0.958 0.277 94 71 31 0 0
-0.0781 0.2918 -1.5455 -0.240 0.935 0.263 189 159 94 0 0
-0.0713 0.3165 -1.5866 -0.199 0.888 0.415 108 87 52 0 0
-0.0525 0.3854 -1.6613 -0.353 0.863 -0.362 92 72 37 0 0
-0.0213 0.4967 -2.1963 0.007 0.926 0.378 97 73 35 0 0
-0.1282 0.0908 -1.1469 -0.023 0.982 0.185 87 66 37 0 0
-0.1021 0.1855 -1.3876 0.392 0.764 0.512 125 103 61 0 0
-0.1010 0.1895 -1.3911 0.355 0.652 0.670 143 116 73 0 0
-0.0820 0.2591 -1.4805 0.480 0.876 0.049 98 76 30 0 0
-0.0777 0.2747 -1.5103 -0.068 0.993 -0.098 103 80 43 0 0
-0.0758 0.2817 -1.5339 0.184 0.975 0.120 92 68 31 0 0
-0.0763 0.2797 -1.5406 -0.042 0.897 0.440 92 68 24 0 0
-0.0727 0.2929 -1.5497 0.002 0.999 0.041 189 153 93 0 0
-0.0466 0.3887 -1.6584 -0.041 0.858 -0.512 96 77 44 0 0
-0.0453 0.3908 -1.9690 0.113 0.938 0.329 94 71 39 0 0
-0.0313 0.4414 -2.1179 -0.178 0.415 0.892 122 98 60 0 0
-0.0074 0.5287 -2.2418 0.087 0.606 0.790 99 80 39 0 0
-0.0063 0.5328 -2.2444 0.254 0.923 0.290 97 77 39 0 0
-0.0060 0.5338 -2.2498 0.056 0.978 0.202 93 75 38 0 0
-0.0057 0.5349 -2.2551 0.056 0.978 0.202 88 73 39 0 0
-0.1260 0.0828 -0.9247 -0.209 0.528 0.823 128 105 72 0 0
-0.1246 0.0858 -1.1014 0.258 0.960 0.105 96 72 41 0 0
-0.1230 0.0918 -1.1147 0.289 0.915 0.283 102 78 42 0 0
-0.1223 0.0941 -1.1398 -0.080 0.979 0.189 106 86 52 0 0
-0.0746 0.2678 -1.5025 -0.242 0.970 0.039 188 156 103 0 0
-0.0743 0.2687 -1.5075 -0.364 0.908 0.208 172 143 101 0 0
-0.0709 0.2811 -1.5446 0.408 0.646 0.645 118 92 47 0 0
-0.0678 0.2924 -1.5493 0.168 0.800 0.576 184 148 90 0 0
-0.0449 0.3737 -1.9209 0.092 0.983 0.162 97 74 40 0 0
-0.0354 0.4080 -2.0213 -0.317 0.913 0.258 85 65 32 0 0
-0.0348 0.4101 -2.0257 0.077 0.954 0.289 84 64 31 0 0
-0.0241 0.4490 -2.0985 0.024 0.961 0.277 159 127 79 0 0
-0.0261 0.4414 -2.1169 -0.178 0.415 0.892 133 107 70 0 0
-0.0138 0.4864 -2.1844 -0.008 0.926 0.378 100 75 37 0 0
-0.0140 0.4856 -2.1974 0.242 0.968 0.060 96 74 35 0 0
-0.0011 0.5333 -2.2491 0.136 0.965 0.225 93 75 39 0 0
-0.0007 0.5345 -2.2543 0.136 0.965 0.225 91 75 40 0 0
-0.1238 0.0723 -0.9177 -0.237 0.607 0.758 142 128 115 0 0
-0.1226 0.0771 -0.9211 -0.237 0.607 0.758 152 128 99 0 0
-0.1171 0.0944 -1.1392 -0.080 0.979 0.189 108 86 55 0 0
-0.1066 0.1308 -1.3475 0.145 0.974 -0.173 124 98 58 0 0
-0.1030 0.1445 -1.3465 0.379 0.506 0.774 122 98 60 0 0
-0.0973 0.1658 -1.3526 -0.012 0.921 0.389 120 97 61 0 0
-0.0969 0.1670 -1.3574 0.002 0.724 0.690 106 84 46 0 0
-0.0960 0.1707 -1.3610 -0.119 0.849 0.515 110 88 46 0 0
-0.0674 0.2756 -1.5084 -0.153 0.897 0.416 135 110 68 0 0
-0.0657 0.2817 -1.5381 -0.081 0.987 0.139 90 66 27 0 0
-0.0656 0.2820 -1.5434 0.056 0.901 0.430 103 77 36 0 0
-0.0331 0.4027 -1.6314 0.151 0.864 0.480 70 52 24 0 0
-0.0325 0.4049 -1.6356 0.272 0.902 0.336 83 64 31 0 0
-0.0379 0.3843 -1.6652 0.209 0.793 -0.572 98 77 46 0 0
-0.0495 0.3399 -1.7161 0.509 0.744 0.434 89 70 38 0 0
-0.0535 0.3240 -1.7957 -0.120 0.919 0.377 100 80 44 0 0
-0.0532 0.3250 -1.8008 -0.321 0.890 0.323 99 78 46 0 0
-0.0481 0.3438 -1.7998 0.200 0.956 0.214 103 80 45 0 0
-0.0403 0.3715 -1.9335 0.267 0.851 0.452 85 62 31 0 0
-0.0295 0.4108 -2.0182 -0.097 0.917 0.387 87 67 34 0 0
-0.0293 0.4114 -2.0238 -0.387 0.886 0.255 83 63 30 0 0
-0.0242 0.4301 -2.0576 0.186 0.758 0.625 85 63 32 0 0
-0.0088 0.4861 -2.1835 0.004 0.949 0.314 98 75 37 0 0
-0.0078 0.4898 -2.1865 0.280 0.762 0.584 95 73 34 0 0
0.0099 0.5549 -2.2785 -0.049 0.959 -0.279 204 204 204 0 0
-0.1037 0.1225 -1.3399 -0.667 0.644 0.374 129 103 63 0 0
-0.1022 0.1281 -1.3482 0.039 0.934 -0.354 130 102 61 0 0
-0.0920 0.1667 -1.3515 -0.249 0.844 0.476 109 86 47 0 0
-0.0893 0.1766 -1.3629 -0.168 0.773 0.612 121 100 63 0 0
-0.0589 0.2887 -1.5279 0.614 0.787 0.059 91 69 33 0 0
-0.0606 0.2821 -1.5371 -0.259 0.938 0.230 87 64 24 0 0
-0.0384 0.3645 -1.6047 0.298 0.414 0.860 146 122 84 0 0
-0.0328 0.3849 -1.6640 0.059 0.833 -0.551 97 77 46 0 0
-0.0426 0.3452 -1.8272 0.038 0.791 0.611 112 89 47 0 0
-0.0234 0.4143 -2.0145 0.316 0.947 -0.057 86 66 33 0 0
-0.0237 0.4130 -2.0215 -0.338 0.904 0.260 83 63 30 0 0
-0.0230 0.4155 -2.0378 -0.351 0.893 0.281 109 83 44 0 0
-0.0225 0.4173 -2.0424 -0.283 0.903 0.324 137 104 61 0 0
-0.0220 0.4192 -2.0470 -0.229 0.849 0.477 162 129 85 0 0
-0.0191 0.4297 -2.0570 0.104 0.724 0.682 85 63 33 0 0
-0.0127 0.4528 -2.1239 -0.593 0.620 0.514 91 68 31 0 0
0.0066 0.5237 -2.2367 -0.297 0.642 0.707 99 79 41 0 0
-0.1078 0.0953 -0.9491 -0.126 0.990 -0.067 88 67 38 0 0
-0.1076 0.0951 -0.9943 -0.149 0.945 0.291 91 68 37 0 0
-0.0957 0.1360 -1.2048 -0.175 0.921 0.347 152 123 89 0 0
-0.0575 0.2750 -1.5183 -0.017 0.596 0.803 84 63 27 0 0
-0.0510 0.2987 -1.5767 0.037 0.536 0.844 130 104 63 0 0
-0.0497 0.3035 -1.5794 0.208 0.472 0.857 139 111 72 0 0
-0.0423 0.3310 -1.5964 0.370 0.622 0.690 97 82 58 0 0
-0.0384 0.3458 -1.5986 -0.014 0.640 0.768 146 123 80 0 0
-0.0277 0.3853 -1.6630 0.043 0.832 -0.553 96 75 44 0 0
-0.0189 0.4119 -2.0153 0.390 0.892 -0.228 85 65 32 0 0
-0.0178 0.4156 -2.0367 0.122 0.980 0.160 109 83 45 0 0
-0.0170 0.4184 -2.0467 0.190 0.780 0.596 162 131 88 0 0
-0.0160 0.4221 -2.0498 0.009 0.896 0.443 121 95 58 0 0
-0.0149 0.4264 -2.0525 0.065 0.631 0.773 90 69 37 0 0
-0.0985 0.1105 -0.9984 -0.405 0.851 0.335 93 70 39 0 0
-0.0913 0.1312 -1.3292 -0.681 0.436 0.588 101 77 39 0 0
-0.0870 0.1470 -1.3488 -0.262 0.940 0.220 134 107 64 0 0
-0.0806 0.1713 -1.3480 0.350 0.900 0.261 126 100 60 0 0
-0.0520 0.2772 -1.5109 -0.103 0.981 -0.166 110 84 41 0 0
-0.0518 0.2778 -1.5161 -0.222 0.759 0.612 92 69 34 0 0
-0.0475 0.2937 -1.5291 -0.557 0.777 0.293 85 61 26 0 0
-0.0454 0.3012 -1.5523 -0.131 0.725 0.676 161 132 84 0 0
-0.0483 0.2895 -1.5813 -0.361 0.744 0.562 117 94 52 0 0
-0.0328 0.3484 -1.5963 0.085 0.946 0.311 147 121 78 0 0
-0.0326 0.3490 -1.6015 0.381 0.916 0.129 141 114 72 0 0
-0.0221 0.3830 -1.8869 0.013 0.895 0.446 93 73 38 0 0
-0.0249 0.3715 -1.9188 0.341 0.845 0.412 86 66 33 0 0
-0.0231 0.3783 -1.9317 0.130 0.862 0.490 80 57 26 0 0
-0.0117 0.4198 -2.0143 -0.425 0.782 0.455 82 62 29 0 0
-0.0126 0.4162 -2.0231 0.392 0.821 0.414 82 62 29 0 0
-0.0129 0.4150 -2.0362 0.218 0.958 0.184 107 82 46 0 0
-0.0115 0.4193 -2.0754 0.575 0.818 0.008 83 62 31 0 0
-0.0070 0.4365 -2.0800 0.257 0.941 0.219 84 65 33 0 0
-0.0059 0.4406 -2.0828 -0.116 0.944 0.308 84 62 31 0 0
-0.0055 0.4419 -2.0878 0.227 0.924 0.307 91 69 35 0 0
0.0024 0.4704 -2.1565 0.126 0.689 0.714 91 69 32 0 0
0.0037 0.4752 -2.1710 0.207 0.655 0.726 92 70 33 0 0
0.0208 0.5387 -2.2585 -0.152 0.949 0.275 92 80 55 0 0
-0.0971 0.0986 -0.9372 -0.079 0.963 0.259 93 72 42 0 0
-0.1007 0.0816 -1.0644 0.482 0.865 -0.143 60 41 20 0 0
-0.0851 0.1352 -1.3267 -0.660 0.433 0.614 95 72 35 0 0
-0.0767 0.1671 -1.3494 0.337 0.758 0.559 130 102 62 0 0
-0.0434 0.2902 -1.5414 -0.126 0.928 0.350 102 77 34 0 0
-0.0194 0.3805 -1.6091 0.084 0.747 0.660 117 94 59 0 0
-0.0265 0.3507 -1.7059 -0.228 0.958 -0.171 102 83 50 0 0
-0.0166 0.3827 -1.9634 -0.015 0.961 0.277 85 62 30 0 0
-0.0157 0.3858 -1.9730 0.216 0.768 0.603 88 65 33 0 0
-0.0064 0.4199 -2.0374 -0.051 0.998 0.023 110 85 46 0 0
-0.0022 0.4352 -2.0800 0.257 0.941 0.219 83 64 32 0 0
0.0002 0.4439 -2.0974 0.033 0.967 0.253 122 93 42 0 0
-0.0529 0.2378 -1.4055 0.147 0.889 0.433 198 169 114 0 0
-0.0361 0.2998 -1.5024 0.327 0.803 0.498 96 72 38 0 0
-0.0355 0.3021 -1.5066 0.327 0.803 0.498 94 74 39 0 0
-0.0152 0.3777 -1.6101 0.287 0.429 0.856 106 87 55 0 0
-0.0131 0.3840 -1.6726 -0.035 0.743 -0.668 105 85 55 0 0
-0.0201 0.3548 -1.7594 -0.208 0.977 -0.042 119 95 51 0 0
0.0059 0.4459 -2.1009 0.262 0.936 0.236 174 144 84 0 0
0.0061 0.4466 -2.1064 0.289 0.946 0.146 190 158 106 0 0
0.0115 0.4659 -2.1581 -0.035 0.738 0.673 89 67 30 0 0
-0.0747 0.1356 -1.3361 -0.324 0.885 -0.334 111 86 42 0 0
-0.0764 0.1290 -1.3446 -0.175 0.536 0.826 147 119 70 0 0
-0.0751 0.1341 -1.3477 -0.175 0.536 0.826 153 124 75 0 0
-0.0310 0.3004 -1.5068 0.327 0.803 0.498 90 70 34 0 0
-0.0321 0.2943 -1.5652 0.293 0.931 0.218 88 64 25 0 0
-0.0223 0.3314 -1.5987 -0.039 0.607 0.794 114 96 60 0 0
-0.0075 0.3867 -1.6701 0.152 0.723 -0.673 104 83 53 0 0
-0.0096 0.3784 -1.6810 0.200 0.707 -0.679 101 81 50 0 0
-0.0168 0.3491 -1.7224 0.008 0.945 0.327 81 64 36 0 0
-0.0153 0.3544 -1.7474 0.079 0.985 0.154 102 80 47 0 0
0.0048 0.4244 -2.0079 0.155 0.969 -0.194 87 67 32 0 0
0.0049 0.4237 -2.0507 -0.120 0.912 0.393 112 88 47 0 0
0.0066 0.4302 -2.0576 0.252 0.790 0.559 87 65 34 0 0
-0.0883 0.0694 -1.1245 0.484 0.825 0.293 15 9 3 0 0
-0.0259 0.3006 -1.5169 0.176 0.794 0.582 78 58 23 0 0
-0.0185 0.3268 -1.5952 -0.113 0.830 0.546 149 130 97 0 0
-0.0063 0.3739 -1.6109 0.245 0.304 0.920 128 105 75 0 0
0.0024 0.4070 -1.6454 -0.407 0.682 0.607 83 62 31 0 0
-0.0022 0.3880 -1.6685 0.248 0.698 -0.672 109 88 57 0 0
-0.0130 0.3447 -1.7073 -0.034 0.977 0.211 101 82 49 0 0
-0.0050 0.3708 -1.8744 -0.255 0.871 0.421 89 69 37 0 0
-0.0029 0.3787 -1.8746 0.274 0.945 0.179 93 72 40 0 0
-0.0047 0.3714 -1.8916 0.003 0.894 0.447 90 70 38 0 0
0.0103 0.4251 -2.0425 -0.273 0.863 0.425 161 129 82 0 0
0.0240 0.4744 -2.1674 0.128 0.790 0.599 88 68 33 0 0
-0.0379 0.2370 -1.4256 -0.102 0.974 0.201 176 145 92 0 0
-0.0363 0.2429 -1.4333 -0.062 0.923 0.381 151 121 71 0 0
-0.0019 0.3719 -1.6114 0.161 0.293 0.943 108 84 58 0 0
0.0007 0.3730 -1.8778 0.126 0.900 0.418 89 68 36 0 0
0.0012 0.3742 -1.8946 0.004 0.999 0.054 82 61 30 0 0
0.0130 0.4154 -2.0430 0.544 0.691 0.476 114 89 43 0 0
-0.0862 0.0395 -1.0879 -0.291 0.945 -0.148 100 91 79 0 0
-0.0862 0.0393 -1.0932 0.076 0.982 0.171 90 80 69 0 0
-0.0857 0.0407 -1.0979 -0.151 0.963 0.221 79 68 58 0 0
-0.0616 0.1321 -1.2079 -0.003 0.782 0.623 179 153 105 0 0
-0.0473 0.1873 -1.2362 -0.174 0.977 0.122 141 114 64 0 0
-0.0546 0.1554 -1.3250 -0.465 0.853 -0.239 81 59 19 0 0
-0.0354 0.2280 -1.4025 0.050 0.668 0.743 195 167 118 0 0
-0.0346 0.2310 -1.4064 -0.004 0.796 0.605 180 150 102 0 0
-0.0170 0.2964 -1.5179 0.397 0.747 0.534 86 63 29 0 0
0.0048 0.3696 -1.8675 -0.062 0.911 0.407 92 72 38 0 0
0.0372 0.4858 -2.1741 -0.023 0.948 0.319 86 63 29 0 0
0.0376 0.4873 -2.1790 0.031 0.992 0.119 85 62 28 0 0
0.0420 0.5041 -2.1954 0.048 0.884 0.465 85 65 30 0 0
0.0590 0.5693 -2.2427 -0.280 0.479 0.832 174 171 165 0 0
-0.0801 0.0509 -0.9004 -0.063 0.115 0.991 178 178 180 0 0
-0.0637 0.1136 -0.9543 0.143 0.796 0.588 85 65 38 0 0
-0.0790 0.0488 -1.0581 0.584 0.798 -0.149 78 69 60 0 0
-0.0795 0.0466 -1.0640 0.391 0.918 -0.062 124 118 113 0 0
-0.0791 0.0481 -1.0687 -0.035 0.972 -0.232 162 158 156 0 0
-0.0796 0.0452 -1.0957 -0.060 0.944 -0.325 152 150 148 0 0
-0.0636 0.1054 -1.1765 0.179 0.750 0.637 96 82 50 0 0
-0.0569 0.1307 -1.2079 0.008 0.865 0.502 164 141 86 0 0
0.0058 0.3566 -1.7827 0.137 0.677 0.723 67 46 25 0 0
0.0093 0.3681 -1.8502 0.145 0.819 0.555 83 64 32 0 0
0.0238 0.4185 -2.0205 0.706 0.606 0.367 77 56 26 0 0
0.0291 0.4378 -2.0719 0.382 0.776 0.502 83 62 31 0 0
0.0279 0.4320 -2.0887 -0.151 0.869 0.471 83 63 31 0 0
-0.0726 0.0613 -0.8967 -0.077 0.367 0.927 178 178 180 0 0
-0.0599 0.1105 -0.9302 0.020 0.994 0.103 98 77 49 0 0
-0.0583 0.1159 -0.9531 0.144 0.901 0.408 91 71 44 0 0
-0.0684 0.0731 -1.0079 0.899 0.308 -0.311 67 49 28 0 0
-0.0747 0.0464 -1.0481 0.611 0.769 -0.187 76 66 58 0 0
-0.0747 0.0460 -1.0534 0.519 0.850 -0.095 130 125 120 0 0
-0.0747 0.0459 -1.0586 0.216 0.974 0.069 178 176 175 0 0
-0.0130 0.2749 -1.4631 0.421 0.797 0.434 96 72 34 0 0
-0.0120 0.2788 -1.4718 0.137 0.828 0.543 75 54 28 0 0
0.0080 0.3468 -1.7482 -0.004 0.895 0.446 93 71 36 0 0
0.0101 0.3540 -1.7722 0.609 0.750 0.258 72 51 24 0 0
0.0110 0.3575 -1.7755 0.478 0.789 0.386 68 48 23 0 0
0.0110 0.3557 -1.8171 0.160 0.833 0.530 79 62 33 0 0
0.0280 0.4148 -2.0224 0.706 0.606 0.367 78 56 26 0 0
0.0330 0.4321 -2.0876 -0.099 0.995 0.025 84 62 31 0 0
0.0438 0.4722 -2.1588 0.461 0.799 0.385 86 64 30 0 0
-0.0536 0.1150 -0.9529 0.144 0.901 0.408 91 71 42 0 0
-0.0699 0.0457 -1.0428 0.599 0.758 -0.259 109 101 95 0 0
-0.0702 0.0441 -1.0485 0.216 0.974 0.069 175 171 168 0 0
-0.0661 0.0573 -1.1267 0.277 0.929 0.245 28 22 16 0 0
-0.0650 0.0610 -1.1409 0.384 0.845 0.373 59 49 40 0 0
-0.0645 0.0628 -1.1454 0.384 0.845 0.373 43 33 25 0 0
-0.0524 0.1091 -1.1949 0.251 0.920 0.302 151 135 86 0 0
-0.0469 0.1240 -1.3542 -0.270 0.741 0.614 172 138 71 0 0
-0.0197 0.2310 -1.3991 0.246 0.719 0.650 166 138 93 0 0
0.0209 0.3821 -1.6683 -0.025 0.761 -0.648 96 76 42 0 0
0.0180 0.3697 -1.6818 -0.170 0.792 -0.587 81 63 34 0 0
0.0149 0.3535 -1.7659 0.184 0.983 -0.010 81 58 23 0 0
0.0154 0.3550 -1.7764 0.107 0.900 0.422 77 56 29 0 0
0.0158 0.3563 -1.7870 -0.022 0.999 0.036 73 53 26 0 0
0.0144 0.3502 -1.7969 0.010 0.989 0.145 76 54 29 0 0
0.0280 0.3968 -1.9752 -0.161 0.952 0.261 90 70 37 0 0
0.0324 0.4123 -2.0234 0.704 0.665 0.250 80 57 26 0 0
0.0391 0.4365 -2.0770 0.418 0.799 0.433 80 59 28 0 0
0.0388 0.4350 -2.0843 0.238 0.968 0.077 80 59 27 0 0
0.0391 0.4359 -2.0957 0.317 0.752 0.578 100 78 41 0 0
0.0500 0.4757 -2.1795 0.607 0.782 0.142 82 59 26 0 0
-0.0657 0.0428 -1.0382 0.040 0.999 0.018 122 112 107 0 0
-0.0661 0.0376 -1.1075 0.254 0.924 0.287 57 53 53 0 0
-0.0611 0.0566 -1.1369 0.253 0.963 0.091 40 31 23 0 0
-0.0483 0.1059 -1.1799 0.161 0.952 0.258 145 122 56 0 0
-0.0308 0.1725 -1.2668 0.115 0.916 -0.384 79 58 28 0 0
-0.0022 0.2778 -1.4818 0.438 0.765 0.472 121 94 53 0 0
0.0118 0.3287 -1.6007 0.258 0.934 0.246 176 150 101 0 0
0.0267 0.3876 -1.6199 -0.060 0.864 0.499 138 117 81 0 0
0.0261 0.3830 -1.6669 -0.352 0.792 -0.499 98 77 43 0 0
0.0241 0.3744 -1.6780 -0.148 0.777 -0.611 83 64 35 0 0
0.0191 0.3502 -1.7672 0.521 0.775 -0.357 88 66 30 0 0
0.0189 0.3480 -1.7975 -0.156 0.924 0.349 73 52 25 0 0
0.0330 0.3967 -1.9683 -0.008 0.917 0.400 88 68 35 0 0
0.0339 0.4000 -1.9718 0.211 0.845 0.491 90 70 37 0 0
0.0340 0.3997 -1.9840 0.001 0.856 0.516 91 70 39 0 0
0.0441 0.4353 -2.0952 0.415 0.813 0.409 98 77 41 0 0
-0.0443 0.1135 -0.9526 0.476 0.865 0.160 86 67 37 0 0
-0.0599 0.0457 -1.0366 0.645 0.467 -0.605 182 180 180 0 0
-0.0629 0.0300 -1.1099 0.504 0.591 0.630 116 115 116 0 0
-0.0342 0.1412 -1.2169 -0.133 0.817 0.561 155 135 80 0 0
-0.0333 0.1446 -1.2207 -0.266 0.919 0.290 138 118 67 0 0
-0.0252 0.1709 -1.3522 0.024 0.878 0.478 142 111 71 0 0
0.0028 0.2789 -1.4643 0.160 0.700 0.696 117 93 61 0 0
0.0029 0.2789 -1.4697 0.278 0.862 0.424 77 56 30 0 0
0.0026 0.2775 -1.4759 0.354 0.927 0.126 75 52 22 0 0
