ply
format ascii 1.0
element vertex 683
property float x
property float y
property float z
property uchar diffuse_red
property uchar diffuse_green
property uchar diffuse_blue
end_header
-0.22797718248208942 0.06739102217720461 -1.4463370032225844 116 101 81
-0.23155544070263695 0.08352864098366308 -1.4438654427254323 120 103 82
-0.22994779400872728 0.0759697039143134 -1.4529846738087004 118 101 79
-0.23356902221785691 0.09230606667941638 -1.4503548856478456 112 93 70
-0.2398235339350442 0.12067985034397305 -1.4417135968040757 109 92 66
-0.23950537348984224 0.11901506839085929 -1.447899983200381 107 87 58
-0.23925774385158927 0.11767215694411814 -1.4539394755170214 111 90 59
-0.23994133902864906 0.12058582132217238 -1.4578607120395934 110 89 60
-0.23987955525169785 0.12009189066838016 -1.46349069932433 110 91 69
-0.23988532701575854 0.11990646591998166 -1.4689744571323755 92 76 57
-0.2401999847995711 0.12113309075309764 -1.4737517228259758 81 67 49
-0.240726149962861 0.12332678128475472 -1.4780406722291755 80 64 44
-0.24074291821267907 0.1231909523961176 -1.4835167642535982 108 88 58
-0.24077783978046996 0.12313782997736389 -1.488958604260543 117 95 63
-0.24094791692336595 0.1237025783077797 -1.4940908707249192 110 89 58
-0.24141642475894018 0.12563217864269427 -1.4985250346897583 89 71 45
-0.2421644229237891 0.12884029034313105 -1.5022980890727444 107 88 62
-0.24382063368357887 0.1362034933352922 -1.503909131537042 113 91 60
-0.2444700747000096 0.13896134712673874 -1.5079001133117003 110 91 60
-0.2439940922277301 0.136569927808059 -1.514581534878229 104 85 55
-0.2454899796318969 0.14320082604116668 -1.5165436602382585 92 72 44
-0.24699676790654812 0.14988229391289076 -1.5184617229785158 100 79 52
-0.2486058337503015 0.15703253213152507 -1.5201142955733504 82 62 38
-0.2476834830072197 0.15259757456308326 -1.5278944862566377 69 51 27
-0.24649188955805784 0.14692927266025674 -1.5363559275443988 112 94 63
-0.2449316389705336 0.13957227267915345 -1.545749048972005 134 112 73
-0.24505513533574996 0.13992188548561024 -1.551044820132667 135 112 77
-0.24737762441399586 0.150338761803594 -1.5509286932039352 96 73 51
-0.2445642070950742 0.1372417202600441 -1.5634808993233142 98 78 54
-0.24393625385339046 0.1341494857622474 -1.5706680152699846 112 91 61
-0.2471962617229077 0.14886051589769733 -1.5681907124292298 123 101 65
-0.24932150590959545 0.15837667335631678 -1.568500514737262 123 101 64
-0.25109857888023907 0.16629935035952997 -1.569654454635014 118 96 59
-0.25273585583334346 0.1735826108513126 -1.5711372063699012 119 97 60
-0.25660253765134033 0.1908640699855209 -1.5725389645592436 129 106 73
-0.25719583665665746 0.19336710144238245 -1.5766109483158086 144 121 83
-0.25808599006370025 0.1972303074658036 -1.5799228155188847 117 95 61
-0.2590887199308631 0.20160962792071901 -1.5829387991213562 130 106 70
-0.2600917956989769 0.20599089586621788 -1.585944487052882 161 138 95
-0.26155048332412356 0.2124604850362719 -1.5877646924549953 142 119 79
-0.2630487765251929 0.21911227519687043 -1.5894645428410392 145 121 82
-0.2642107738566547 0.22422338115249207 -1.5920200645657747 144 121 78
-0.26560814830010915 0.2304138898555767 -1.5939491513217066 153 128 83
-0.26737029050614 0.2382771995139255 -1.5949065889612035 183 158 116
-0.2681695910233856 0.2417272504011932 -1.598369885533315 139 116 74
-0.2696914356429855 0.2484902984845625 -1.5999225866365583 163 142 96
-0.2711443851743623 0.25493818569537363 -1.6016383702110377 124 101 63
-0.2731137281109203 0.2637547279540025 -1.6019654058379071 149 122 87
-0.27449998495453054 0.26989833501088095 -1.6038181454363085 158 128 86
-0.27570893852528044 0.27522942494467234 -1.6061280194985652 186 158 107
-0.2764257882760983 0.2783039297929505 -1.609744305001839 189 163 112
-0.27728571594505613 0.2820349060937686 -1.6129710187003685 187 163 119
-0.2759805033716004 0.27583386948344213 -1.6220383623561587 119 94 56
-0.2774912886299463 0.28255057449011345 -1.6235069962972926 121 96 57
-0.27766012939646756 0.28289662875328614 -1.634171026231041 120 94 55
-0.2789834479893061 0.28875429130767694 -1.6361217049803338 116 91 54
-0.2788907344766678 0.2881141625600242 -1.6419471389422826 117 94 56
-0.27878551522329786 0.28741622723863974 -1.6478177211024678 114 92 54
-0.2782587759169772 0.2847831415421517 -1.654865292539126 133 110 69
-0.27779667236030114 0.2824460221442338 -1.661752343161118 134 108 68
-0.26899734341750936 0.24183525219452473 -1.691877535475729 136 108 73
-0.2698407958187416 0.24548750912641637 -1.6952302709764318 130 106 70
-0.2704149616218002 0.24790364007810067 -1.6993313403136037 127 103 65
-0.2662611793874418 0.2286104925867259 -1.7167328868998095 127 103 65
-0.266777628137284 0.23075998388216729 -1.7210383860104568 128 104 66
-0.2668561637636735 0.23089840666785522 -1.7265837614758184 124 100 63
-0.26674538481746135 0.2301670435265477 -1.7326749923678941 121 97 61
-0.2628596881356162 0.21209639821682796 -1.7495420303627962 119 95 59
-0.2639438995281372 0.2168519971729177 -1.7522732429216106 123 100 63
-0.2642983633485212 0.2182556388208089 -1.757088018955452 136 110 66
-0.2623193037117565 0.20893832732311685 -1.7686265500057832 173 140 86
-0.2591716227241943 0.1942497869913523 -1.7835896341374124 165 129 75
-0.25931440297780145 0.1946782704431385 -1.7890822458160318 148 117 72
-0.2624222471696477 0.2087321054835774 -1.7859561497808512 122 95 55
-0.2639387882580089 0.21547463471101758 -1.787424286949245 127 102 62
-0.2649445895685508 0.21987049641408185 -1.7903683550143612 124 102 65
-0.2640728362839664 0.21563655322848208 -1.7988188657225341 121 100 65
-0.26419774059683376 0.21598310099438123 -1.804357999148948 105 84 52
-0.2644677047197946 0.21699624716910593 -1.809475339625193 84 61 28
-0.2648146148505046 0.21836299235640694 -1.8143687783804694 131 107 69
-0.26520188336599904 0.21991519285205863 -1.8191449957520864 124 100 62
-0.2656483522125332 0.2217395362103966 -1.8237465445441687 128 104 67
-0.26618340616729175 0.22397122235790146 -1.8280836472014257 126 102 64
-0.26684852318131325 0.22680111380675938 -1.8320290164997537 121 97 58
-0.2680112314673355 0.2319198062246246 -1.834470372836124 122 99 59
-0.2681967672956479 0.23254412188410606 -1.8398553760827685 122 98 59
-0.26881863452034055 0.23517544123456152 -1.8439219575301593 120 96 57
-0.2711953315708808 0.245880200359417 -1.8426418036463634 118 92 55
-0.2705179211670179 0.24253437107684445 -1.8506558585493609 118 92 55
-0.2695178881382073 0.23770313232949924 -1.8596819848205592 120 94 57
-0.27043732320625935 0.24170373140098206 -1.8628351601167883 119 94 57
-0.2707873655482834 0.24308421282096815 -1.86773655045412 118 94 56
-0.27175641642826576 0.24731359905429678 -1.870725061333315 120 96 60
-0.2720617892466336 0.24848848187166456 -1.875764829140635 119 95 59
-0.2716528358157284 0.24637494834280238 -1.8830334250135758 117 95 59
-0.2715095123985446 0.24548359941137454 -1.889490047788257 115 93 53
-0.2717150728301971 0.24619804801590311 -1.8948657923351475 112 90 52
-0.2715194196936918 0.2450648945621247 -1.9015091419923686 109 86 51
-0.2713267454901743 0.2439449224111988 -1.9081570107262849 107 85 48
-0.27113759829068046 0.24284065768843333 -1.9148076088224153 108 86 49
-0.27223651300249097 0.24766819879763086 -1.9173825145144043 111 89 52
-0.2713279728486544 0.24324982625860742 -1.926339173242076 115 93 56
-0.2703293757186921 0.23841551905833164 -1.935612002512348 120 98 61
-0.2763890168397679 0.26609593051828895 -1.9222917701266988 115 93 56
-0.27533403600600037 0.261002267943362 -1.931735122881485 109 87 47
-0.27547143236851157 0.2614013656144943 -1.9373639378633203 106 84 43
-0.2762535522243749 0.2647710481987359 -1.9409139760234322 106 84 43
-0.27623934475033984 0.2644711865924208 -1.9470430137610768 104 82 41
-0.27660732401000954 0.26593232779483605 -1.9519380897817071 103 80 39
-0.277405477620894 0.2693761041354271 -1.9554307806795175 111 88 47
-0.2764090993188786 0.2645481410474767 -1.964797130325525 117 94 53
-0.2777900575044573 0.27067837461998934 -1.9663804340340714 113 90 49
-0.27931217599846947 0.27746010116329695 -1.9674802515902479 110 87 46
-0.28047700176839596 0.28259525724795614 -1.969740710827331 113 90 49
-0.2806024531684146 0.2829382537733932 -1.9754356617972466 109 86 45
-0.28107302492100006 0.284872485387242 -1.9799897739577417 106 83 42
-0.2815077686998648 0.28664145897523763 -1.9846640630274688 98 75 35
-0.28122874360637207 0.28511824954342024 -1.9917297859288052 94 72 33
-0.28086153400321506 0.2831876482658126 -1.9991078384935368 95 73 36
-0.28064402159659174 0.2819469250807616 -2.005999504959881 95 72 35
-0.28070000950359897 0.28196742678695885 -2.0119817363589196 98 75 39
-0.2815972170796016 0.285868895674013 -2.0151213593389907 98 74 38
-0.28060653842983363 0.28105935942432597 -2.024672655053489 95 72 36
-0.2787720839914034 0.27235482443526576 -2.037133301341051 96 73 36
-0.279852978161762 0.2771031261130973 -2.039667930158886 111 87 48
-0.2807866141297369 0.2811722186824293 -2.0426958417518084 104 78 41
-0.28239062555592487 0.2883360743717178 -2.0434069184208026 99 78 43
-0.28389133031788316 0.29502392385374354 -2.0444515354385056 116 93 54
-0.2845529324959636 0.29783865441437973 -2.048381407175087 174 142 95
-0.28240614448577694 0.28768672476530016 -2.0620647031717296 122 96 51
-0.28324167352382673 0.29130369128227773 -2.0654114085766633 112 87 47
-0.2819432932408278 0.2850665839165436 -2.076209821818248 109 85 44
-0.28179883484532475 0.2841572601599508 -2.08300087612779 106 83 42
-0.28429628071949686 0.2954498225885082 -2.080515216022701 109 84 44
-0.2885134304228173 0.3146876886515628 -2.071921274817529 109 84 44
-0.28846731580696694 0.31278094618999436 -2.1160401410936247 175 145 90
-0.28773411840524765 0.3091481026084272 -2.125011960566124 175 146 97
-0.2882574966321584 0.31132329339747333 -2.129456755903822 124 100 57
-0.28909361106353915 0.3149443893502087 -2.1327644044892953 109 88 45
-0.29173795502084965 0.3269265988551282 -2.129472671586922 108 85 44
-0.29075505480773295 0.3221375425493785 -2.1393975009893844 105 82 41
-0.29284060932637734 0.3315376396922235 -2.1381013701502902 106 83 42
-0.2975616089049913 0.35312807578768274 -2.127076661168069 103 80 39
-0.2961301671824011 0.3462642585604723 -2.1386577000172453 101 78 37
-0.29663338188625865 0.3483482850167074 -2.1431223573891653 100 76 36
-0.29706451420716307 0.3500988398400302 -2.1478544561923516 102 77 37
-0.29965896126422886 0.36185838292485417 -2.144535835111191 104 79 39
-0.300044196074209 0.36339736417346846 -2.1494184971389267 105 79 42
-0.29845972760287776 0.355821315940426 -2.1616786323635018 109 83 45
-0.2991685456449887 0.3588568071866814 -2.1653729069049197 110 85 45
-0.2983661407583096 0.354897903800323 -2.174754313466612 107 82 42
-0.2997584162570699 0.36109672508471063 -2.1758743976619592 106 81 41
-0.30173575716453116 0.3700047368474355 -2.174758166492646 113 88 48
-0.3032855432759433 0.3769345632550479 -2.175233628424191 110 85 45
-0.30455365200704176 0.3825610885538385 -2.1767590837630335 111 86 46
-0.30528271080880354 0.38569217216978713 -2.1803275650680805 112 88 48
-0.3071396165204534 0.39404650607435926 -2.1795676968594475 110 85 45
-0.30294917928182635 0.37439420284048436 -2.2020252891812833 111 86 44
-0.3036757590227861 0.3775127646364211 -2.2056302973690105 116 89 46
-0.3046152263243663 0.3816176794015639 -2.2084070265366997 115 88 45
-0.30816665361504303 0.3978234643115032 -2.2010445684579074 118 91 48
-0.31034224027157087 0.40765741473494166 -2.1989643473758496 119 92 49
-0.31136177059754894 0.4121361316480463 -2.201355527355266 124 97 54
-0.3090972046612461 0.401396705498479 -2.2165820368284956 119 92 49
-0.31127405785527207 0.41123847745447717 -2.2144461928573165 120 93 50
-0.3139057679965086 0.42318993820438977 -2.210482493204875 119 92 49
-0.3125651823892005 0.41673031845191494 -2.2221449500623796 121 94 51
-0.3140959796942758 0.4235801930723934 -2.222485962964506 124 97 54
-0.3151841274296755 0.4283787568518191 -2.2245601396175263 121 94 51
-0.31547699390613715 0.4294903924291975 -2.22978618358129 118 93 49
-0.3159298697149351 0.4313438301947997 -2.234378127138674 117 93 49
-0.31249884767935887 0.41518547154790264 -2.2545191414616155 117 93 49
-0.31434797390601654 0.42351291047079653 -2.2535521026940826 116 92 49
-0.3144437059960065 0.4237085455359526 -2.259613527698115 122 98 57
-0.3163815445634453 0.4324491331802687 -2.2582461691372306 112 90 50
-0.31810942298188477 0.440216931365796 -2.257695694892601 109 92 64
-0.31982671652060796 0.4479367179770539 -2.2571596616857637 139 131 118
-0.32161428155537514 0.4559836729801153 -2.256309070675627 174 172 167
-0.19341349880137687 -0.06415649730302692 -1.4436125379636926 130 124 122
-0.19957172736686418 -0.03645658155813042 -1.4362346181056205 103 95 88
-0.20520272319417432 -0.01114220231414137 -1.4298841698532252 92 84 74
-0.20613936795409654 -0.007096157418597537 -1.4334751099291496 102 94 83
-0.2088005850641637 0.004765158215820908 -1.4333607038497944 98 89 77
-0.21128899721433625 0.015844627705245584 -1.433582115224784 112 100 86
-0.21301911198201315 0.023488553547580004 -1.43540895245882 106 94 79
-0.21455511068276997 0.030253389147881282 -1.4376362525765305 107 94 78
-0.21719546930609668 0.042024639712559264 -1.4374408120364786 115 101 85
-0.21814708524287957 0.04614200397107976 -1.4409015431700882 115 99 83
-0.22048569569498394 0.05654738082554517 -1.4413103172351944 117 100 83
-0.22254112971329496 0.06567003765679824 -1.4423118528003818 119 102 84
-0.22374565897983753 0.07093566611191376 -1.4451689915179706 114 98 75
-0.22593899600505812 0.080685230910437 -1.4458186184382575 119 101 78
-0.22764532955247518 0.08822747373975276 -1.4475247858952358 113 94 70
-0.23017896148181144 0.09952213196258414 -1.4473593482208642 109 90 65
-0.2325382005011175 0.11002712409438026 -1.447550743505649 110 93 66
-0.23468520412165955 0.1195706612928149 -1.4481886728474764 103 83 55
-0.23540847113437902 0.122657463749131 -1.4520200775766532 105 84 54
-0.2363633414078889 0.12679497848752974 -1.4553213523647097 115 92 63
-0.23579200023015362 0.12400930778569219 -1.462094518305528 109 89 59
-0.23593715317514635 0.12447349773995614 -1.4672460402000185 116 97 70
-0.23638293152231032 0.12630141190010308 -1.471712834313689 85 68 46
-0.2368521072082963 0.12823546074827424 -1.4761264057337207 77 62 43
-0.2368105051855104 0.12785179436557387 -1.4817225275600032 88 71 46
-0.23594679320390652 0.1237371473787412 -1.4892377380647073 112 90 56
-0.23717148647070815 0.12909929355594507 -1.4919064977456995 130 107 66
-0.23721644722377178 0.12910765423678278 -1.4973237113570554 109 88 58
-0.2378191920710304 0.13164742643354277 -1.5014382813133467 91 72 48
-0.2392777982085023 0.1380721378167551 -1.5035328240497763 110 90 60
-0.24047633519282813 0.1433168787094583 -1.5062259632290242 116 93 63
-0.24255049614172525 0.15253717461468297 -1.506826785254816 115 93 62
-0.242842796520639 0.1536686956405059 -1.5116480194772188 105 82 54
-0.24305196140180468 0.15442262991219802 -1.5166715898459664 100 79 49
-0.24461954260266483 0.16134452933393056 -1.5184376239605015 91 71 44
-0.24548721835182663 0.16508883466197416 -1.5218717394384937 73 52 30
-0.24535480405929674 0.1642916630878195 -1.5277185653957017 74 54 31
-0.24240149060460536 0.15068265949124504 -1.5404254548204053 121 99 66
-0.24107137531080886 0.14444395838452273 -1.549237575971582 141 117 81
-0.2413390583225323 0.14546170711388517 -1.5541741635956512 117 94 68
-0.2404884075556194 0.14139922095998098 -1.5618596641672022 99 78 52
-0.24011879785144458 0.13952119981842387 -1.5683839557916859 117 96 65
-0.23957801268377688 0.136864954824498 -1.575346729831349 120 97 62
-0.2432582908046479 0.15338646340191647 -1.5718547977002932 121 99 64
-0.24641044135026638 0.16751026855110912 -1.5696211720249929 119 95 59
-0.2469475890095112 0.1697528364834135 -1.5738748892082903 123 99 61
-0.2493462585194075 0.18045502612081177 -1.5734592255793587 122 98 63
-0.2517788556889188 0.19131262007300448 -1.572923995897754 114 90 58
-0.2533539772202002 0.19827415107748247 -1.574519722564224 127 105 65
-0.2543876387058281 0.2027752217128057 -1.577468378510184 120 97 58
-0.2552031662794195 0.2062850662996552 -1.5809620504725967 139 118 78
-0.256384386489559 0.21145757517925706 -1.5835162291589169 170 148 98
-0.2576916793571441 0.21720370103714048 -1.5857348649283427 166 144 96
-0.2585820451261179 0.22105472060475134 -1.5890104680212807 149 126 79
-0.25942226161811976 0.22467797264618322 -1.592408078828269 161 137 90
-0.26104043808656197 0.23183908733344338 -1.593785129862707 153 128 83
-0.2629305472934599 0.24023758507639825 -1.5944350878836517 169 144 99
-0.2637369382769772 0.24370827900820508 -1.5978847896018147 133 106 61
-0.2655788163862962 0.2518888750805793 -1.598619526266186 156 131 87
-0.2672467500413307 0.2592791456624536 -1.599786090640749 135 112 78
-0.26883071138849035 0.26628820124089503 -1.601152162872239 135 109 78
-0.27012589981874763 0.2719842714247808 -1.603261402165769 157 126 85
-0.2714555579206154 0.2778376952048714 -1.605264217207983 181 153 101
-0.27235427273421925 0.28173092199385924 -1.608398512882816 183 157 108
-0.2733259566500083 0.2859564505069348 -1.6113301297503928 193 169 125
-0.2724427612637556 0.2817415663205991 -1.61922425676449 130 106 65
-0.27244766453414243 0.281567429532881 -1.6247548632622857 119 95 54
-0.2715377856674742 0.27722961688425374 -1.6327629450050296 120 95 56
-0.2720561641082759 0.27939166549013966 -1.6369289440377628 117 93 55
-0.2749922443708725 0.2925588001717975 -1.6345246561164943 111 90 54
-0.27497506053831794 0.2922837122352828 -1.640126950025664 107 87 51
-0.2749361416840854 0.29190935050060174 -1.6457978659795962 101 84 47
-0.27437286330869637 0.2891473159019826 -1.6529178056694194 132 113 74
-0.2713485337976018 0.27517897103995426 -1.6668359890232605 133 110 70
-0.2700314551024657 0.26898230455117556 -1.6761010641708505 135 110 71
-0.2672369803873491 0.25605661003029556 -1.6894967797717355 133 108 71
-0.2656125001196531 0.24845710633088275 -1.6996983378408794 132 106 69
-0.26364807448055083 0.23930791538510943 -1.710888545481739 130 104 67
-0.26304120988827895 0.23634057343800768 -1.7183218805244593 128 101 64
-0.2602955994070228 0.22363013151986116 -1.7317871809793195 130 104 67
-0.2611717838799537 0.22741666229114704 -1.735099552113279 122 97 61
-0.2595112054573007 0.219646346146102 -1.7455825818058526 116 91 56
-0.2597681955336957 0.22061137999229136 -1.7506622906143106 116 91 56
-0.2625590911483209 0.23312204187820845 -1.7485286640807713 127 101 59
-0.2596987489629744 0.21988238218568834 -1.7625025311571558 158 128 76
-0.25730019748022 0.20874493408102263 -1.7752159104583904 171 136 81
-0.2556193477665143 0.20087648119225004 -1.7859195173071203 158 124 73
-0.2583188162369856 0.21297146051358656 -1.784020728418291 130 100 56
-0.2600405969737893 0.22061142924860405 -1.7849113530180698 122 95 56
-0.25933359189303984 0.21718050392573612 -1.7928356993800225 120 95 58
-0.2599619720598914 0.21983662705686713 -1.796890139934105 127 105 67
-0.2601670419301162 0.22056287437181954 -1.802180141625385 126 103 67
-0.2603299971211819 0.22109689908596403 -1.8075993147562053 99 76 41
-0.2570188568791324 0.2057891546206273 -1.8232527828184035 125 104 66
-0.26107611389678675 0.22408051052556605 -1.8172157616426359 139 116 76
-0.26153737027072177 0.2259744242897086 -1.8217661978449629 126 102 65
-0.2641615390485328 0.23710425859982764 -1.8376357158344343 124 99 59
-0.2647176769677852 0.23943119814288594 -1.8418962334602684 120 95 55
-0.2668292747495974 0.24885520222506424 -1.841455594231073 118 92 55
-0.26547206479191143 0.24245215920585156 -1.8514986461655412 119 93 56
-0.2660734742000569 0.2449856888640492 -1.8556214671433833 115 89 52
-0.2665230759802809 0.24682648818975084 -1.8602053855519047 117 92 54
-0.267094463813088 0.2492230915858467 -1.8644174592922964 117 93 55
-0.26778298667561384 0.2521543971735148 -1.8682683803039537 119 95 58
-0.26763702358047864 0.2512766274831816 -1.874686101620311 122 98 62
-0.2664901453908356 0.2458291443454435 -1.8842096228484477 119 97 61
-0.26701522473421213 0.2480137278600405 -1.8885822322851171 116 94 54
-0.2673340438046955 0.2492565897879368 -1.893595789814812 116 94 55
-0.26742947149219587 0.24947928980843176 -1.8993098762099314 113 91 54
-0.26719335306351877 0.24818770422320258 -1.9060696696354127 107 85 46
-0.2675915047366602 0.24979221324023293 -1.9108525462129593 108 86 47
-0.2679085659245562 0.2510262949477029 -1.915892851436713 110 88 49
-0.2681033727358035 0.2517018450329887 -1.9213230872729468 112 90 53
-0.26941358157753703 0.2574722289901163 -1.923223806706046 119 97 60
-0.2731756860284693 0.27444408173333495 -1.917311735595255 116 94 56
-0.27233525019307236 0.2703910232007036 -1.92601556782404 109 87 48
-0.27203503768345627 0.26880527752160577 -1.9330175962953602 108 86 45
-0.2736266889421341 0.2758635064705081 -1.9339629020366618 108 86 45
-0.2731686128719392 0.27355591141942953 -1.941486315341809 105 83 42
-0.2719637284606258 0.26783468837997465 -1.9514412776164352 104 82 41
-0.2720576128532275 0.2680481376080224 -1.9572223723482056 106 83 42
-0.2726117876574431 0.2703651722129321 -1.9615155719509436 116 93 52
-0.27320392556617745 0.2728557799829199 -1.9656838830044148 115 92 51
-0.27436738957086326 0.27795825908307864 -1.9679817027803441 114 91 50
-0.27541022797395387 0.28250973646470917 -1.9706617557107566 112 89 48
-0.27567266536999735 0.2834934577065119 -1.9758990311826994 111 88 47
-0.2766923120455623 0.2879393942570469 -1.9786414009054119 109 86 45
-0.27852836397770553 0.29611906775474595 -1.9786696167626137 101 78 38
-0.2770959394576196 0.28935203179194957 -1.9895273316820532 95 73 34
-0.27658197519296823 0.28678430891236106 -1.997364367629392 99 77 40
-0.27625040705659537 0.28505013096824905 -2.0046126078985766 93 72 36
-0.27615034046547215 0.2843743225986907 -2.0111018422918607 95 74 38
-0.2787113023144297 0.29587160302523824 -2.008654794361511 96 75 39
-0.27547086329494264 0.28082833637724103 -2.025734403487103 92 71 36
-0.2751510269468175 0.2791454809747813 -2.033009434461183 93 72 35
-0.276486419390074 0.2850360930558806 -2.0346838143899704 100 77 39
-0.2775259803343184 0.2895735298172764 -2.0373479978248596 114 90 51
-0.2784983178029232 0.2938037090786845 -2.040230546440889 89 69 31
-0.27929823914819063 0.29724509575999314 -2.043693829466042 112 87 41
-0.28031225677456206 0.30166669083954506 -2.0464153391910433 183 149 96
-0.2792122711089715 0.2964114110390579 -2.0564109759252642 139 109 63
-0.2801504751502497 0.3004859035947544 -2.0593951873422824 110 84 43
-0.2795225446780665 0.29739027651288413 -2.0677999711350514 107 85 43
-0.2797737439953695 0.29831917375435385 -2.073171342782072 105 82 40
-0.2808502449673317 0.3030270881269845 -2.07566935657787 108 83 43
-0.2838477327637322 0.31653269268383943 -2.0714346300696764 108 83 43
-0.2790082887594859 0.29414758582159306 -2.0946477438898063 109 84 44
-0.2814126607647145 0.30404519088065685 -2.1176542425706204 164 136 83
-0.2842278061236095 0.31672072234360554 -2.113917088136874 183 153 95
-0.2849708790122575 0.31990259719754843 -2.1175558716543943 189 161 108
-0.2857505421504195 0.32325234550302123 -2.121057994775007 138 114 69
-0.28652944306346684 0.32659881093725873 -2.124556921093318 110 89 45
-0.28860821938830467 0.33590373231782533 -2.1233499504983757 107 84 43
-0.29043242510495115 0.34404288253241194 -2.1230322359791063 105 82 41
-0.29242025658925364 0.3529331809494381 -2.1220908439228525 104 81 40
-0.2904028662478293 0.34346127372766305 -2.1357284890615174 103 80 39
-0.295500287375655 0.366610514173872 -2.1233885413668574 102 79 38
-0.29054455954913727 0.34366338357482606 -2.1478408412349124 101 77 37
-0.29009773954187795 0.3413899222338172 -2.1558162939725922 102 77 37
-0.29384080518354616 0.35833217111487364 -2.148345787106299 103 78 38
-0.2928434150189484 0.3535335232367584 -2.158355262159782 101 75 38
-0.293307027675234 0.3554355724756051 -2.162972385137058 104 80 41
-0.29361105797342624 0.35660550150513914 -2.168184619815539 107 83 43
-0.29388557568605034 0.35763987626590904 -2.1735113879137975 104 80 39
-0.2978851247499925 0.3757657263939181 -2.1648889730199325 107 82 42
-0.29760779868592 0.37426894627038404 -2.172258049769766 109 84 44
-0.2985569994083275 0.37840021973538335 -2.1750225893936217 109 84 44
-0.29983460673227436 0.3840390653824857 -2.176536125441067 109 84 44
-0.30105019782207365 0.3893938736394839 -2.1782674950923404 109 85 44
-0.3025130063521224 0.39588404144255623 -2.179043264187313 111 86 45
-0.2978865949273323 0.37442136963267186 -2.203011208056328 109 83 42
-0.2997627239377978 0.3828082419251099 -2.2022314301864667 112 85 42
-0.3014217890737253 0.3901995588259299 -2.202253382608603 114 87 44
-0.30488571926153474 0.4058794642331443 -2.1953087100265836 114 87 44
-0.30681713666582605 0.41452403724822023 -2.194208385723238 113 86 43
-0.30553697494527343 0.4084201101921163 -2.205498142886088 121 94 51
-0.30657164576725626 0.4129468936327573 -2.2078480995819154 119 92 49
-0.3072761768163879 0.41595762889044036 -2.2114703296321547 117 90 47
-0.30765646986013734 0.41747903449296486 -2.2163529034277603 119 92 49
-0.3093579408323164 0.42507014968794254 -2.2160685091038093 119 92 49
-0.3101532906647616 0.42849893355575014 -2.2193126399696363 123 96 53
-0.30988324437271636 0.4270324265506285 -2.226742741223764 120 93 50
-0.3112214057112774 0.4329557209937836 -2.227842981422678 117 92 49
-0.31265420071232414 0.4393146138729491 -2.228549535761946 116 92 48
-0.3077497973234982 0.41654698132424206 -2.2543897384696407 116 92 48
-0.30979419039149797 0.4257161304284582 -2.252691038531966 119 95 51
-0.3128301364890532 0.4394447435920148 -2.246998632417389 122 97 56
-0.3141563802644727 0.4453151388693679 -2.2480932153704827 119 98 54
-0.3132373604382901 0.44086280965762936 -2.2581835828937824 106 87 52
-0.31477582184674413 0.44770947598856004 -2.2584112911313685 127 116 96
-0.31671168350306744 0.456384503133781 -2.2570103585270758 168 164 156
-0.18969517508240585 -0.057319865826975125 -1.4354170404898945 120 115 111
-0.19669682851506012 -0.026023010095074017 -1.4263903677853267 104 96 88
-0.19941545031411959 -0.013980488815500347 -1.4262679149862265 102 92 82
-0.20153293501518965 -0.004639837350499498 -1.4273786051919295 105 95 83
-0.20533467163267627 0.012275490588325999 -1.4248909705979584 105 95 83
-0.2057366270930403 0.013903407563655934 -1.4295862803608943 106 96 82
-0.20802949926668937 0.024035437700633322 -1.4302419824260229 108 97 83
-0.21056400380725482 0.03525521126314507 -1.4303494116232756 112 100 85
-0.2131896256549522 0.04688592189283192 -1.430226643191637 113 100 84
-0.2131097924344724 0.04634813850301006 -1.4359181080971517 111 96 81
-0.2157335809821242 0.057972173375947955 -1.4357507872241093 114 98 83
-0.21788857482333712 0.06748838135115498 -1.4365693125888033 117 100 84
-0.21987719270993517 0.07625696538341753 -1.4377239088523923 114 97 78
-0.22251552752193876 0.08794961683506164 -1.4374267683640618 115 96 72
-0.22673342755721826 0.10675076391011307 -1.4336118855162563 120 101 76
-0.22703945551228938 0.10795122877793939 -1.4383895861526637 124 103 78
-0.22848182776611586 0.11426524805330601 -1.4406465014193501 119 99 74
-0.23016296106553782 0.121654301502304 -1.442354974360529 109 91 67
-0.23061968821886608 0.12353339768422134 -1.4467834175613843 91 70 45
-0.2317449318684105 0.12842141291364673 -1.4497105912708086 92 70 44
-0.231317290759406 0.12631995025179416 -1.4561285821049303 111 87 58
-0.23167065819110688 0.12773366668184843 -1.4607943585879455 118 94 61
-0.23219843008985402 0.12993243293584494 -1.4650661771730247 117 96 63
-0.23321373749324106 0.13432611465559968 -1.4682254858510368 103 83 56
-0.23315708651487085 0.13389381695321484 -1.4738295262662144 81 64 43
-0.23462172492998662 0.14031093121663363 -1.4759475631399481 71 56 36
-0.23328427783176733 0.13411122182511254 -1.4845109253215327 94 75 43
-0.23403018838053535 0.13729212098309584 -1.4882831498213147 127 103 61
-0.23397494516641035 0.13686524417696588 -1.4939122996032757 126 104 65
-0.2348099039509548 0.14044725247301276 -1.4974748879941684 101 82 54
-0.23606708360004575 0.14593112129942287 -1.50004325481763 101 82 56
-0.23720089221018187 0.15085972724329927 -1.5028881610941522 121 99 65
-0.23912663769730372 0.15935599244920934 -1.5038546026604787 118 96 62
-0.23966991908275204 0.16162533681108632 -1.508067759027076 115 92 60
-0.23927215819537823 0.15965523938613257 -1.5145150886206218 114 92 59
-0.2411264175616754 0.16783081780289005 -1.5156091897517174 100 79 49
-0.24181793484278036 0.17076826203462064 -1.519461459344347 79 58 34
-0.24211095413167313 0.171910218992534 -1.524267055478103 66 45 25
-0.23941132708368035 0.15956656997333168 -1.5362884223430688 97 76 49
-0.23769684209565833 0.15166065512564264 -1.5459826329014434 140 118 83
-0.23776049644354047 0.15176717089302155 -1.5513988992512449 133 111 80
-0.23715018438547256 0.14883583642304177 -1.5584646306421628 118 97 65
-0.23629937042044624 0.14481985081241178 -1.5661377402807541 129 107 72
-0.23597352835669638 0.14316948074100405 -1.5725462266404335 117 95 59
-0.2351707329879893 0.13936857856016377 -1.5801437167001817 118 95 61
-0.24077407931259864 0.16444711818846453 -1.5719310824081558 121 96 62
-0.24103856084829986 0.1654583726775667 -1.5768704828069708 134 109 69
-0.24481667608019242 0.18231168163697692 -1.5730676526071716 123 98 63
-0.24715206700832665 0.19266154516818906 -1.5728105649055475 109 85 54
-0.24802892985497066 0.19643545866658446 -1.5761771344776392 134 110 71
-0.24957876429122577 0.20324445525231183 -1.5778436436199552 135 110 68
-0.2512130365563918 0.21043487411426526 -1.579278004135121 145 123 78
-0.2525989319746179 0.2165057242660694 -1.5813211602607293 140 121 78
-0.25322903974301336 0.2191681133760197 -1.5852698751359402 135 114 73
-0.2540962924406833 0.2229002995841326 -1.588610863624261 147 123 81
-0.25497878932635915 0.22670147671781793 -1.591905927420428 149 121 77
-0.2561560137809714 0.23183251272530053 -1.594436504902508 153 125 84
-0.2577122407501235 0.23867388586518695 -1.5959773272302813 164 136 94
-0.25976959443822634 0.2477769476994675 -1.5962021301931761 149 116 73
-0.26123169125789614 0.25419498306467175 -1.5979440943658088 163 135 91
-0.26304340372684104 0.2621912481517433 -1.5987573661751444 135 113 76
-0.26471052689316865 0.2695357865061281 -1.5999245642670479 161 137 99
-0.2660366656575984 0.27534211657863933 -1.6019648367473447 170 141 93
-0.2673172105264352 0.2809431612747513 -1.6041097306915262 159 130 81
-0.26815708529618687 0.28455561987248557 -1.6074041760341333 189 163 116
-0.26943024259743475 0.2901241350970712 -1.6095433856903858 205 181 136
-0.26965170660758275 0.29094545650312137 -1.6144655998589883 172 149 102
-0.2691555596968876 0.2885269010378397 -1.6213078710980255 118 95 52
-0.26943896270789486 0.2896273584195972 -1.626080014465918 123 100 62
-0.26880427277573005 0.28658233405257383 -1.6333230432746904 110 88 55
-0.2700704252280309 0.2921198867573196 -1.6354605159039033 94 76 42
-0.27121884244515027 0.29712624186701414 -1.63790205100343 91 74 39
-0.2708438167037685 0.29525299740698013 -1.6444674443050595 96 80 46
-0.27059715185036237 0.29395897245111985 -1.6506988281160575 106 91 56
-0.2664813579218781 0.2751888818037156 -1.6675198684885004 121 101 64
-0.26451668819174445 0.2661326333948162 -1.6785258371950147 136 110 70
-0.26178904258251273 0.25362834025165953 -1.6916768283813592 135 107 68
-0.2585462243608082 0.23879478336215365 -1.7063099263058183 133 106 69
-0.2566188860051861 0.22990216977258926 -1.7173676420341106 129 102 65
-0.25685235300967524 0.23077102104074326 -1.72246349071385 128 101 64
-0.2574058765501424 0.23308588918414547 -1.7266714074808007 128 101 64
-0.2581646311096947 0.2363281916820179 -1.730303784812231 122 97 59
-0.25281003313608374 0.21194384983354098 -1.751096874570246 119 94 58
-0.25286103364426765 0.2119860037054378 -1.7567703793889782 117 92 56
-0.2563191925693361 0.22723935004490875 -1.7586241146349542 138 109 60
-0.25357152438097097 0.21463087045509827 -1.77225455844256 170 137 84
-0.2516605637949564 0.20580284502253982 -1.7835573816605428 154 119 67
-0.2536407168274398 0.21456476010404096 -1.7837601951629427 141 110 63
-0.256450421512617 0.2270781735235224 -1.7815510034981985 120 92 54
-0.2553758116340388 0.22202995201279718 -1.7904974762332864 122 95 57
-0.2537776159456999 0.2146131958366036 -1.8009883157792903 122 99 60
-0.2535613708425417 0.21344453541434827 -1.8075081753307993 126 102 65
-0.25852006548379436 0.23567886898339346 -1.7989733888979373 104 81 45
-0.2545249794765564 0.21742012020485546 -1.8165102352927596 90 69 32
-0.2586920797177221 0.23512130312274648 -1.839721904362829 124 98 58
-0.2590509974342474 0.23655336568563795 -1.8445801547743423 121 95 55
-0.26130157475249 0.24654557646986586 -1.8437696490061062 117 92 54
-0.2608981555787737 0.24452805443972164 -1.8509078802113323 118 92 55
-0.2617480567897559 0.24818234339331596 -1.8542816609508401 111 86 48
-0.2620162875031553 0.24920410235184426 -1.859409397350378 112 87 49
-0.26214262119173704 0.24958342026123753 -1.8649724849157885 114 90 52
-0.2636173580455777 0.2560664858792455 -1.8664346788267387 114 90 53
-0.2629472630014849 0.25284022052084004 -1.8744332242067037 121 97 60
-0.2627994349215339 0.2519777574731012 -1.8808531881189032 117 95 58
-0.26273939250769096 0.251512359638049 -1.887015734786223 115 93 53
-0.263044457618132 0.25269984722376143 -1.8920625734374437 112 90 52
-0.2630501225224797 0.25253140706268684 -1.8980399957245786 109 87 49
-0.2633385981122083 0.2536434251860402 -1.903148856035308 104 82 43
-0.26356410725883506 0.2544701320279509 -1.9084579971664875 110 88 49
-0.2638181518478213 0.25542591207833304 -1.913683340964317 111 89 50
-0.26322217414482196 0.2525312055465445 -1.9215783028771325 107 85 48
-0.26173264071822505 0.2455879885879264 -1.9323050339485992 116 94 56
-0.2633588730188849 0.2527589195650679 -1.9332416639284253 115 93 55
-0.2644220489435143 0.2573795656900882 -1.935937858858253 107 85 45
-0.26717313419186856 0.2696484342531802 -1.9332643495121848 108 86 45
-0.26999532156001826 0.2822409390017604 -1.930319561425311 107 85 44
-0.2714564764201107 0.2886672745542999 -1.9316763225689255 105 83 42
-0.26851239902391966 0.27513000792438547 -1.947130675231172 102 80 39
-0.2690621146444773 0.2774252876547416 -1.9514227975484182 101 78 37
-0.26909741666506537 0.27738897821940695 -1.9573726645807052 108 86 45
-0.26970481419801173 0.27994562475853474 -1.9614812962568493 114 91 51
-0.2707310882850248 0.28440120798712676 -1.9642286024219875 115 92 51
-0.2717706640636676 0.28891743971897127 -1.9669219746297695 111 88 47
-0.2720947807285527 0.290190214342684 -1.9719402966839492 109 86 45
-0.27331301436483213 0.29551699394004544 -1.9740339031792373 107 84 44
-0.2753187705678741 0.30441530070378364 -1.9735258167814542 100 77 38
-0.27306753067212697 0.29400967031501063 -1.9870149979855305 95 73 34
-0.27268782087565957 0.29208999602684965 -1.994373816110194 97 75 38
-0.271973472327354 0.2886519795451134 -2.0028600204576006 93 72 37
-0.27168651018090056 0.2871517270531579 -2.0099495604985256 91 71 36
-0.27354045339197075 0.29536250778591494 -2.009913125471744 92 72 37
-0.2715908345491429 0.28631924567341543 -2.022576547035082 90 70 34
-0.2715146441113184 0.28577382788566147 -2.0290020514377414 91 70 34
-0.27276349304126857 0.2912399750280054 -2.030978367557381 91 70 32
-0.27325797353244485 0.2932836592842492 -2.0354868279309906 109 86 46
-0.27449710431944774 0.2987064511902078 -2.0374730746646423 100 77 36
-0.2757806175242775 0.30433115152320966 -2.0392933059110994 127 99 48
-0.27620546318087846 0.3060592963547863 -2.044023645802887 178 145 89
-0.2765562074832272 0.3074510556832619 -2.0490088373754602 162 131 84
-0.27677844456132866 0.30825939621350945 -2.054437727198702 115 90 47
-0.27683868507808596 0.30833216239623346 -2.060429496306147 106 86 43
-0.2768051590834646 0.30797894519151503 -2.0667538583597045 100 77 35
-0.2778066721030995 0.31232465172633844 -2.0695082728253653 103 78 38
-0.2789021937173859 0.31709754593597905 -2.071926008048988 106 81 41
-0.27376443508036663 0.2935662893399744 -2.0960276892467715 106 81 41
-0.27798249552173715 0.3117066563427238 -2.112644271090766 148 118 69
-0.2803651681544091 0.3223272509435503 -2.110491987022271 176 144 87
-0.28104923289265527 0.3252319136852205 -2.1143374695401 183 153 98
-0.28126395476298216 0.3260041933354711 -2.1198522919689684 153 126 81
-0.2840763430977143 0.3385799355623928 -2.116085001197497 115 92 50
-0.2850382463906935 0.3427481244926256 -2.1189048485304647 105 81 40
-0.2879409583279885 0.35573690127893187 -2.1147340171910747 103 80 39
-0.2899823706020585 0.3648127466015409 -2.113619095844301 102 79 38
-0.29074533732075236 0.3680787061979892 -2.11709688723427 102 79 38
-0.2910766975490201 0.36938290819807196 -2.122135238065495 102 79 38
-0.2904877919571588 0.36650344802965157 -2.1305265618769846 101 77 37
-0.28610007609572474 0.3463524408817881 -2.1528083104016917 100 75 35
-0.2877464540264216 0.35363334842134303 -2.1531034784443763 101 76 36
-0.2893104222196513 0.36054033242816924 -2.153676570228856 102 77 39
-0.2901131733522473 0.3639864896803512 -2.157030042532123 103 79 39
-0.28970977891657546 0.361947592163684 -2.1648318822616703 106 83 42
-0.2908574824818654 0.3669626355070374 -2.1669074551624097 104 82 41
-0.2913701651253203 0.3690897619910327 -2.171328204014679 99 76 35
-0.29195307124329883 0.3715363317482688 -2.175487005389783 105 80 40
-0.29346283203677814 0.3781993814985657 -2.176180369133297 108 83 43
-0.2946009018138259 0.38317212731236583 -2.1782447407176457 107 83 43
-0.2953320332375059 0.3862938055465535 -2.1818247319272923 106 81 41
-0.2981149125794931 0.39875157971990566 -2.1776650775971333 110 85 45
-0.29324816256727626 0.37640066681285766 -2.2023762302583263 108 82 41
-0.295470028343487 0.3863058288868418 -2.200327424678707 111 84 42
-0.29726135728392955 0.3942527151459409 -2.1998779369853287 113 86 44
-0.2989655867876517 0.4018040769172391 -2.19973213605769 112 86 43
-0.2993278994224928 0.40324787739590406 -2.204692171736298 113 86 44
-0.30039857632373995 0.40791631892845476 -2.206938043064154 119 92 50
-0.3021165375135664 0.4155320826765566 -2.206681186377446 119 91 49
-0.30304277249349454 0.41954392404148866 -2.209451667695226 115 88 45
-0.29912427441593403 0.40149583025412816 -2.2309572002238878 118 91 48
-0.30117324263778 0.4106192598061157 -2.229405996529752 118 91 48
-0.30452975899339363 0.42569860631937806 -2.222732069021526 124 97 54
-0.3061739837450431 0.4329813337459879 -2.222676528593032 122 95 52
-0.30684256776048596 0.43582095327772064 -2.2264136509774843 116 91 47
-0.30886340172169297 0.4448205466830034 -2.224839358382502 113 89 45
-0.30268384088946343 0.41646335707046006 -2.255508901723705 113 89 45
-0.3044255708400023 0.4241905936847286 -2.2550599145898804 116 92 48
-0.30711233249227243 0.4362246334840854 -2.2508418092670213 118 94 52
-0.3089864915281533 0.4445574746908034 -2.249800277097074 117 96 51
-0.31059520839290145 0.4516816839813113 -2.2497843551385683 105 85 46
-0.30952175800272685 0.4465828705653249 -2.26045204807249 114 101 75
-0.3118245214477855 0.4568710689560858 -2.257637041289522 160 154 145
-0.1846518256059443 -0.05651088737432347 -1.4300353768180463 127 120 114
-0.189381884719963 -0.035570972986311344 -1.4258641571571764 107 99 90
-0.1940233072599872 -0.015024543734974638 -1.421808309960748 99 90 78
-0.19872529057492694 0.005794121816814102 -1.4175581943368472 105 95 83
-0.20105343418155408 0.01602117361327543 -1.4182175005847566 105 95 83
-0.20105975613406307 0.015887049257529817 -1.4237350991100195 107 96 82
-0.20268876608906447 0.02299497242649623 -1.4258310911635035 108 96 80
-0.20479370991157253 0.032227717143958945 -1.426898610022921 104 95 80
-0.20646232595502476 0.039513635976633266 -1.428869048910052 112 101 85
-0.20891834753562805 0.05031499767771308 -1.429136357611976 106 94 77
-0.21151836314914152 0.06176011692085909 -1.4290621206487912 108 94 78
-0.21350370601098656 0.0704621430493006 -1.4302775814566087 115 99 83
-0.21720776714480028 0.08683828387706444 -1.4277502243985727 119 102 83
-0.22221952909527776 0.10905467158979631 -1.4223296601381916 112 94 73
-0.2226432183671292 0.11078712355409936 -1.4268354026088723 123 103 76
-0.22415208509807738 0.11736522241237224 -1.4289675578630905 126 106 79
-0.22525910266682928 0.1221493334532825 -1.431965357853287 116 97 68
-0.22570035664009475 0.12396056639098019 -1.4364207824617061 97 79 49
-0.22630076771740165 0.12648258373615356 -1.440524692277168 103 85 60
-0.22716050017559405 0.13016286838149382 -1.4440505392838203 112 90 62
-0.2278675709401595 0.13316146420692893 -1.4479105727115684 113 89 56
-0.22748459990346756 0.1312911598203086 -1.4542070474300735 126 98 65
-0.22768267048953061 0.13201597148203903 -1.4592125622482408 140 113 76
-0.22786321772098284 0.13266235788694747 -1.4642624754024711 142 119 83
-0.22899889858916847 0.13757570270143715 -1.467155216563879 124 102 70
-0.22983768851884512 0.1411629200622469 -1.4707116255277308 92 70 47
-0.23020402061740436 0.14263934709430803 -1.4753396807459604 76 57 38
-0.23012027272175845 0.14210462163763793 -1.4810001796049408 86 67 40
-0.230365288777082 0.14303870954776443 -1.4859149200123822 117 95 56
-0.23018851149674005 0.14208776627823594 -1.491806611534381 136 114 73
-0.23136041284405745 0.14716380365817616 -1.494587518849793 107 85 57
-0.23309968713378187 0.1547759452389239 -1.4960384408104173 114 94 65
-0.2343273293568532 0.1601019494944355 -1.4986610764060082 128 106 69
-0.2360699207105938 0.16773004893833765 -1.5000656929452456 117 95 57
-0.2366589299896762 0.1702022048253572 -1.5041587327714638 118 96 59
-0.23502580592618472 0.16274079066447372 -1.513489353700761 109 86 52
-0.2356436028601048 0.165341187310654 -1.517529813558542 108 85 53
-0.23687815374172924 0.17069904343693443 -1.5201031787770978 102 80 53
-0.23675324536851589 0.16997904358619836 -1.5259041433802798 79 57 33
-0.23737982299071136 0.1726188699916149 -1.5299178570078122 74 51 27
-0.23439574614728076 0.15911344882091527 -1.5425983524589073 120 101 71
-0.23408688751026763 0.1575693852437013 -1.548892633160592 121 100 67
-0.233958470792392 0.15683186673926452 -1.5547643977669536 137 114 80
-0.233641042736581 0.15524870926671497 -1.5611056608699483 129 105 70
-0.23289432428389667 0.15174509530540092 -1.5685066643006853 127 104 68
-0.2309148831793401 0.1427270582445297 -1.5789427074691338 117 93 57
-0.23551259247056927 0.16312807788012756 -1.5732863458521151 115 91 56
-0.23784363168690223 0.17339155803649464 -1.5731387171313205 138 108 66
-0.23897695635588503 0.17829785967434747 -1.575918116880404 137 108 68
-0.23967995455188018 0.18127926333740346 -1.5797532232780642 124 101 65
-0.24214583066998902 0.19214814410337566 -1.5791977974038844 128 104 67
-0.24486300978196235 0.20414247849899503 -1.577979947893402 120 94 56
-0.24754582898407568 0.2159842199328555 -1.5768088225760968 120 97 56
-0.24887841231711672 0.22178490580060156 -1.5789945137853802 129 110 71
-0.24901788731120583 0.2222466598938283 -1.5841762481188688 128 107 69
-0.2491361679027505 0.22261338131450614 -1.5894177379421315 136 111 69
-0.24977032178574876 0.22528880694377101 -1.5933546127495493 145 118 74
-0.2517007260012371 0.2337662776516597 -1.593982863394154 156 132 90
-0.2533439490174649 0.24095901854416785 -1.5953202975303313 148 124 80
-0.2552154048149252 0.24917404841778007 -1.5960508503941369 153 123 78
-0.2561976116400031 0.2534088654792307 -1.599048270819601 167 141 94
-0.2589122361953108 0.2653999972041334 -1.5975564900773633 158 135 96
-0.2609622684494967 0.27441674442332964 -1.597749288896493 145 120 82
-0.2615241813324615 0.27677121229517315 -1.601788972930306 167 140 92
-0.26257447133297757 0.2813125804862335 -1.6045509695323987 160 132 83
-0.26350784682361417 0.28533070153207907 -1.6076091784199622 186 161 112
-0.2652112986106693 0.29279772004343185 -1.6086330131445918 174 151 104
-0.2653037779862495 0.29305049802802136 -1.6138877763618595 174 152 106
-0.2652867054302886 0.2928124054172398 -1.619439669255438 99 79 35
-0.2656109686953324 0.2941029373145773 -1.624093134168894 89 73 31
-0.2659250022523939 0.2953475659958678 -1.6287766218343642 81 68 30
-0.2663312831899436 0.29700534550818697 -1.6332161507197112 69 58 22
-0.26666651136824393 0.29834477700575146 -1.6378477469374095 74 60 26
-0.2667578167229053 0.2985913119135024 -1.643139172694144 80 65 32
-0.2675114269785903 0.30180507287880054 -1.6466469209870842 81 67 36
-0.26334672312055807 0.28298134231301597 -1.6634923820254826 106 90 56
-0.2614957714135686 0.2745230383362805 -1.6741247436905415 135 111 72
-0.25410856186306496 0.2410868195721219 -1.70561712172806 128 103 64
-0.2520100510785936 0.23151423267202859 -1.7170927060299128 124 98 59
-0.25280767634861945 0.23492095816707892 -1.7206260119476011 126 101 62
-0.25263937810905823 0.23399824282953596 -1.7268273747570106 120 95 55
-0.2532019700834431 0.23635147500412412 -1.7310109866361914 122 97 57
-0.25020678295473436 0.22275560019263096 -1.7451073072770835 116 92 52
-0.24989624704971475 0.22119356510348087 -1.7517623805149412 116 92 54
-0.2549859743817351 0.2438428431900848 -1.7432837913204984 120 95 53
-0.25366427876144343 0.23774765690960376 -1.7527643629954424 127 100 57
-0.25267860439305057 0.23315819393123044 -1.7613298542742872 145 117 68
-0.25070438498631226 0.2241350285376862 -1.772723596154827 144 114 61
-0.24989344424835808 0.22032727239501892 -1.7808568770797395 142 111 66
-0.2514199855422916 0.2270019601227185 -1.782348469230948 122 95 57
-0.25025363471123313 0.22159936625660032 -1.7915256876615098 123 97 60
-0.25120266360407434 0.2256840972593726 -1.794661655012336 119 95 57
-0.2508858684787115 0.22409105181132882 -1.801434709144144 125 101 66
-0.2561961429555299 0.2477401050173887 -1.7919638560800581 117 94 60
-0.25250445395671256 0.23100730148759008 -1.8084979416661793 91 67 33
-0.2537750451024444 0.23549672437326546 -1.8460631140785135 120 95 55
-0.25654050381045657 0.24773520893879986 -1.8437663762951766 114 90 52
-0.25680617343900286 0.2487541531916424 -1.8488869753459394 110 86 48
-0.25783238477102416 0.25318702958471084 -1.8517347969240072 108 84 46
-0.25800563642532104 0.2537910401437947 -1.8571345173069493 109 85 47
-0.25876804612445026 0.25703992401890063 -1.860765066868282 111 87 49
-0.2595550179670161 0.2603992389439758 -1.8643162161309053 111 87 49
-0.2580116549786503 0.25329524181954693 -1.8749289270513225 112 88 50
-0.2588965318796711 0.2570938593924596 -1.8781934689636386 114 92 53
-0.2588780914924991 0.2568361836189688 -1.8842074626283027 115 93 54
-0.25918738584845313 0.25805006175013007 -1.889228001036797 109 87 48
-0.25905787541372094 0.25729304834607586 -1.8955999617649337 105 83 44
-0.25965120981996787 0.2597823646851194 -1.89975687928026 106 84 45
-0.26008496767781053 0.26155494556936915 -1.904405170747793 111 89 50
-0.2599103618107873 0.2605946505352208 -1.9109410746298625 111 89 50
-0.25813361612508684 0.2524365141767335 -1.9224735993803603 105 83 44
-0.2589047969105039 0.25572411117485444 -1.9261003788671118 109 87 48
-0.25882435892120137 0.25518556079232824 -1.9323875026381248 114 92 53
-0.2592191957962444 0.25678221201519524 -1.9371936873614435 107 85 46
-0.2644112668496621 0.27993543682310634 -1.9268916162645104 106 84 43
-0.2669453096139011 0.2911466129344073 -1.9248954700856913 104 82 41
-0.2671144841395865 0.29173093562201624 -1.930354608987236 103 81 40
-0.2651072809120496 0.28253350371305186 -1.9427398371524756 99 77 37
-0.26488027951839815 0.28133611683000564 -1.9494969814456882 97 75 36
-0.26519566442139164 0.2825763381964482 -1.9545332568267304 101 79 40
-0.26602633508406803 0.28613281663225754 -1.9579194913646583 112 90 51
-0.26712160314678046 0.29087901143444894 -1.960447307761487 112 90 49
-0.26737980898804303 0.29186222193878053 -1.9656661939268067 108 86 45
-0.26796751777111166 0.29432679599417927 -1.9698225434376346 108 86 45
-0.2677143942717383 0.293010645533239 -1.9767090680253212 108 86 48
