ply
format ascii 1.0
element vertex 686
property float x
property float y
property float z
property uchar diffuse_red
property uchar diffuse_green
property uchar diffuse_blue
end_header
0.45969808971409454 -0.11358376098717318 -2.1003067334066134 88 65 33
0.44545328350246627 -0.12163964777515168 -2.119284262529405 84 61 29
0.44705257494424333 -0.12123822319617128 -2.1238129856870858 84 61 29
0.4463824103152316 -0.12204978418031123 -2.130432334804975 85 62 30
0.4491880918144864 -0.1210042434088992 -2.1338587151285475 93 70 38
0.4523228720427761 -0.11978239013412384 -2.1369764372735993 78 55 24
0.45533403873283484 -0.1186262292862961 -2.140203042720691 71 47 18
0.4605499781733655 -0.1162896403613416 -2.1413719374106788 71 47 18
0.46237589690819625 -0.11576684963190517 -2.1456887440150725 71 47 17
0.4629730188724541 -0.11590232795503808 -2.1511573531264876 83 59 28
0.46750670743435896 -0.11392905529229203 -2.1529370620589496 83 62 29
0.4716914654006652 -0.11214179904017765 -2.1550318379880684 82 62 29
0.4717099166775204 -0.11258782767888836 -2.161050209292219 82 62 29
0.4734088308958726 -0.11213320365792581 -2.1654877851154284 86 66 33
0.47762079246160083 -0.11033006948944876 -2.167539787010737 90 69 36
0.48051629889817404 -0.10923279891515816 -2.170834174003442 91 68 34
0.48486783148255563 -0.10735317702183725 -2.1727325898671874 87 65 28
0.4899888002810583 -0.1050591869119791 -2.1738809261918126 91 68 33
0.49482057927935175 -0.10291934844469783 -2.175290165569676 88 65 30
0.4978966787112079 -0.10172237452201868 -2.178376098175997 76 53 20
0.5034920776053124 -0.09916980323151678 -2.1790211111408917 86 63 31
0.5074955202011737 -0.09747240334406701 -2.1811895348793318 92 69 36
0.5117821378400645 -0.09562173159506157 -2.1830716840982514 92 69 34
0.5218933118921498 -0.09063333560405637 -2.1792625978371514 92 70 33
0.522882879651347 -0.09055582756597622 -2.1843269142767356 91 69 30
0.5154950165542965 -0.0949939002119067 -2.1976114242406606 95 71 33
0.5150555238475645 -0.09568955640630314 -2.204116050940533 96 72 34
0.5156107778836627 -0.09584970469594656 -2.209653575410133 97 73 36
0.5222549093426806 -0.09272490926734964 -2.2091776757252948 96 72 36
0.5277870091561752 -0.09019844041522698 -2.209778667344203 96 72 36
0.5336232773904066 -0.08750621601788763 -2.2100573238425207 95 71 35
0.5372514307733678 -0.08600527918506864 -2.2125168865223914 95 71 35
0.5405989181050883 -0.0846553417651015 -2.2152480815015068 98 75 38
0.5429061112395366 -0.08386729193082468 -2.219015282256037 95 72 37
0.5450467854340275 -0.08316918594278955 -2.2229483554173566 93 70 36
0.5466868415788436 -0.08274191286022922 -2.2273857710585863 91 68 34
0.5498545581481206 -0.08148785296695599 -2.2302798322982533 87 64 32
0.5530892618992884 -0.08019702016908617 -2.2330993513446864 81 63 29
0.5543079066407941 -0.07999786213233318 -2.237963070383237 76 61 30
0.5555274159689376 -0.07979858205191112 -2.2428304949354727 65 53 25
0.5567481162836627 -0.07959900338243714 -2.2477012966502 68 57 30
0.5579693600302155 -0.07939947757228491 -2.252576142768599 68 56 33
0.5591919598145465 -0.07919956432072134 -2.2574542055934677 74 66 49
0.5604151070416905 -0.07899970267253231 -2.2623363208810874 110 106 93
0.5660037128537654 -0.0764294838247574 -2.2627058954018495 145 142 136
0.5686900837787258 -0.07543442354712099 -2.2660662569101206 171 170 172
0.5711078224834854 -0.07458507058049643 -2.2697022542104217 187 188 192
0.572854870833261 -0.07410020894771752 -2.274035772770475 195 196 200
0.5753933038414378 -0.07318499970325337 -2.2775427508149058 200 201 205
0.5803240770817759 -0.07096773765132042 -2.278536279865966 203 204 208
0.5859995569291874 -0.06834377654554655 -2.2787290572046826 206 207 209
0.4773359319467265 -0.12798800584581846 -2.399553563594947 208 208 210
0.4833528016318902 -0.12520023853735265 -2.3996788962612974 209 209 211
0.4760229920027428 -0.129685367139213 -2.41394366012664 210 210 212
0.46546503697410757 -0.13593494456930671 -2.431699299198126 210 210 212
0.4500927156430319 -0.1448164339066475 -2.454667248468344 210 210 212
0.5611043444216509 -0.08473505106584331 -2.342506505281168 210 210 212
1.8732025358590243 0.6074025458069325 -1.2550195734800407 216 216 218
1.877417476053598 0.6095981842571829 -1.2518936865354147 216 216 218
1.8736174162742685 0.6071798018138799 -1.260521832856448 216 216 219
0.18076251922984238 -0.17159969599829428 -1.0892494527059151 191 191 193
0.15352246664045982 -0.18550298001203358 -1.1049302622409065 191 191 193
0.17213120224852785 -0.1765946739884771 -1.1019433355327581 192 192 194
0.18772559850001858 -0.16918240091037656 -1.1001349740945716 193 193 195
0.25329901122605597 -0.13687683514317295 -1.0776267011647973 194 194 196
-0.19271732892365867 -0.38837868579352236 -1.646965416968008 206 207 209
-0.13775233971353507 -0.3608852526110462 -1.6226706129620116 208 208 207
-0.08383231106262512 -0.33390670728701805 -1.598735476380195 172 164 156
-0.06076212696626371 -0.32260514488819836 -1.5916584989616402 134 115 89
-0.04512950986769659 -0.31508165724172943 -1.588626478198286 139 117 83
-0.030082069333462136 -0.3078517990249171 -1.5858652249244896 133 111 83
-0.01602398078237377 -0.3011216307848239 -1.5836043899169936 130 108 83
-0.002911961002183494 -0.29486956656808694 -1.5818256838781983 125 103 74
0.006604420376750464 -0.2904459645161541 -1.5820284149109716 147 123 89
0.02063679439242916 -0.2837184804627102 -1.579645578207848 141 117 84
0.03301150244730333 -0.2778323072427865 -1.5781546162433369 149 124 93
0.04242622199944868 -0.27345236224473934 -1.5783080162224126 140 114 85
0.05346634131088546 -0.2682409470708791 -1.5775012675874671 142 115 86
0.06410992370826851 -0.263229034068026 -1.576884921921827 141 115 86
0.07532030854779981 -0.25792507851091506 -1.5759062950469969 131 109 82
0.08661840468593862 -0.2525734260010126 -1.574838794431791 114 94 71
0.09600990058274528 -0.2481926450612558 -1.5748392923810068 112 92 69
0.10403475963556041 -0.2445077681017785 -1.5756051989234483 107 87 63
0.11706752541449095 -0.23826152695318817 -1.5734183749393233 110 91 67
0.12958116598625102 -0.2322771595045694 -1.5714899361299137 115 97 73
0.1353777053733174 -0.22972458967455303 -1.5734727493910958 109 91 65
0.14311158595392492 -0.2261797359857845 -1.574294889112355 104 86 59
0.1496400335350594 -0.22324990443577694 -1.5758079370212446 104 83 53
0.1638005168041271 -0.2164118498636061 -1.5727592993017758 102 81 52
0.17409507747974806 -0.21154942655442086 -1.5719684538403502 97 76 49
0.17880046316072318 -0.20954719181902048 -1.574493065703082 92 71 46
0.18429121629367362 -0.20714168431171295 -1.5765338380616725 92 70 44
0.19012192265580352 -0.20456081125065464 -1.57835462315029 91 70 42
0.19376378232621894 -0.2031009362947168 -1.5814853979278465 90 70 40
0.2014375404298081 -0.19957269391117963 -1.5821577172442962 90 69 39
0.2055954621593492 -0.19784634900209505 -1.5849511582316218 90 69 43
0.21156900802274026 -0.19518752922809288 -1.586623655487224 87 65 39
0.21849812109135458 -0.19203685823086133 -1.587691947218584 94 74 43
0.22448582406976125 -0.1893680125407403 -1.5893196038484843 105 85 52
0.23094873023701634 -0.18645374894351902 -1.5906360382060403 114 95 62
0.23882587255969928 -0.18281129732925136 -1.5910549758484123 95 79 46
0.24680881854904202 -0.1791125181701317 -1.5913825356234819 88 70 40
0.2546431982964196 -0.17548814873231394 -1.5917770338955664 117 100 72
0.2639167672654163 -0.17112158427480378 -1.5912430169893867 115 96 64
0.2697507738982793 -0.168522335931767 -1.5928431978890438 119 96 57
0.2763540637463705 -0.16552586470932798 -1.593940501989125 130 108 68
0.28476652661390134 -0.16159638615468136 -1.5938704545626647 118 95 62
0.29136921613477207 -0.15859683723235368 -1.5949237613982639 132 107 72
0.29747029919329804 -0.15585416439587896 -1.5962770470404213 136 109 70
0.3073632200890361 -0.15115594268908802 -1.595182861858675 139 111 71
0.3139936289999908 -0.14813697863327718 -1.5961511944743856 143 116 76
0.3203918892269719 -0.1452361633018684 -1.5972487138026452 148 120 81
0.32336978417733897 -0.14409830457800268 -1.6005406441128518 150 126 81
0.32755010482247676 -0.14233960880706714 -1.6030470905842287 151 126 86
0.33466639080738486 -0.13906460247675712 -1.6036302283117805 128 104 70
0.3413622287363923 -0.1360049561845977 -1.6044654083305734 136 111 77
0.34503420327407386 -0.13450565976510714 -1.6072637023292242 148 123 84
0.35283054144953035 -0.1308746591164252 -1.6073387910100174 151 128 87
0.3619900980206517 -0.12653703842371294 -1.6064871612920522 145 122 87
0.36152285919375143 -0.1271745465197245 -1.6119847259859068 103 81 51
0.3659489660033862 -0.1252819080474143 -1.614238388549992 107 86 58
0.3577322152088531 -0.129929812782879 -1.6249184042933331 111 90 63
0.35733898453394175 -0.13053198510376954 -1.6304053101896956 93 71 46
0.35878602070501514 -0.13018217979372795 -1.6346663444802347 90 70 44
0.3597105981429924 -0.1301031371356534 -1.6392818629579842 91 71 44
0.3595312836799718 -0.13059636070600833 -1.6446486906815427 97 76 53
0.35125803553564816 -0.13528507878248267 -1.6555181693855947 115 98 80
0.327168198609126 -0.1481771716347657 -1.6772039329633641 97 82 64
0.32431244374153073 -0.1500661783293824 -1.6845010439457921 93 77 60
0.2959062310397415 -0.1652119222344109 -1.7093342911055323 74 59 41
0.29233342182947797 -0.16748085913370428 -1.7172269235525928 78 65 46
0.27176227008374787 -0.1785760557095272 -1.7368745100703722 76 61 43
0.2728070660945696 -0.1784539265932341 -1.7416602594806792 68 52 34
0.2751616390861804 -0.17765174594570346 -1.7455407782635013 89 73 49
0.2751779776460087 -0.17806452413611673 -1.7510493861624887 118 97 64
0.27607087556611454 -0.1780223524164356 -1.755954401693676 122 98 64
0.27652282021191665 -0.17820988167762553 -1.7611740399805258 98 78 51
0.27870207858863694 -0.17749945761626043 -1.7651853054907307 80 64 41
0.2819824100234679 -0.1762160359108502 -1.7684184483881387 93 76 50
0.2855979839958973 -0.174757672672669 -1.7714083672168648 106 86 57
0.286399379633424 -0.1747641222088415 -1.7763911964893007 96 75 48
0.2900165059954084 -0.17330433446249024 -1.7793719381787412 85 65 39
0.29146400056926103 -0.17297450519640808 -1.7838975257692016 118 101 75
0.29282088464764844 -0.17269211706689255 -1.788490914496336 115 98 72
0.2937455352733883 -0.1726353481929011 -1.7933987396508244 107 86 56
0.29275342699251394 -0.17357875726732025 -1.7996964805037599 124 103 72
0.29452800469012386 -0.17307965693218375 -1.8040032733614386 115 94 63
0.29616536112696756 -0.17265227724061247 -1.8084111122157467 113 93 61
0.29863888440414244 -0.17178845132002238 -1.812210928757269 112 92 59
0.3003275274493279 -0.17133442711272298 -1.816583113267455 110 90 57
0.304233454962729 -0.16972200994022366 -1.8193291316612639 115 95 62
0.30685701499307527 -0.16877918482308832 -1.8230108606986644 113 93 61
0.31162639121671176 -0.16671419635624227 -1.8251043189740785 109 88 58
0.31158667425049547 -0.16716355805860061 -1.8307496657859679 87 66 38
0.31487268567137416 -0.16587359065735116 -1.8339317560995876 73 52 25
0.3183115007059495 -0.16450319463327837 -1.8369939404597257 103 82 52
0.3190546872893113 -0.1645436738669176 -1.842066882460414 104 84 51
0.32092494523544635 -0.16399430621388372 -1.8462998295006163 104 83 51
0.323633760989939 -0.16300564160969044 -1.849902014616088 103 81 49
0.32261663976810595 -0.16396960779205008 -1.8563162357407443 106 83 51
0.322502952152701 -0.16446101256596407 -1.8620603580708956 104 81 49
0.3218417802174752 -0.16524036277146348 -1.868231152841739 106 84 52
0.32202208658867193 -0.1655792012472268 -1.8737731188934967 106 86 53
0.3250309333413596 -0.16443412809480826 -1.8771597013423622 102 82 49
0.3260690194662169 -0.16432344662078754 -1.882054439857129 103 83 50
0.3288263634011682 -0.16331012733466613 -1.8856301837894245 102 82 50
0.3285854450673752 -0.16387188866235852 -1.8915185426367151 101 80 48
0.33354538016046276 -0.16170091101767536 -1.893387937220349 98 78 45
0.3373112826406697 -0.16015666311411794 -1.8961713296827152 89 69 34
0.34095673341654875 -0.15867513120266266 -1.8990402772778392 95 75 40
0.3489363477166877 -0.15491253215425155 -1.8985112239445574 96 76 43
0.3449824250422717 -0.15742891809521373 -1.90731679176622 96 76 42
0.34903603869177635 -0.15573129350867257 -1.90984900719929 96 76 43
0.3475355085817319 -0.15695841178246894 -1.9167566711742445 95 75 42
0.34827846592142686 -0.15700474342467144 -1.921904897654462 82 62 29
0.3518281004780903 -0.1555721700919647 -1.9248297112238504 92 72 39
0.35481019015115756 -0.15443829053915045 -1.9281994208092206 89 68 37
0.35784807403467833 -0.15327462833888178 -1.9315199078011287 86 65 34
0.3609225291756034 -0.15209129419573425 -1.934806160233363 85 64 34
0.3684876241010113 -0.14853716886078172 -1.9344751533400717 84 63 35
0.3698685315541229 -0.14824647010084477 -1.9391064821956046 79 58 31
0.37518317849982985 -0.14587808862968715 -1.9405573243313265 80 60 35
0.374310890488212 -0.14677778523475019 -1.947014658800319 83 63 38
0.37728436778891916 -0.14564566403345733 -1.9503547676823063 81 59 35
0.3760122493145972 -0.14675828116416706 -1.9571581984550068 83 63 38
0.37953583333018426 -0.14533525380660092 -1.9600488684282733 86 67 42
0.3720113483519646 -0.1497581710395173 -1.9720121049507084 80 63 37
0.373498401292774 -0.1494142283067709 -1.9765945500970241 80 64 39
0.377929772983849 -0.14751127031948663 -1.9787451735009456 78 60 36
0.38345473291096044 -0.14502804903409983 -1.9799767214892994 78 60 38
0.38937754858981166 -0.1423326381676555 -1.9808596810364463 80 59 38
0.38249775764302485 -0.14642305726325197 -1.9924066278280024 79 58 37
0.3913651792865588 -0.14216546321194967 -1.9908180109188198 79 59 35
0.3932237593473781 -0.1416236935542027 -1.9950791385273166 75 55 31
0.4013361820233704 -0.13776286601021107 -1.9940747271456056 71 53 29
0.3984397363066574 -0.13974460445521952 -2.0023382149222906 71 52 30
0.39754726576218513 -0.14066390868584702 -2.0089291129364804 79 59 34
0.39706743010739176 -0.14136511934862894 -2.0151843945745034 105 84 54
0.3985011868860915 -0.14105021459390796 -2.019821573373121 116 92 55
0.40196463360590073 -0.1396563403840462 -2.022726671474122 155 130 88
0.40841361429346956 -0.13667387910813192 -2.0230643776329917 148 123 83
0.41722108365022825 -0.13243471989762437 -2.02135087483497 94 73 39
0.42649197248309945 -0.1279462126602676 -2.019202627523521 92 71 41
0.42574138031783637 -0.12879128695563874 -2.025688065029611 91 70 41
0.4261981200028989 -0.1289943188112337 -2.0311401463589727 86 65 34
0.41317650352158786 -0.13638054424771406 -2.048332635772771 94 73 42
0.4145548453221981 -0.13609620426943247 -2.0530316035673395 90 69 38
0.42181428810405563 -0.1326757737940386 -2.052584218050565 90 69 38
0.4141589924258765 -0.13721018251415482 -2.0652088114059524 88 67 36
0.4081926259689387 -0.1408470958791696 -2.0763964176719125 85 65 33
0.41651108643201296 -0.13686064289855215 -2.0750052542580684 87 67 34
0.41396783799220693 -0.13867285344112548 -2.0832061978130745 104 84 51
0.42222608578021936 -0.13471572735762438 -2.081831278475894 116 90 51
0.4318041500005868 -0.1300506695453881 -2.07924717034196 162 133 84
0.4419057234083157 -0.12510265861105738 -2.076155263662507 153 126 77
0.45185569652810575 -0.12023248485046814 -2.0731566614988117 103 82 42
0.4483119187453892 -0.12257964120868572 -2.082251671323485 78 59 25
0.44876397041783567 -0.12279007177917312 -2.0877720457486246 84 61 30
0.4494569147243973 -0.12287214588961021 -2.0930829238644004 87 63 30
0.4475500381134505 -0.1243475199410155 -2.1007598638142047 88 65 33
0.45416580226636183 -0.12125709253421219 -2.1007022808566718 100 77 45
0.45628480997388465 -0.12057559436507387 -2.104724303740354 95 72 40
0.441590017877856 -0.1289117005670217 -2.124136490014101 87 64 32
0.44294368812831264 -0.12864420729080528 -2.128905406303382 84 61 29
0.4464950331748291 -0.12719743505949183 -2.1316546228335063 83 60 29
0.4496308823429944 -0.125973143145994 -2.1347794494571137 89 66 35
0.45314426225073023 -0.1245456159789387 -2.1375487873104944 82 59 28
0.46054411658501737 -0.12102908063344117 -2.1367003425862436 82 59 27
0.4613628094943464 -0.12104809392943744 -2.1419535231635702 75 52 19
0.4644163488769345 -0.11986579120094357 -2.145125448445792 74 51 19
0.4621619214861902 -0.12153861648334821 -2.1532653321648625 85 62 30
0.4594597756227313 -0.12345418424313093 -2.1618493743586353 82 59 27
0.46235616440105265 -0.12235753755983567 -2.16518313207216 81 58 26
0.4693578871595465 -0.1190494119003162 -2.164632060913636 83 60 28
0.4640907412869473 -0.12234977857852916 -2.1756836073851566 86 63 31
0.4753025912608685 -0.11677074696653295 -2.171109540815435 101 78 45
0.48025171039689174 -0.11456490636017327 -2.1724560070278756 92 70 34
0.48299228002800143 -0.11354921964228329 -2.175898201365946 88 66 29
0.48770829242719593 -0.11146719547672787 -2.1774422640460305 91 69 32
0.4936927731476508 -0.1086992488261243 -2.1777516791478173 91 69 32
0.49835050895344857 -0.1066461705377712 -2.1793188270870556 89 67 30
0.5025753706543772 -0.10482585636911368 -2.1812901166976717 92 69 33
0.5081439510102341 -0.10227833957285659 -2.1819458018076006 94 72 35
0.5125711558229934 -0.10034646943718892 -2.183692112673289 92 70 33
0.5124371325182414 -0.10088083998162509 -2.1898749304257357 92 70 33
0.5162554468007597 -0.09927738888783283 -2.192202920995822 91 69 32
0.5171088821525465 -0.09927820376879332 -2.1974299968933813 94 72 35
0.5196106801935925 -0.0983868310670995 -2.2010416826422463 97 75 38
0.5236409600736088 -0.09666715934035738 -2.203142387008449 98 76 39
0.5270881888851542 -0.09526263558502082 -2.2058088135906146 96 74 37
0.5298684677169354 -0.0942191248720447 -2.2091291347036908 90 66 30
0.5338394110295583 -0.09252944412294806 -2.2112601397477643 81 57 21
0.5371624673288669 -0.09119049058853002 -2.214026778728316 88 66 29
0.5453809859125182 -0.08719344132012158 -2.211885900973316 95 72 37
0.5420057414120509 -0.08948996496809664 -2.221347572083759 93 70 36
0.5458394662266991 -0.0878722667531984 -2.2235830716341383 91 68 34
0.5456029849054232 -0.08846597117532112 -2.2299171094384174 94 71 37
0.5497061903649089 -0.08670105518220675 -2.231870704463768 89 69 32
0.5518647042334159 -0.08599303530077496 -2.2357866772548682 84 66 31
0.553876407008092 -0.08536484386556065 -2.2398513194209992 76 61 31
0.5550653508951735 -0.08518455300424302 -2.2447560258086883 72 60 34
0.5580337996300482 -0.08403550087062475 -2.2478435483857653 71 59 36
0.557195081595783 -0.0849602704491805 -2.2548346083409716 67 58 36
0.5563541991220163 -0.08588748198891272 -2.26184443639995 91 85 70
0.5643364672127718 -0.08200498608193071 -2.259760563132901 122 119 112
0.5660695330908743 -0.08152871878318793 -2.2641128133203847 156 154 152
0.5685782964344301 -0.08062927182256682 -2.2676612734730424 178 178 182
0.5742190769377096 -0.07801973386232025 -2.267945583064395 190 191 195
0.5897890172109703 -0.06998570600679688 -2.257840722172049 196 197 202
0.6010618506265952 -0.06429347475244385 -2.2521561156737455 202 203 207
0.5804830917702839 -0.07600729059569941 -2.2798631390554442 204 205 208
0.5878912790990973 -0.07242718663497899 -2.27823267103402 206 207 209
0.4723073511243049 -0.136127814203732 -2.406442742974936 209 209 211
0.4869753458782431 -0.12859741248512796 -2.3974241258424804 209 209 211
0.475992167591649 -0.13510545224032774 -2.415568929310824 210 210 212
0.46400541056011946 -0.1421690993410621 -2.434859893922945 211 210 212
0.45175973780621526 -0.14938101029724873 -2.454511045388821 209 211 213
1.8692199859871477 0.6028433058803551 -1.2617667052441905 216 216 218
1.879626200441038 0.6086281297177665 -1.2495718537943534 216 216 218
1.8757737189059522 0.6061667616020973 -1.2582765405568874 216 215 219
0.13612545284851957 -0.19864297609552597 -1.1078771237587064 191 191 193
0.1418484340054636 -0.19614380709143506 -1.1102039337157317 191 191 193
0.14617389741045478 -0.19434179585271996 -1.1130893723709785 192 192 194
0.18747327816060771 -0.17406086571788737 -1.1007501000677185 193 193 195
0.21842440473939956 -0.1589419168115076 -1.0925435653484665 194 194 196
-0.16192143639493106 -0.37891805725333805 -1.6367939446384074 208 208 209
-0.10732326922874702 -0.35149286101955657 -1.612522382222714 208 204 201
-0.054700147634940355 -0.3250597490336304 -1.5891288170927296 144 129 110
-0.04587018748379956 -0.3209836846492543 -1.589863920445425 137 117 88
-0.03144803241133076 -0.3140476735788349 -1.5874524023243604 133 112 83
-0.017735038191914576 -0.3074702831065181 -1.5853872978130417 129 108 79
-0.004829536622909747 -0.3013021266509916 -1.5837281493012194 124 103 73
0.005285765262454389 -0.29655777588228127 -1.5835981173019218 135 112 78
0.018582661867554195 -0.2901829192197541 -1.5816339900681426 136 113 81
0.029273783124719843 -0.28513822621103857 -1.5811039729033813 132 108 78
0.03766634345590847 -0.2812676514672966 -1.5818490735732982 139 115 83
0.048173817772238725 -0.27631188455375366 -1.58135761402353 144 118 84
0.05871263924165937 -0.27133735697620864 -1.580813117170329 149 123 88
0.06870662490489687 -0.26663933215835867 -1.5805474861063442 147 125 92
0.07939699600681827 -0.26158175972079245 -1.5798458621960605 134 113 83
0.0905191313832917 -0.25629999484319343 -1.5788574445398345 128 107 79
0.09817062706652979 -0.2527956427637784 -1.579853884195341 125 104 79
0.10639791592801962 -0.24899402676224247 -1.5804901070359718 122 101 76
0.1163152317459083 -0.2443229278354542 -1.58010828147475 116 96 71
0.125636127187563 -0.23995551385726754 -1.5800447358809062 114 94 68
0.13538305376364146 -0.23536691552437708 -1.579698608965362 114 94 67
0.14448771565642826 -0.23110579498664155 -1.5797010619123715 117 96 68
0.1528080285811143 -0.22724548657512558 -1.5801407322113343 108 87 59
0.1648671090272007 -0.22146096472720814 -1.5783191804173329 101 80 53
0.17387843600483144 -0.2172405543636537 -1.5782830599994295 90 69 43
0.18077857805694753 -0.21410394108527608 -1.5794880427179931 92 73 48
0.17815953662528516 -0.2158643983845504 -1.5864227482373034 88 71 44
0.18715245781116852 -0.21164884170425283 -1.5863378471440668 89 73 45
0.19508732432321985 -0.20797582189156358 -1.5868668297579027 95 75 45
0.2029847440092677 -0.2043201372794828 -1.587393331598356 90 69 39
0.20890846482637815 -0.20167950117146496 -1.589103864302559 89 68 39
0.21630545209006025 -0.19827819054958035 -1.5898917686049254 107 86 55
0.22319604926217218 -0.19513618953995404 -1.59096892589287 121 101 69
0.23242502477529492 -0.19078649057914293 -1.5905771378610614 107 88 56
0.23936288301435882 -0.18761646283078337 -1.5915776801771806 90 74 43
0.24734745512997997 -0.18390456872008407 -1.5919041893763735 112 93 63
0.25529324446531293 -0.18021069345179055 -1.5922289748531662 96 78 48
0.26266529477871614 -0.17681112683150516 -1.592888115822428 111 91 56
0.2678144974578066 -0.1745581045410951 -1.5949243567406557 139 114 72
0.27938941143333235 -0.16898333089633472 -1.5928841332282997 146 119 76
0.28704128353766933 -0.1654333398469885 -1.593290897146721 130 106 71
0.293955782535845 -0.16226274274909672 -1.5941422485270564 126 102 68
0.3000376269846864 -0.159521197873606 -1.5955038586880714 138 114 75
0.3083437940674952 -0.15562726462763812 -1.595421522926236 136 112 73
0.3137240211999764 -0.15324573063048397 -1.597193373646825 142 118 78
0.32119988990900034 -0.14977791347047975 -1.597597517026989 152 128 86
0.3253837389293356 -0.14801338511270395 -1.6001094340701458 153 126 85
0.32625771153682975 -0.1479630812525785 -1.6047625641270546 143 116 79
0.3344688901119843 -0.14411018645163906 -1.6046358744317544 134 108 76
0.3418019728438871 -0.14071042745475706 -1.6050559609545147 142 117 82
0.3455943327783289 -0.13914523773354306 -1.6077768024276493 158 133 93
0.3540557435164805 -0.1351569829179484 -1.6074135000810654 145 121 86
0.3616109447095507 -0.13163680729274904 -1.6076201284123204 105 81 55
0.3521306477468677 -0.13695906032522423 -1.6191007530108577 70 48 26
0.35403854017834513 -0.13637085836123736 -1.6230536518632537 93 72 49
0.3537077028257149 -0.13694573416763067 -1.628501682626169 96 74 50
0.35596533905374617 -0.13617619248389956 -1.6322256904742156 94 73 48
0.3602010225594739 -0.13437822554738965 -1.634618561904931 94 74 47
0.3581131132972915 -0.13586798716996729 -1.6412665322626045 92 72 48
0.35824041276257634 -0.13620677392940841 -1.6464335631188325 111 92 74
0.33967151041949306 -0.14627550447307136 -1.6643045375718846 102 86 72
0.3132978868537297 -0.16041427864461982 -1.6875862008220792 80 64 51
0.2899568737270948 -0.17298379042465928 -1.708923694493606 73 57 44
0.2739970357483401 -0.18171723394725353 -1.7253140726990528 75 60 45
0.2709306662608294 -0.1837383300452221 -1.7329138174039591 89 76 55
0.2644900357920743 -0.18752011562724744 -1.7428665925496927 84 69 45
0.26309242742296923 -0.18867524178312006 -1.7493647562197305 94 79 51
0.2676894611275523 -0.18670465712014492 -1.751712323982596 114 95 63
0.26914581812187055 -0.1863719679455377 -1.7562382334366373 115 93 59
0.27292418181806666 -0.18482745896862454 -1.7591423482717758 101 79 48
0.27127420905274335 -0.1861167555679299 -1.7658487511652683 105 87 61
0.2746981930977639 -0.1847570846652174 -1.768998989726473 100 84 55
0.27883469046129894 -0.18302462909492884 -1.77163945112961 104 86 57
0.2820321835537517 -0.18178223354760628 -1.7749358600195597 98 79 51
0.28267134792800197 -0.18187709048512601 -1.7800463574596126 96 77 52
0.28772649023556707 -0.17966269346609898 -1.7820125787492855 115 97 71
0.28824455256621573 -0.1798211308079956 -1.787212576449233 113 96 68
0.28937681388632 -0.17965864221920283 -1.791978597841303 102 85 56
0.28996188641025045 -0.17978298254901268 -1.7971431363841293 120 99 68
0.29085140443442925 -0.17974839214968907 -1.802094449145563 115 94 63
0.29314363141310074 -0.17897927626574084 -1.806033968774603 114 93 62
0.2934052272899298 -0.17927438140069538 -1.811449695377417 106 85 54
0.29499965067683065 -0.17887132162487532 -1.815901017152369 113 93 61
0.2967521247525525 -0.17838553129918566 -1.8202387543843344 116 96 63
0.302687482940161 -0.1757052057824395 -1.8215051416913224 117 96 64
0.30507897423524577 -0.17488347886307726 -1.8253648698293323 116 95 64
0.30738062020805923 -0.1741087983553536 -1.8292893930118088 110 89 58
0.3086397835963135 -0.17388155756420362 -1.833985925342197 108 87 58
0.31206151459497455 -0.17251838495478491 -1.83707706747527 111 90 62
0.31239885091020614 -0.17277582554499826 -1.8424640606050815 108 87 57
0.3124195500310747 -0.1732003732175337 -1.8480963192947186 103 83 50
0.3142958978963415 -0.17264967974744488 -1.8523442259973009 98 78 45
0.32129995293807134 -0.16940116034036756 -1.8527285499799837 102 79 47
0.3233719264331455 -0.16874668444491803 -1.8568179234755797 104 81 49
0.3173404832555452 -0.17235872537922733 -1.8670530633320597 108 85 53
0.31898956155534175 -0.1719284695744348 -1.871483430446041 111 89 57
0.3172466955275479 -0.17328551426644706 -1.8785046367817169 106 86 53
0.3203280755558001 -0.172101270868213 -1.881850425108581 99 79 46
0.32415217597337376 -0.1705250431727589 -1.8846207843040148 100 80 47
0.32511165889081406 -0.1704590692214832 -1.8895897698795552 102 82 50
0.32552315388240216 -0.17068263809107265 -1.8949876220606923 95 75 42
0.3301148128690571 -0.1687004704632413 -1.8971523246999347 92 72 39
0.33350185940282273 -0.1673533890583856 -1.9002416201677168 95 75 40
0.3375991086523257 -0.16563068364703568 -1.9027702838936094 94 74 40
0.34198419875745734 -0.16375511862763828 -1.90506366612127 87 66 34
0.341402019609373 -0.16450421101347748 -1.911245562914565 92 71 38
0.345979974976398 -0.16252584162197742 -1.9133763405127149 95 75 41
0.3441264287446568 -0.16394843392870487 -1.9205758303573863 93 73 40
0.34626496340805246 -0.16326015323359744 -1.9246308089598907 95 75 42
0.34932006084673284 -0.1620866790980108 -1.9279567272932177 97 77 44
0.3529402085918878 -0.16061361952173947 -1.9308271011238145 88 67 36
0.359863087529823 -0.15739048062817124 -1.9310478302733793 87 66 35
0.3633989090862638 -0.15596027560141676 -1.9339621333689268 86 65 36
0.3652852372649634 -0.15540387964608784 -1.938196663073664 87 66 38
0.3684461770442533 -0.15417164123123836 -1.9414029121815464 83 63 36
0.37065141545340197 -0.153445948241009 -1.9453775703633869 85 66 40
0.37439816131875747 -0.1519021672100096 -1.948099185698434 84 66 40
0.37624808076699034 -0.1513646765330446 -1.952357901276767 83 63 38
0.37325556872506716 -0.15339884292953587 -1.9605755384426802 83 63 38
0.3729247736714639 -0.15402093221334354 -1.9666362090234397 84 67 41
0.3702653131663116 -0.15588148726049167 -1.9746238629598603 82 65 39
0.37457300757773315 -0.15403989789471123 -1.9768880833450173 80 64 38
0.3784068528485499 -0.15244943753764004 -1.9795329953763807 77 59 35
0.3825478151761813 -0.15069488901141923 -1.9819140051133957 78 60 37
0.38255399441987226 -0.15114012978298935 -1.9877265185745272 80 59 38
0.3837540262182889 -0.15095054552575568 -1.9925525072675077 79 58 37
0.3945181642741248 -0.14566736072889216 -1.989372389896873 78 58 34
0.3934125976763141 -0.14670500163841202 -1.9961195980572752 74 55 31
0.39466499063511895 -0.14648708235700567 -2.0008959341285726 73 55 33
0.3906691147497797 -0.14906784804519999 -2.010112156563683 71 52 29
0.3911209875705157 -0.14927858401975289 -2.0155886798772795 99 78 50
0.3974684453411814 -0.14634410236440457 -2.0160602510890278 104 82 45
0.3990267621748176 -0.14596432576179766 -2.020594376698 152 123 77
0.40471097574171333 -0.14338155379493586 -2.0216014681766787 166 136 91
0.4105025009029679 -0.140740012318037 -2.0224977419348016 107 86 52
0.418269427477861 -0.13704134790223776 -2.0216745933969675 93 72 42
0.4257446755465707 -0.1334963278365139 -2.0210736077644547 93 72 42
0.4198412937545609 -0.13710385991869442 -2.032027683562288 92 72 39
0.42344613819373134 -0.1356277842688524 -2.034766036091236 94 73 41
0.4132275803236356 -0.14154920358848433 -2.0495364185985228 102 81 50
0.414730131593261 -0.1412001925161612 -2.0541310547391087 93 72 41
0.4144145569522676 -0.1418251722190133 -2.0603216135997235 87 66 35
0.4113509347742318 -0.14392348755352147 -2.0689396094373826 87 66 35
0.4098547513146783 -0.1451837315386729 -2.0762027887256838 79 58 27
0.4124779548372546 -0.14423661298668755 -2.079842770876545 100 79 47
0.41516922721378047 -0.14325275386490252 -2.0834194323466457 102 83 45
0.42428723376126987 -0.138820038680091 -2.081277225608723 151 127 83
0.4343099770948786 -0.13389878319336065 -2.0782907564450865 165 139 93
0.44363763320200844 -0.12934754688653843 -2.0758839826523934 121 98 55
0.44285469844186554 -0.13022488334068513 -2.0825105503011336 91 70 35
0.4479916776409989 -0.1279219046661567 -2.083824626596846 86 65 32
0.4483856830184183 -0.12816758927377883 -2.0894031576221748 87 64 32
0.4456806673865358 -0.1300806905465156 -2.097795813055179 84 61 28
0.4526652907367561 -0.1267823871931103 -2.097416450367732 91 68 36
0.4537680717010548 -0.12664789151460668 -2.1023665887413143 92 69 36
0.45469661356284885 -0.12660760096328355 -2.1074808683411597 91 68 35
0.4425132440152857 -0.13363054674832048 -2.1246108964386434 86 63 31
0.44533041845182475 -0.13257618412692848 -2.1280374008531524 83 60 28
0.44965195430005445 -0.1307105512493521 -2.1300737913079137 79 56 25
0.45308187608088735 -0.1293248012783881 -2.1329218169874498 74 51 20
0.4561747033284882 -0.1281203341780661 -2.136074785778688 86 63 32
0.45917075498603366 -0.1269676609234926 -2.139312054921325 91 68 36
0.46617969863910536 -0.12364802146546566 -2.138803592473692 83 60 27
0.4652927086223213 -0.1245909915375552 -2.1456497769885 84 61 29
0.4623778245962952 -0.12663090733387308 -2.1544132406797907 84 61 29
0.4656369062429011 -0.12533568289793867 -2.1573983153924514 83 60 28
0.46601295144518695 -0.1255989306582199 -2.1630956192739794 82 59 27
0.46027581946476703 -0.12916983184889605 -2.174583820905206 83 60 27
0.45702453378647945 -0.1313987731161837 -2.1837568594582253 89 66 34
0.4663971598140044 -0.12679566656224187 -2.1809502993636714 93 70 36
0.47412438202910523 -0.12308059071766658 -2.1796732542121955 94 71 36
0.4806965626099535 -0.11998890731200149 -2.17947005545647 99 77 40
0.48635253838866443 -0.11739189463042549 -2.1801210153384734 92 70 33
0.4929489365842471 -0.11428341769184885 -2.179847012923737 92 70 33
0.4977415072322573 -0.11215146632062112 -2.181288611389692 93 71 34
0.5026263669667449 -0.10996825418696674 -2.1826255877979177 95 73 36
0.5066216262846084 -0.10826675810515668 -2.1848102004693684 94 72 35
0.511530789867146 -0.10606808993261746 -2.186094244696352 93 71 34
0.5152082786875909 -0.10453735333270403 -2.1885646165188994 92 70 33
0.5185172933363393 -0.10320617770481313 -2.191386512463808 94 72 35
0.5239397187842442 -0.10072531542472127 -2.192126196308285 98 76 39
0.522172734286242 -0.10215366454182973 -2.199925842425923 102 80 43
0.527983706072768 -0.09945998206506099 -2.2002638746466014 96 74 37
0.5301172378689925 -0.09876659703260729 -2.2042222766316977 99 77 40
0.5317920820284411 -0.09832296687252015 -2.2086355874550794 97 73 37
0.5332920528462144 -0.0979747638089093 -2.2132250388186643 88 64 28
0.5360225330352578 -0.09695611348515948 -2.216588458128482 95 73 36
0.540597894692717 -0.09493121582334366 -2.2180999946319795 84 61 26
0.5407056253099412 -0.09534219446176581 -2.224084595245003 87 64 30
0.5452832253450977 -0.09331481447851159 -2.225577523211708 91 68 34
0.5483696263511767 -0.09210038236424314 -2.2285622290831326 96 73 39
0.5493097780198 -0.09205763145355259 -2.2337150758340303 101 81 43
0.55172333686857 -0.09121034647914103 -2.237377267657151 88 71 35
0.5531683525221032 -0.09089227616123718 -2.24202394167901 77 62 32
0.5536980281902312 -0.0910749734180599 -2.2476091036352606 71 60 34
0.5559057773645375 -0.09034038306927539 -2.251483600530022 62 50 31
0.5550628017140256 -0.09127521855961163 -2.25849147191905 74 65 47
0.5636015574307455 -0.08707508885443838 -2.2558495791424757 102 97 85
0.5654434955590004 -0.08653986992691079 -2.2600893085386833 137 135 129
0.5664008160100396 -0.08648943094712905 -2.2652466630537718 166 166 165
0.5692872422660211 -0.08538203821779927 -2.268405744507165 184 186 189
0.5804547502742603 -0.0797331542246272 -2.2629310456495557 191 194 197
0.5956221437820743 -0.07188582400975435 -2.2532233450979593 197 198 203
0.6055165308837236 -0.06692649129705944 -2.2489637867884493 202 203 207
0.5854041265059717 -0.07843875989366275 -2.2761881033379767 205 206 209
0.5183283956857634 -0.11575683259837619 -2.353028213301833 207 207 209
0.4811723147661343 -0.13666538500804545 -2.3986606634905807 209 209 211
0.4727152491990847 -0.14181509513745702 -2.414115015465994 209 209 211
0.47523863196274196 -0.14093084396723538 -2.417964441206811 210 210 212
0.46380346049724996 -0.14772621762945026 -2.4366848037101816 211 210 212
1.8701706538350389 0.6011240095867967 -1.2613003586678513 216 216 218
1.8817737375032924 0.6076312729478073 -1.2473362737654468 216 216 218
1.877922084881386 0.6051575624874056 -1.2560394664008583 215 215 218
0.12340776444418877 -0.21022722107132838 -1.1182441201440074 191 191 193
0.13151954546962796 -0.20652452213072148 -1.1196135351965213 192 192 194
0.17321923854905663 -0.18596991241864122 -1.107130912063474 193 193 195
0.21298550104748804 -0.16637412405679136 -1.0953014611212253 193 193 195
-0.18201182341503463 -0.39496540870432895 -1.6486901061727088 208 208 211
-0.12931013536623337 -0.36840984435300705 -1.6254942894496527 211 210 212
-0.07767736317808493 -0.34238618535935805 -1.6026828476824695 185 176 167
-0.050755927285200175 -0.32902133193016053 -1.593407526807884 135 117 95
-0.035365803848579236 -0.32156490052351056 -1.5904655246261858 137 116 85
-0.01980206671136775 -0.3140151101027406 -1.587371636919648 134 113 79
-0.007240708977802934 -0.30800240022670844 -1.5859102947688823 132 112 79
0.0026995303320553887 -0.3033324192756107 -1.5858849283922245 137 116 82
0.015095915792159298 -0.297398154804131 -1.5844360834366347 131 111 77
0.026051391289758308 -0.29220102236958134 -1.583763700536158 126 105 74
0.03618806860479551 -0.28742192502241926 -1.5835217472625807 133 111 79
0.04603946060170905 -0.28278692081431894 -1.5834097528746005 144 119 85
0.056955440716573436 -0.27760181102463366 -1.582653591367642 146 120 84
0.06796433972551563 -0.2723660222334411 -1.5818069873663605 146 123 88
0.07606200887043801 -0.26862572296000153 -1.5826085097250568 144 121 87
0.08276894305047822 -0.2655994969760639 -1.5841929628246423 140 117 84
0.09214196520015316 -0.261198665904241 -1.5842033022542124 141 117 86
0.10213971640104025 -0.25647359397073255 -1.5838173417493677 135 112 82
0.11068129350110445 -0.2524963653492613 -1.584253338147971 127 106 76
0.11882380113480373 -0.248722738467222 -1.5848972953526042 125 103 75
0.12996835475534974 -0.24339900924414565 -1.5837394927637813 126 104 77
0.13769186096621822 -0.23983702396546377 -1.5845744574533198 126 105 79
0.14968199628900425 -0.23407152722796076 -1.5828429955421819 122 101 74
0.16053416384638342 -0.22889013462265043 -1.5817497808386722 116 95 66
0.16777217336369055 -0.22557197823405328 -1.5827880879923881 111 90 61
0.1754517776840694 -0.22202400769683045 -1.5835382824183954 109 88 60
0.1832203024867468 -0.2184282174576685 -1.5842106386147643 113 93 64
0.19059435694086146 -0.21503439750675848 -1.585097739487668 110 91 61
0.1968877370839498 -0.21219751878965373 -1.5866197812646539 101 80 49
0.2002419282057133 -0.21087931168985108 -1.589919023756723 103 83 50
0.2083751340506943 -0.20708823844639024 -1.5902828756483895 114 93 61
0.21689598944203436 -0.20309449879973618 -1.590381915824501 111 90 59
0.2239381537916839 -0.19986407225924127 -1.5913657749329086 91 70 39
0.23432920684965614 -0.19489771117898622 -1.5902531579369796 109 90 59
0.24115334424108492 -0.19177627273120335 -1.591321777389963 114 97 68
0.24792083663563408 -0.18868255950834464 -1.5924048337178718 103 83 52
0.2569105472878642 -0.18443531528789187 -1.5920759466738563 104 85 52
0.2643209370838142 -0.18100463074640927 -1.5927087934085402 124 103 66
0.26975362460748686 -0.1785979486689877 -1.5945648037769387 140 114 71
0.2795350322935877 -0.17393365477336997 -1.5936547230400877 148 122 75
0.2870891954227367 -0.17042274364855767 -1.5941243743468316 135 111 72
0.29230464371134757 -0.16812422897460677 -1.596059357050987 128 103 66
0.2990858426076099 -0.1650113755842964 -1.5969792966413892 165 139 97
0.30848628818026413 -0.16053602036230707 -1.5961980839672631 135 110 70
0.3130888572488645 -0.15855172169811432 -1.5984720977269216 139 113 77
0.32108998100595254 -0.15479959596599954 -1.5985396063528305 145 119 80
0.32719821250805875 -0.152029838499157 -1.599807078429956 137 109 71
0.3294678925596543 -0.1512556528385741 -1.6035522325379896 138 109 75
0.3374632933341339 -0.1475015687835716 -1.6035600867321185 138 112 79
0.3431831268982581 -0.14493004326794587 -1.6050309181093625 143 117 84
0.3480927449189419 -0.14277914647937084 -1.6070172346289184 157 131 97
0.35675825404515 -0.13867061572812775 -1.6065145692869947 132 107 77
0.3628294386339092 -0.13591169326789931 -1.6076977771372527 90 65 44
0.35011403773964805 -0.1429446274157149 -1.6213302409691583 51 29 13
0.3536475281989438 -0.14150942949210174 -1.6242084422009782 106 85 66
0.3552050523069412 -0.14110442577773183 -1.6283997783510824 95 75 52
0.35799901293662195 -0.1400543671767269 -1.6317639974919307 91 71 47
0.36033369038058444 -0.13924375619304963 -1.635433366914971 90 69 46
0.35936867054916755 -0.14015601098833455 -1.6413280247616702 92 75 52
0.36089179674294336 -0.13976962328764364 -1.64555098033312 120 105 87
0.32420061274946754 -0.15935120558698104 -1.6757404186568543 86 70 55
0.29864817598719806 -0.17312425075187624 -1.6985119635038166 78 62 47
0.2738018319330975 -0.1865378576360453 -1.7209258772286309 76 60 46
0.2599928070025107 -0.19418788998340336 -1.7358876299746024 83 68 51
0.25524937928096647 -0.19710015145222134 -1.7446795741730416 89 74 51
0.2556074624519913 -0.19734465294103337 -1.7499782501864818 103 87 60
0.2560027873478993 -0.19757026024352797 -1.7552588828353752 111 94 64
0.2603340953231178 -0.1957349244066892 -1.757809948327609 106 86 54
0.2652447793048791 -0.19359521274558852 -1.7599463128706754 110 90 59
0.2658684555208619 -0.19370140458645063 -1.7650705494386825 89 69 43
0.26632820603531093 -0.19389405672028856 -1.7703165074906848 93 75 51
0.2708506193683615 -0.19195647883901204 -1.772707099524161 100 82 54
0.2744183400508532 -0.19051890511224237 -1.7757611993490632 102 85 56
0.27510570452530825 -0.19059252574686567 -1.7808512453097074 101 84 57
0.2782177722557233 -0.18939360733305668 -1.7842222119152384 124 106 82
0.2838275508635624 -0.18688248922288384 -1.7858050727720027 119 102 76
0.287934474601797 -0.18515966286527205 -1.788447780550534 107 90 59
0.2954710921500824 -0.18163354231236153 -1.7886163402460897 119 101 67
0.2893605367359695 -0.185280459492346 -1.7985978490023746 121 100 69
0.29983633531417997 -0.18020700649402885 -1.7966211461673236 117 96 65
0.29871179722844354 -0.18123361712351801 -1.8030222890528458 116 95 64
0.29391883828992027 -0.18419207972214094 -1.8121088016246674 112 91 61
0.29535800463689865 -0.18387193472837304 -1.8166760644411384 118 97 67
0.2968157857333861 -0.18354221061477338 -1.8212325734529218 117 96 66
0.29807941732146614 -0.18331499291245432 -1.825934594567663 116 95 65
0.2983858499233166 -0.18359254412068193 -1.83134619143186 116 95 64
0.3011988352319802 -0.18254923362348352 -1.8349117750473476 114 93 62
0.30400979611715684 -0.18150671010279315 -1.8384752566181353 110 89 58
0.30280420838687583 -0.18258300023801743 -1.8450255784892877 107 86 57
0.3083969119928188 -0.18007252170681357 -1.8465136912800153 103 82 52
0.3113537506404602 -0.17895236549743748 -1.8499599732934437 102 82 49
0.3143079549855323 -0.17783326377167197 -1.8534039106273645 101 81 49
0.31730238294695623 -0.1766925737846092 -1.8568131923555746 104 81 50
0.31962447749566947 -0.17590687414488643 -1.8607265573810867 107 84 52
0.3188390786251565 -0.1767640328617798 -1.866996860415766 106 83 51
0.3182462539159273 -0.17752040305241285 -1.8731342103301425 110 88 56
0.31340191883992563 -0.1805271752269096 -1.882531239680111 111 91 58
0.3137933032216115 -0.1807654205122292 -1.8879503869354628 103 83 50
0.3176358410276027 -0.17917704336248172 -1.8907252437127224 106 86 53
0.31702048409395345 -0.17994911774572078 -1.896928373244578 97 77 45
0.32087447325062024 -0.17835416990450026 -1.8996879108037243 97 77 45
0.3252001161302275 -0.1765085532894259 -1.9020728080940705 103 83 50
0.3296751623892824 -0.1745828606124271 -1.9043303912786618 97 77 42
0.3342123796575216 -0.17262327318710016 -1.9065276403261275 92 72 39
0.3433173294379057 -0.16823910621830496 -1.9051355038599223 89 68 37
0.33798081968834626 -0.1715176297769062 -1.9150541413595858 96 75 43
0.34217940235105804 -0.16973602327470524 -1.9174947880539366 96 76 43
0.34342498182505576 -0.16952215020226313 -1.922259305883614 97 77 44
0.34406788742178296 -0.16962882650388528 -1.9275057142010055 98 78 45
0.3470045364842985 -0.1685167908288806 -1.9309345252525136 99 79 46
0.3526783928447095 -0.16594890847686555 -1.9321748982774283 89 68 37
0.3560663397878443 -0.16459560122353412 -1.9352269882970574 89 68 37
0.35844474601304377 -0.16377898961373472 -1.9390829877975364 87 66 36
0.3610931757181344 -0.16281850976884518 -1.9427198889797885 85 65 37
0.3666950135547177 -0.160285041676686 -1.9439678873559978 89 69 42
0.3693127481013322 -0.15933987536055882 -1.9476163302875764 86 69 43
0.37200469067248565 -0.15835494039968154 -1.9512015984172835 73 56 30
0.3742169093090786 -0.15762549734039025 -1.9551747747015478 76 58 34
0.37090719814531004 -0.1598408418688838 -1.9636632552776272 78 60 36
0.3698466456003272 -0.1608583617852389 -1.9703334967096904 82 65 40
0.3690284503761402 -0.16174775621105028 -1.976819957377491 84 68 43
0.37252133385110997 -0.1603366392570694 -1.9797625096693499 83 67 41
0.37337841512126324 -0.1603327015154608 -1.9848800571107381 86 68 44
0.37435616067324873 -0.16026476642231344 -1.9899034521969017 79 61 37
0.3764894922736651 -0.1595796186357784 -1.9939697125998803 80 60 38
0.37841091707483343 -0.1590077421014006 -1.998212634309212 80 59 38
0.3893505947218904 -0.15361227253762408 -1.9948982838237566 79 59 35
0.38714905178444603 -0.1552448075213953 -2.0025854520210946 77 57 34
0.3847614832697688 -0.15697860623478402 -2.0104511623601535 68 50 28
0.3873929714506096 -0.156026607546018 -2.0140948085347827 82 63 37
0.3923065399272281 -0.15385193344110168 -2.015799638012323 104 82 49
0.39616576255601255 -0.1522411108661235 -2.0183868965114153 129 105 65
0.3912398826170441 -0.155339009646616 -2.028462311929725 169 142 96
0.4049200931355492 -0.1484617773601912 -2.0226468064755503 136 111 68
0.4111218655292139 -0.1455918559146717 -2.023192184689862 96 75 43
0.41939558429584634 -0.1416083013652766 -2.0219317969141195 93 72 42
0.4208356845365837 -0.14129104025462927 -2.026541720935125 95 74 43
0.41569199874283524 -0.14451002737248556 -2.0368586006985088 95 75 42
0.4146009942251452 -0.14555449492209752 -2.043691235655084 96 76 42
0.413940038293788 -0.14636908994864645 -2.0501653858754136 96 76 43
0.4059580836843947 -0.151121185224722 -2.063053374013381 94 74 42
0.41243685058227153 -0.1480990897215197 -2.0633150391943227 89 69 36
0.41088681127142346 -0.14939544100734622 -2.070614005709995 84 63 31
0.40354004533036747 -0.15381362934553958 -2.083044648979073 81 61 29
0.4085932023268497 -0.1515582786698812 -2.0845552710744477 103 83 49
0.4183419910638291 -0.14677213301721442 -2.0818838884275954 127 107 66
0.42843629517711734 -0.1417966291069176 -2.0788645100653484 147 125 82
0.4366395408310568 -0.13783732290154774 -2.0774905328982403 134 112 74
0.44226202129887937 -0.1352673500404856 -2.0783942719726163 90 72 39
0.44260224734065357 -0.13554583852443317 -2.0840216745994176 84 64 34
0.4444759190577663 -0.13499737216653215 -2.0882772439594834 88 65 33
0.44836239492660745 -0.13336217258807437 -2.090715828572459 87 65 32
0.44598461868037 -0.1351098581574155 -2.098818896647505 86 65 32
0.44787187463924405 -0.13455472727459838 -2.103070803047108 88 65 31
0.4494155010396371 -0.13418541745172982 -2.10763665776471 89 66 32
0.44980568192640413 -0.13444007421036724 -2.113259276312442 86 63 29
0.4412791310677112 -0.1395192548410114 -2.1270632808294696 84 61 28
0.4441466399498356 -0.13843644603381808 -2.130450465668596 77 54 22
0.44867816569999475 -0.1364523883794228 -2.132299190385385 74 51 19
0.4529621128524305 -0.13460138225418308 -2.1343634639330133 81 58 27
0.4566149589018508 -0.13309138400742165 -2.1370009081420376 84 61 29
0.46111244313613486 -0.13112288407129982 -2.138844131894243 90 67 35
0.4651282249524631 -0.12941455204569138 -2.141123375112772 89 66 33
0.4682354404985428 -0.12819824819429967 -2.144241849328553 87 64 32
0.47106794860554124 -0.1271305703680093 -2.1476122695356596 84 61 29
0.4715473310253132 -0.12734003650491707 -2.153192502738076 84 61 29
0.4690902118330028 -0.12914498015228953 -2.161552352150752 84 61 29
0.4675784380279374 -0.1304382278428946 -2.169042204517461 84 61 27
0.4517109681306972 -0.13953569394282225 -2.1901772357385525 85 62 28
0.46397914957991193 -0.1333423498479374 -2.184628674122132 87 65 29
0.47140804825114013 -0.12977698036606386 -2.1836437323865816 91 69 32
0.4779010568480433 -0.12671858576402958 -2.1835251821882173 96 74 37
0.48480132139319554 -0.12343657544310102 -2.18299104930349 94 72 35
0.49116333535552936 -0.12044560424722145 -2.1829483520969055 94 72 35
0.4961901380699817 -0.11818021331848563 -2.1841711408041165 94 72 35
0.5011141712252073 -0.11596954261879763 -2.185476864112369 97 75 38
0.5065016841493161 -0.11350490750334863 -2.1863163420446936 93 71 34
0.5064219894389 -0.11402100382144975 -2.1924626228884776 84 62 25
0.5108315318128929 -0.11208830690197491 -2.194235288014359 96 74 37
0.517270590764542 -0.10904665230622429 -2.1940063738737594 99 77 40
0.5214822476679785 -0.10721950679916972 -2.195941122374611 100 78 41
0.5237436718089248 -0.10645689945348688 -2.199785163252048 103 81 44
0.5305172136244198 -0.1032280400366124 -2.1991693792856943 98 76 39
0.5302867844555706 -0.10382673399712627 -2.2054673258197117 101 78 41
