ply
format ascii 1.0
element vertex 669
property float x
property float y
property float z
property uchar diffuse_red
property uchar diffuse_green
property uchar diffuse_blue
end_header
-0.3281980602507161 -0.4442976150561698 -2.266328095185432 144 139 129
-0.33490480343129314 -0.44510260099297644 -2.2668256248100795 162 160 155
-0.34044960940316416 -0.4458097932934061 -2.268296099925564 175 175 174
-0.34081200199365824 -0.44608444839377154 -2.274198501741996 186 186 188
-0.34441932703412725 -0.44662954714802994 -2.277316058334018 193 193 195
-0.3603835518065885 -0.44820189301270696 -2.2697621929227076 197 197 199
0.08425742345305354 -0.38075768647673347 -2.014225854014331 142 133 122
0.07662282518843233 -0.3817106594958818 -2.015485859989803 141 129 116
0.06612592816255569 -0.38292864183435604 -2.0148357212220285 138 126 110
0.0560387858444088 -0.38410728791327886 -2.014422916629165 133 123 108
0.05298040139560534 -0.3846329383612274 -2.01864315351998 130 120 106
0.021111419473896054 -0.3878276607681743 -2.0036782800627537 127 115 100
0.017834079043185458 -0.3883710215990236 -2.0076862462406426 127 114 98
0.012721894055179539 -0.3890839104646603 -2.0104606150163913 126 111 96
0.01076329023331224 -0.38950491871260584 -2.0153420304829046 124 111 93
0.0057771205766126155 -0.39020549329194554 -2.018183788750388 123 110 91
-0.0027982707115286054 -0.3912367195150285 -2.0185874122441865 122 109 90
-0.011352294597794299 -0.392264953754335 -2.018979121544662 122 107 88
-0.020225368820958045 -0.3933215471793243 -2.0191274329050137 117 102 82
-0.027880620128214684 -0.3942650170583776 -2.0200789010073534 112 97 77
-0.036891833728786794 -0.39533225499052516 -2.0200796320045926 103 88 67
-0.04142321287655604 -0.39598693481444636 -2.023127097647892 109 93 73
-0.044384748038739485 -0.3964971755488249 -2.027245606825721 117 100 80
-0.051018173659337474 -0.3973439445371126 -2.0288249187315808 120 102 82
-0.05640807405413173 -0.3980760787126556 -2.031246962988443 120 102 82
-0.06030174146656453 -0.39867075023492254 -2.0346950858443407 118 100 78
-0.06883274842871678 -0.39968918685848714 -2.0349041969943813 117 99 77
-0.07513976058335525 -0.4005034024793913 -2.036641125429988 115 97 73
-0.07043205903992722 -0.4003115290309856 -2.0460829793632316 113 95 71
-0.07516010010963792 -0.4009812906092469 -2.0489184760287222 114 96 72
-0.07801063212220538 -0.401479561273772 -2.0530673552461836 115 98 72
-0.09820207987913243 -0.40355633435917593 -2.044945978166557 114 95 69
-0.08873878353843356 -0.40293298606770966 -2.0577893967931913 113 93 66
-0.0953998199631142 -0.4037767640111076 -2.059207042699639 112 92 65
-0.08923120944263985 -0.40345502027705726 -2.069762996442993 112 92 65
-0.11568833077669949 -0.4060939926923956 -2.05699764923438 113 93 66
-0.11483536693650753 -0.406254023034734 -2.0637381681542357 113 93 66
-0.11682620806636723 -0.4066720273975597 -2.0684434381591283 111 92 63
-0.11696310535277421 -0.4069223507221386 -2.0744884027510926 106 87 57
-0.12102105041074429 -0.407527372645713 -2.0777014199418717 105 84 54
-0.10891101656991153 -0.40667222190813634 -2.0926532285717414 108 87 56
-0.11502310450100772 -0.40746325240890535 -2.094387575074702 110 89 58
-0.10984384711479134 -0.4072359702095985 -2.10435716413002 112 91 61
-0.11647985413280992 -0.4085543569657509 -2.118106224230967 113 92 61
-0.1421052448764032 -0.41109616246639014 -2.1053753741195056 112 91 60
-0.1270341978948546 -0.40998317884085556 -2.12272450009701 113 92 61
-0.1244363156977829 -0.4099909958484579 -2.130870703682853 113 92 61
-0.14028417294339368 -0.41165127247497774 -2.1252777331918513 111 90 59
-0.1543197201085904 -0.41314711997416254 -2.1209811082395444 110 89 58
-0.15667896096140077 -0.4135974121695612 -2.1253935107705932 110 89 58
-0.15992273690197611 -0.41412664480116507 -2.129139313410222 109 88 57
-0.17006345121476318 -0.4152709275353308 -2.1276753889897155 110 89 58
-0.17847581084406117 -0.4162598235440447 -2.1274845571667758 113 92 61
-0.1773441383693657 -0.41639789828153106 -2.1345104553855534 114 93 61
-0.17851417931707092 -0.41674126269327455 -2.1397984658599545 113 90 57
-0.18068334969368105 -0.4171735765385566 -2.1443278876360927 115 92 58
-0.1910765050084512 -0.41833600992588843 -2.1425606630542346 117 94 60
-0.1932784413461094 -0.41877051227113926 -2.1470463953129495 118 95 60
-0.19937590728342147 -0.4195501812883834 -2.1485320912201202 120 97 61
-0.2139364684220164 -0.42107835785320835 -2.143464734871918 121 98 62
-0.2155612041033319 -0.42146037646568046 -2.14836037249381 122 100 63
-0.2165740608039466 -0.4217884156214463 -2.1537333412002675 123 99 62
-0.2217298853449663 -0.4224823288911523 -2.155884290750511 122 98 61
-0.22015268564098844 -0.4225819926958532 -2.1632808088848634 126 102 65
-0.22060300319962056 -0.4228609037834733 -2.1691054944502506 127 103 67
-0.22719249479422998 -0.42368039952274605 -2.1701149346822506 129 103 68
-0.23127143649751236 -0.4242783873968977 -2.1730821176470294 130 102 68
-0.23377783221288118 -0.42473790750452567 -2.1772827924364564 132 105 70
-0.24496588422153398 -0.4259591626508089 -2.174603599088943 134 107 71
-0.2511359295675667 -0.42673895107163196 -2.17587042925371 131 106 69
-0.2546157792166923 -0.4272824362426162 -2.1792623299535614 130 104 67
-0.2505135579858977 -0.4271623385062836 -2.1887059371208304 132 106 69
-0.2507904510747524 -0.4274260587709434 -2.1946687149446595 138 111 75
-0.2492564880351188 -0.42753198396947695 -2.2020946901926646 143 113 75
-0.2674589263713082 -0.42936007260992626 -2.1936344512291956 149 120 80
-0.26732320906333484 -0.42958738073543173 -2.1999187996770213 151 122 81
-0.26814232173900876 -0.42989819713022587 -2.2054395314596915 150 121 81
-0.29081050025493904 -0.4321092936820008 -2.193212642718058 148 120 79
-0.29431887935342227 -0.43265226288959246 -2.1965039772662878 148 119 78
-0.29203788659511754 -0.43269253819290854 -2.2045192340871993 153 125 84
-0.2927676430101691 -0.4329946090425574 -2.2100873998665294 150 122 82
-0.30360446183763556 -0.4341722906973129 -2.207357171470305 147 119 78
-0.30128720892404837 -0.43421031067091803 -2.2154250774934736 147 119 79
-0.30378146541474593 -0.4346649807807188 -2.2195376424128295 151 123 82
-0.29985781726332994 -0.4345654282180257 -2.2289656674865848 151 123 82
-0.29924449968866396 -0.434752474918421 -2.235670934092296 149 121 81
-0.30283845889873917 -0.43530252481516274 -2.238883393915394 147 119 81
-0.29935006764691596 -0.43524267858951626 -2.2480056545203295 143 117 79
-0.30327609936855315 -0.4360625008560505 -2.2571684241128884 138 113 76
-0.3118234776531834 -0.43703743612432966 -2.256204223053614 139 116 80
-0.317919030618355 -0.4378010436772858 -2.2572810457955113 121 104 78
-0.3208309511808265 -0.438291318672145 -2.261035741773542 113 101 80
-0.323124489019727 -0.43872854707553355 -2.265311744886935 117 110 90
-0.33046533784553056 -0.4395970195133968 -2.2652881513496457 132 125 111
-0.34058854238879044 -0.4407020361155856 -2.2628638812790287 150 147 139
-0.34345649054544103 -0.4411869579739429 -2.2666148221633655 167 165 163
-0.3439359082770398 -0.441468286334987 -2.2724129354025866 180 180 180
-0.3465516741677699 -0.4419316752811986 -2.2763790519223197 189 189 191
0.09528722732725636 -0.3599471393738455 -1.6425317432172977 214 215 214
0.08502649415831631 -0.3611865296263488 -1.6428101154341648 215 215 214
0.06766744128669411 -0.3631296103696706 -1.639248010494233 214 214 213
0.059114250412950486 -0.36419674881700537 -1.640372176656905 214 214 214
0.055167790149356466 -0.3648061902967001 -1.6439622788423245 214 216 216
0.015869759251719517 -0.3695659595359359 -1.6453688423437973 215 216 217
0.009138226646568604 -0.37044755904069376 -1.647348743677917 216 217 217
0.04130858199605936 -0.37976801315436015 -1.99297704535984 130 118 102
0.03131799361788057 -0.38094966996538443 -1.9925894536877038 129 117 101
0.024505526845189585 -0.38182969332347483 -1.994273697894443 129 116 100
0.01879063540457082 -0.3826053311964662 -1.9966678082202531 126 114 98
0.01282169457096416 -0.38340439392756936 -1.9988782822036502 123 111 95
0.004681898099987092 -0.3844075620132841 -1.9996229468755182 124 110 95
0.0001426433800553184 -0.3850705738294091 -2.0027559871647895 123 107 92
0.005237225152680547 -0.3848263247629541 -2.012355150214237 122 106 90
-0.0014975018652990668 -0.3856958548992048 -2.014008343619884 120 104 88
-0.013966172249651354 -0.3871035378787991 -2.011764756708103 119 103 87
-0.024163711388086706 -0.3882963404240646 -2.0110193428491168 118 102 85
-0.030792797796646343 -0.38915308121274467 -2.012668907867907 119 102 84
-0.03740214142417597 -0.3900072665162491 -2.0143134568952683 119 102 83
-0.04540285146009215 -0.39099106760180197 -2.014987001605686 117 100 80
-0.05020820461487152 -0.3916749113218109 -2.0178305135204737 113 96 76
-0.052610283141384384 -0.3921336198358125 -2.022318345431776 109 93 72
-0.058527559262890994 -0.39292069472933244 -2.0243766232696303 110 92 70
-0.06337891976538534 -0.3936076735703635 -2.0271578336288445 113 95 72
-0.06213330947568296 -0.39372558974764066 -2.0341654928901023 114 96 72
-0.07474812328416847 -0.39513563188845613 -2.0315246080143647 115 97 73
-0.07588136637802212 -0.39547501017787484 -2.03686830814256 113 95 71
-0.081115066391785 -0.39619599551668483 -2.039340418757797 113 93 69
-0.08830666944982091 -0.3970984624037379 -2.0404222439763076 109 89 64
-0.08887566845577644 -0.3973851164382093 -2.046155497129525 110 90 64
-0.08429560032853356 -0.39719427517434547 -2.0555392995765716 115 95 68
-0.09099642512187145 -0.3980502911206576 -2.0569444376432497 114 94 67
-0.11457662969573157 -0.4004689790279898 -2.046313651255258 114 94 67
-0.11198631338325149 -0.4004623440996145 -2.0542785881950008 113 93 66
-0.11682677025294741 -0.4011435265948657 -2.0569419768407737 114 94 67
-0.12172930626153156 -0.40183000527183865 -2.0595492657873877 114 94 67
-0.131891342507918 -0.4030014763368296 -2.05835571941646 113 93 66
-0.12990278176616987 -0.40305115187631824 -2.0659073321451187 111 91 64
-0.13755437573177776 -0.4039896967465156 -2.0664904202367316 108 88 60
-0.13550893098156536 -0.40403469153331284 -2.074097956424542 103 84 54
-0.13314738079415833 -0.4040512948349652 -2.0819538027990925 106 85 54
-0.127205846165367 -0.40373966706671743 -2.0924463199008096 111 90 59
-0.12102773016449642 -0.4034076421329831 -2.103147026421161 111 90 59
-0.11490547592262135 -0.40308210595152216 -2.1138424589850233 109 88 57
-0.10874779028213699 -0.4027546813281181 -2.1245996722791167 112 91 60
-0.12771274268584776 -0.4047288973019868 -2.1168085900947204 113 92 61
-0.14464220604444245 -0.40651413689749716 -2.1104549298788653 113 92 61
-0.16035765272427882 -0.4081859779409366 -2.10494052473148 113 92 61
-0.15436415482795474 -0.40787324014051607 -2.1155671908475604 112 91 60
-0.18191380938409196 -0.4106220316935477 -2.101125127622363 111 90 59
-0.18491763314279663 -0.41112929447319835 -2.104996163987637 109 89 57
-0.16531825747624762 -0.4095780409734555 -2.1258781678796215 110 89 57
-0.17470403063766604 -0.4106675296652069 -2.124972696844636 112 89 57
-0.18297823464165697 -0.41165476829937175 -2.124877090271724 117 94 62
-0.18975885559875694 -0.4125053395939658 -2.1258886467948934 116 93 61
-0.19302373076030377 -0.41303614099176467 -2.129557030619753 114 91 57
-0.20434989885912547 -0.414297490947675 -2.127063873552939 117 95 58
-0.2029026286293163 -0.41440047758818077 -2.1343134529935304 121 99 62
-0.2030732209810212 -0.4146504451734292 -2.140335975002301 122 99 62
-0.20637370564755797 -0.41518366913277904 -2.1439560324648363 121 97 61
-0.2080143442939446 -0.41556678783606826 -2.1488530890283535 121 97 61
-0.2100618318469566 -0.41598669422322654 -2.1534370065230677 124 100 64
-0.21634579278905142 -0.41678850106920534 -2.154729656114415 128 104 67
-0.21684524559371465 -0.41706865495375245 -2.160510882002346 126 102 64
-0.22740667501186007 -0.4182543990332146 -2.158436893208459 127 103 65
-0.22712912753464942 -0.4184643994695398 -2.164818872903235 129 104 67
-0.23257153274574793 -0.41918848076827053 -2.1667164422874308 133 107 71
-0.23446073505762777 -0.4195932022889528 -2.1713992932859356 132 106 71
-0.23629891022903204 -0.41999338558837795 -2.1761234045819835 129 103 68
-0.2436986679813682 -0.4208916463507727 -2.1764408294215905 132 106 71
-0.2509539097001382 -0.4217760719858871 -2.1768493374625297 132 108 72
-0.25698359663686354 -0.4225500767284372 -2.178211480913979 131 105 68
-0.26316758139389507 -0.4233371835769264 -2.17943257316455 134 106 68
-0.26873480287676965 -0.42406856784564384 -2.1811295700128253 141 113 75
-0.2729695829286719 -0.4246806056779371 -2.183881865840916 148 120 79
-0.2759154720857109 -0.4251775174419981 -2.1876633528675207 152 125 81
-0.277923814729666 -0.42559088711020515 -2.192198759850913 157 130 84
-0.28083729226551035 -0.42608470056299075 -2.196000795159686 155 128 83
-0.2866743899686859 -0.4270727935786289 -2.2035852262510893 151 124 78
-0.29525801289895315 -0.4280685551409724 -2.2027410166953927 157 129 85
-0.2892008028119025 -0.427767259250465 -2.2138680803961055 157 128 85
-0.2975679213716209 -0.4287428857039076 -2.2131758521279026 154 125 82
-0.3100757623884478 -0.43008320824325436 -2.2090418137666856 152 123 80
-0.32677233871759087 -0.4317913769228344 -2.201397754074322 157 128 84
-0.2966254655248196 -0.429367009513735 -2.2325126242160813 156 127 83
-0.2914314935058423 -0.4291460829150392 -2.2430360055559846 154 125 83
-0.2993941905098416 -0.43008409040538176 -2.24262747864963 150 121 80
-0.30140241594759953 -0.4304976530113095 -2.247168316121078 158 129 87
-0.315063085290352 -0.43217086715576575 -2.248146244450564 148 120 82
-0.3203612342413039 -0.43287193879746555 -2.24989336353001 139 113 77
-0.3266528804751436 -0.4336594204510645 -2.250786007108564 130 110 78
-0.3286517438233314 -0.4340707034785565 -2.255296450584088 112 98 75
-0.3329380568477598 -0.43468185844985996 -2.257863660772253 111 101 82
-0.334689200018655 -0.4350713407030685 -2.262580465586541 121 114 98
-0.3469416888132988 -0.4363765391752939 -2.2583271984852225 137 131 122
-0.35014426948339317 -0.43689162600338355 -2.261779005589473 157 154 150
-0.35192550240226067 -0.437282828204772 -2.26644639278485 172 172 169
-0.3562628887702434 -0.4378962781310831 -2.268913339668563 184 184 183
-0.364311883802426 -0.43883162619820215 -2.268163879338907 192 192 195
0.11496623450997512 -0.35199804950581615 -1.6304279929847763 206 207 206
0.10536083782707417 -0.35318754968871746 -1.6311339219961192 196 196 193
0.09453123662596119 -0.3544999327797203 -1.631163955264199 190 189 187
0.08399738117925848 -0.35578118810583514 -1.631318831605192 178 177 175
0.0738747531039945 -0.35701970151935714 -1.6316617132520608 166 165 159
0.063821519253067 -0.35825008761045224 -1.6320119282566616 158 157 151
0.05604830609988365 -0.35924920412359973 -1.6335567969938045 157 155 149
0.04779514616887304 -0.360295943401011 -1.634821928978922 158 156 151
0.03850771174248613 -0.36144608213608437 -1.6355048615971184 166 163 159
0.032612679636724096 -0.3622534766109172 -1.6380015038971414 182 179 175
0.025769993696503457 -0.3631557337766059 -1.6399679850939866 197 195 190
0.01776830291978737 -0.3641739127298397 -1.6412834601074822 206 205 203
0.009035171586258661 -0.3652647860240995 -1.6421757377109558 212 212 210
0.00126999623639934 -0.3662574869228863 -1.6435754684622381 215 215 215
0.0881214491943435 -0.3683802290311088 -1.9806273542616457 149 140 131
0.0777833208555454 -0.3696155865427829 -1.9801902259304527 145 135 124
0.0678914518196081 -0.37080652076160603 -1.9800093815175837 140 129 117
0.030678875719374 -0.375100062938978 -1.9743507734186174 135 122 107
0.023737617686521273 -0.3760010625190647 -1.97596542894428 134 122 105
0.017805345318358423 -0.3768040653522453 -1.978224706255482 131 118 102
-0.0022957487324324344 -0.3789713457411822 -1.9711156317065717 127 114 98
-0.0076873722591553895 -0.37972007603042124 -1.9736733154220911 126 113 97
5.031087515483534e-06 -0.37920996646994654 -1.9849083781652412 124 111 95
-0.010242291501558531 -0.38042533349610064 -1.984231353278423 123 109 93
-0.02154577780610556 -0.38174087041281574 -1.9828153226696428 122 107 91
-0.024298296256424323 -0.38223459275824495 -1.9870940838961613 121 105 89
-0.027049962764039037 -0.3827281431418666 -1.9913710101498157 120 104 88
-0.026407002168860605 -0.3828964374589514 -1.9979352060403701 119 103 87
-0.029113679932026404 -0.38338576413371084 -2.0022447623911876 119 103 87
-0.034257291560086056 -0.38410805924589947 -2.004898299236893 119 103 86
-0.036897282875006376 -0.3845906572801492 -2.0092437456932184 118 101 83
-0.04814884618980342 -0.3858953941663313 -2.007707358066081 115 98 78
-0.05587923678169704 -0.3868627957680377 -2.008544725344879 112 95 74
-0.06101908729303074 -0.3875823931239659 -2.011138462879927 113 97 75
-0.06427450478040042 -0.3881220440332419 -2.015018193703662 114 98 75
-0.06893092162027592 -0.3887948486343372 -2.0179250618748092 110 92 69
-0.06941102768630669 -0.3890701490912652 -2.0237165325865853 93 76 51
-0.07118507699371668 -0.3894686471463986 -2.028615314085899 96 79 54
-0.07462401065270552 -0.390025251308397 -2.032354583336774 107 90 64
-0.08336533809399227 -0.3910845886404492 -2.032379392935791 107 90 64
-0.08492579510586695 -0.3914623421149084 -2.037414644160843 107 87 63
-0.09674566410861041 -0.39281168092695984 -2.035232649848295 105 85 61
-0.09679938708429003 -0.39304625049120895 -2.0413146935262065 106 86 61
-0.10305980633322132 -0.39386789742947487 -2.043011589892301 109 89 64
-0.1096495807570691 -0.3947199999775035 -2.0444571936296407 113 93 66
-0.11681911390732214 -0.39562611016064886 -2.0454710409295926 114 94 67
-0.12042118294826443 -0.39619502120167366 -2.049011748213606 113 93 66
-0.1301240153470956 -0.3973384895228087 -2.048175477930697 115 95 68
-0.13415212879241123 -0.39794655056969025 -2.051384546681525 116 96 69
-0.13686669995773293 -0.3984307600068727 -2.0555321485293025 113 93 66
-0.1396728184623035 -0.39892347809297357 -2.0596110540685966 109 89 62
-0.14941943462723994 -0.4000677740347835 -2.058655477476481 110 90 63
-0.14913797259638006 -0.4002700508592214 -2.0649586455616324 109 89 59
-0.15347200677000628 -0.40090534987476867 -2.067906283040696 102 81 50
-0.14757721951006197 -0.4005823108034817 -2.0783256678975057 107 86 55
-0.14108364012578045 -0.40020453252986204 -2.089218758367582 112 91 60
-0.13499297055411696 -0.4005615333174827 -2.118405987332047 113 92 61
-0.15964736396182877 -0.4030911666566377 -2.1062576037978515 113 92 61
-0.16015619599121345 -0.40336947464030914 -2.112036523556055 113 92 61
-0.19085311589282128 -0.4064557324261704 -2.095220974876435 113 92 61
-0.17409813257649753 -0.4051278663941361 -2.113911041520368 113 92 60
-0.17587388409445892 -0.40552353386435536 -2.1187288403974494 113 93 60
-0.18516465978353036 -0.4066163598275432 -2.1178725638144615 115 92 60
-0.19278126976476484 -0.407552849112836 -2.1182529561204353 116 93 61
-0.19509255830265937 -0.40799717714393074 -2.1226391939267604 118 95 63
-0.204510058608949 -0.40909890167824947 -2.121611032422838 120 98 64
-0.19937699462230862 -0.40885447768539984 -2.131667331845315 122 100 63
-0.20054558104875175 -0.40919320462186753 -2.136927167330458 124 102 65
-0.20741058728697404 -0.4100576802980316 -2.137814017571403 125 102 65
-0.21309624000025962 -0.41081265063121436 -2.1395886938208326 123 99 63
-0.21640381574601286 -0.41134800251424547 -2.1431853594682098 121 97 61
-0.2156243999084939 -0.4115070745089364 -2.149944226554067 126 102 66
-0.22296233370595442 -0.41241289902347966 -2.150406691613585 123 99 62
-0.22141156645304338 -0.41250140371206423 -2.157774351764172 126 102 64
-0.23146158402888217 -0.41365510963964736 -2.1560900410778996 129 105 67
-0.23165506970411542 -0.4139037871507345 -2.162097023927781 129 104 66
-0.24000576814957764 -0.4148999990465335 -2.16169973790141 133 107 71
-0.2397240330882261 -0.4151051392932479 -2.1680801495092754 137 111 74
-0.24185748428670595 -0.41553150870614924 -2.172561700851586 133 107 70
-0.24931799546861333 -0.4164444999540371 -2.172819487613811 130 104 67
-0.25418654269083263 -0.41712002982645424 -2.175114066584094 135 109 71
-0.261389754655419 -0.4180079706659364 -2.175534624225877 141 114 75
-0.2687715640510432 -0.4189113180445835 -2.175789355013057 143 115 75
-0.2738993411057812 -0.41960862387058984 -2.1778276058171366 149 120 80
-0.279310559754559 -0.42033118670550607 -2.1796241819015605 156 127 83
-0.2794647445777506 -0.420575616916276 -2.185644799562358 156 128 82
-0.2876377780793674 -0.4215481531388345 -2.185189807655561 159 131 83
-0.2889253394440098 -0.4218953221636302 -2.190290608346543 159 131 83
-0.2866739243995763 -0.42192203462332073 -2.198272774527936 157 129 81
-0.29841558805856727 -0.42344646423731824 -2.2010126360693727 157 128 83
-0.2944626055075269 -0.423320298989425 -2.21041219529444 157 128 84
-0.30244537130139715 -0.42427232495887846 -2.2100246073126586 155 126 82
-0.2867760870376067 -0.4230908533948193 -2.2291130186145196 155 126 82
-0.2949496623643224 -0.42406006917462113 -2.2285677274014453 156 127 83
-0.29080901487374833 -0.4241534517364937 -2.2444281684674845 161 132 89
-0.2987363526395935 -0.425099168165496 -2.2440512938488437 156 127 84
-0.3040857705755613 -0.42581255872103185 -2.245802816945719 160 131 85
-0.30746906565007903 -0.4263491342153547 -2.2491876169704703 170 142 97
-0.32024596258083193 -0.4277267381966272 -2.2446691661623683 164 135 95
-0.32713804997966167 -0.42857597344611514 -2.245062139030035 148 120 81
-0.3340671886616994 -0.4294276811321525 -2.245401408753113 137 113 77
-0.33641346136241024 -0.42986931375428683 -2.249602801724709 119 101 74
-0.34330365899168525 -0.4307162502758877 -2.249940574031952 109 95 75
-0.34417487529918955 -0.4310259288316734 -2.2553859507845173 115 103 86
-0.3524056829027976 -0.43199106023904355 -2.2545469348400577 127 119 106
-0.354296614331894 -0.4323912083103494 -2.2591123078579813 145 141 132
-0.35888544694729346 -0.43303111320565246 -2.2613600335708504 162 161 154
-0.3588079500518197 -0.4332563455161464 -2.2676167784864516 176 177 173
-0.36779884239152977 -0.4342861485510251 -2.2660481231765957 186 187 188
-0.37048825955247294 -0.4347564612287008 -2.269906347472298 192 192 196
-0.3725998456875437 -0.4351755200216962 -2.2742635408545744 197 197 199
0.13939885437422517 -0.34372447883722634 -1.6264016614317995 210 207 201
0.1261767710305376 -0.34530211120037974 -1.6252943321566315 194 189 181
0.11270657136923357 -0.3469038091246721 -1.624016038647459 169 164 153
0.09767504874115784 -0.3486647899578866 -1.6218746318679347 148 140 127
0.08781997074714654 -0.3498911441583128 -1.6224175827961413 136 126 113
0.07750362757476426 -0.35116389189666586 -1.6226875452201552 132 122 109
0.06840263427370974 -0.35231057528509646 -1.6235730526549363 132 122 109
0.05971053638795376 -0.3534142929483102 -1.6246506806423895 129 120 105
0.0498097939312403 -0.3546411924042655 -1.625056862086632 127 119 104
0.04254278345109552 -0.355596808316977 -1.626848616155589 128 118 104
0.03564716223320519 -0.3565136356194951 -1.6288212687761394 127 117 103
0.027705044379558785 -0.3575370237618797 -1.630209970844954 127 117 102
0.01887068903843314 -0.3586509596183064 -1.6310925168598218 127 117 102
0.009593421807263414 -0.3598092811510686 -1.6317085464623826 126 115 101
0.004698424360682241 -0.36051851856997114 -1.6346925251834343 133 125 111
0.00022031500717478725 -0.3611847689230494 -1.6378945722746434 148 141 130
-0.007118969261336927 -0.3621428448775448 -1.6395131607188302 166 161 152
-0.01332430814618124 -0.362984480006027 -1.641738050158309 204 201 196
-0.018338710377137746 -0.3637040987469724 -1.6446072142421158 215 216 213
0.08554913787877505 -0.3624286922831347 -1.954814148149695 147 139 128
0.0810785073748459 -0.36309946572635887 -1.95816365182199 146 136 125
0.07064234266441671 -0.36435930230653335 -1.9576858827024979 143 132 120
0.05336650156491585 -0.36629317015718243 -1.9527834598793792 142 130 118
0.04371490583401738 -0.3674726498814779 -1.9527308189303942 139 127 115
0.03411018026731594 -0.3686463975445691 -1.9526783180772245 134 121 107
0.04417373316576223 -0.3678816704677743 -1.965343452643701 134 121 105
0.0365864379905263 -0.36885610324025425 -1.9665824179705123 135 121 105
0.01768130391256173 -0.3709428646174083 -1.9604180635611166 133 119 102
0.009138127344937463 -0.3720087727001239 -1.960964798913683 128 114 97
0.0037929388821018595 -0.3727596757078909 -1.9635843526707755 127 113 94
-0.003923458140788649 -0.37374278143688366 -1.9646300010824254 128 113 97
-0.011611427441315936 -0.37472226474870163 -1.9656717812596671 126 110 94
-0.02076391691299595 -0.37584440324807666 -1.965720890489467 125 110 94
-0.025446111315589826 -0.3765278424872336 -1.9687116574491417 124 108 91
-0.029852793659107757 -0.37718394867742044 -1.9718757186991727 125 110 91
-0.03221038451127678 -0.3776394184085322 -1.9764004923422513 123 108 89
-0.04136101582748475 -0.37875835403080693 -1.9763689282352452 122 105 88
-0.0392134859072899 -0.3787735621572629 -1.98390858042987 121 105 87
-0.04211286824533533 -0.3792816039956073 -1.9880606323371284 119 104 85
-0.046817487900449595 -0.3799654431829495 -1.990987817317537 119 104 85
-0.06545012925000804 -0.3820050369009003 -1.984448956686262 119 103 84
-0.07180215209224394 -0.3828473103099881 -1.9862043311706605 119 102 82
-0.0747635159408625 -0.3833593166264732 -1.9902581659803562 118 101 79
-0.0767952542839343 -0.3837808951010854 -1.9949454918639735 113 97 74
-0.07488329192186594 -0.3838197095939167 -2.0023433769255536 113 97 73
-0.07625925379683673 -0.3841780251744261 -2.0074918611356263 113 96 72
-0.08036039973388576 -0.38480054947978737 -2.010759436761444 112 93 69
-0.08088471611209469 -0.3850764269177748 -2.0164992351136775 110 91 66
-0.08253435479426119 -0.3854614327996815 -2.021463088997241 102 85 58
-0.08570278314249136 -0.3859933450186913 -2.025369422372768 97 80 52
-0.09241726482522739 -0.3868676400763733 -2.0267900629488036 100 83 55
-0.09680573019559202 -0.3875167177470313 -2.0298240177596134 107 87 61
-0.10345042060624066 -0.38838304212626296 -2.0312601738667846 110 90 64
-0.10817711231856031 -0.38906383753976104 -2.0340315787294005 112 92 65
-0.11752470049115604 -0.3901891600377819 -2.0335195147224416 110 91 63
-0.1255045395859924 -0.3911817666494918 -2.0339484400558336 111 91 64
-0.13380443875545234 -0.3922042256258913 -2.0341245300224906 112 92 65
-0.12755821494257313 -0.39182853109606247 -2.044668473657472 114 94 67
-0.1355524398001251 -0.3928208575164816 -2.0450420580426933 114 94 67
-0.13826921898218736 -0.3933061805866967 -2.0491841622658638 113 93 66
-0.14252861071879552 -0.3939392177310287 -2.0522115819313598 113 93 66
-0.14224878381533534 -0.3941373436456909 -2.058512111370896 110 90 63
-0.1515615978840693 -0.39525346864167876 -2.0578660833502003 110 90 62
-0.15678462448389707 -0.3959775561650065 -2.0601640192542576 112 93 62
-0.15731124793217033 -0.39625264247094816 -2.065874710682383 111 90 59
-0.1567260295652232 -0.39642188688780305 -2.072405716006851 95 74 43
-0.15389802430525146 -0.39637772816734707 -2.0805941324873585 99 78 47
-0.13787130305612838 -0.3950770128450247 -2.0985177183016077 108 87 56
-0.16125831475084196 -0.3979832777065156 -2.0996980881204506 113 92 61
-0.1608359233987271 -0.3981699713897805 -2.106161801929683 113 92 61
-0.17243814911421484 -0.39949776689075034 -2.1036566453773062 114 93 62
-0.18471328767503126 -0.40088782254368666 -2.1006062700285955 114 93 62
-0.1825805896575795 -0.4009117848035334 -2.10833405009478 114 94 61
-0.18168186412374587 -0.40105319078194424 -2.1151507467176907 114 94 61
-0.18449797516627175 -0.40154628884857846 -2.1191739893158617 115 92 60
-0.19150255481979261 -0.4024349205775567 -2.1200205538356327 116 93 61
-0.19681883612043083 -0.4031634198717757 -2.1221286094239122 117 94 62
-0.20737363517840068 -0.4043853884691596 -2.1202303893820447 122 99 65
-0.20177948005855084 -0.40408446229454015 -2.1306374301215194 123 101 64
-0.22019020645516485 -0.40604453346322494 -2.122678958921028 124 102 65
-0.22710400601294334 -0.4069206018941809 -2.123486176917213 124 100 64
-0.22014056610088584 -0.40649178181418744 -2.1349700431423186 124 100 64
-0.22291173348892046 -0.4069784474469238 -2.1389680427084885 124 100 64
-0.2294434978413783 -0.40781778872112284 -2.140047384060099 123 99 63
-0.23064842471282687 -0.40815712396059217 -2.145248888459185 121 97 60
-0.2349156175696211 -0.40878337797203923 -2.148066504978826 124 100 62
-0.235945267304 -0.4091063537744904 -2.153406169640571 131 107 69
-0.23901218195288632 -0.40961995425473713 -2.1571529209740397 131 106 68
-0.2451987995045536 -0.41042477748054107 -2.1584418549233284 129 104 66
-0.24644071480220053 -0.4107674940900229 -2.1636122803778357 135 110 70
-0.2530282873781424 -0.41160875780741146 -2.164558526682397 140 114 75
-0.25412398765892785 -0.4119376924287662 -2.1698405427299505 136 111 71
-0.25832172703641976 -0.4125554993279732 -2.1726596360535453 143 115 75
-0.2637379321816433 -0.4132862584262471 -2.1744973307799853 149 121 80
-0.26504881420540627 -0.413635061646786 -2.179603894137134 150 121 79
-0.27465828468830467 -0.4147542790492803 -2.1780571555823136 152 121 78
-0.26730685703339885 -0.4142993233467408 -2.190120071117988 154 123 78
-0.2742587946393312 -0.4151712129948968 -2.190687414791523 162 131 84
-0.28532246159253927 -0.41642291632515815 -2.1879065468000065 160 130 82
-0.290364707626415 -0.4171162114139011 -2.1899695831674713 161 132 84
-0.2860066840768076 -0.41694039139958783 -2.199666128143414 161 132 84
-0.2905781038895219 -0.4175900132696294 -2.202107641169496 160 130 83
-0.290531381713515 -0.4178132593268401 -2.2083156205424603 159 129 84
-0.29818890201492265 -0.4187468186840744 -2.2082133105707284 158 129 85
-0.30749024111557677 -0.4198307783418859 -2.2067332607745604 156 127 83
-0.3106392882846478 -0.42034761390328423 -2.210295140716619 157 128 84
-0.29387644052389517 -0.4190344050827165 -2.230323074891232 158 129 85
-0.3111536167248078 -0.42153452427159543 -2.240769109103159 162 133 88
-0.3189808074161289 -0.42247947810277053 -2.2404126307166643 169 140 96
-0.3289812220855465 -0.42362205544542775 -2.2382017732411104 169 140 97
-0.3323744574849914 -0.4241600271255712 -2.241526299078535 156 126 83
-0.33865402375722076 -0.4249610520658098 -2.2424037672767385 147 120 78
-0.3424578886253646 -0.4255357412500633 -2.245361008220072 140 118 82
-0.3451015135324805 -0.4260044969500239 -2.2492967053891775 121 104 77
-0.35266470820412565 -0.4269206298935694 -2.2490349613119287 116 103 82
-0.3606425388045776 -0.42787349305446337 -2.2483929802316283 121 111 96
-0.366084393123338 -0.42859510175940096 -2.249897452938795 134 128 117
-0.3631831066582099 -0.42855940239079215 -2.258558438247209 151 148 141
-0.3630748696206324 -0.4287776470355808 -2.264834971373056 169 168 163
-0.3675439584695217 -0.42941063552090986 -2.267165120283939 181 181 179
-0.3745904215173872 -0.4302763011119909 -2.2672499948805642 189 189 192
-0.37554254674087123 -0.4305904574977415 -2.272607828453105 195 195 197
-0.38145030649967815 -0.43135212783120475 -2.2736522340125833 200 200 202
0.13460509758592487 -0.33886934488739995 -1.6186604595983178 171 167 157
0.1200722537586636 -0.34060292845805273 -1.6168786757582683 145 136 121
0.1070107412186212 -0.3421806758277129 -1.6158197945080557 136 123 104
0.09373556910746672 -0.34377933263987537 -1.6146085008279507 132 117 94
0.07986673131732447 -0.34543862152244836 -1.613043590923026 128 110 87
0.07019652963235312 -0.34665721342344624 -1.6136519277468255 126 108 85
0.06035906919331502 -0.34789227001967926 -1.61414360419603 127 109 88
0.05165382803818175 -0.34900802393994446 -1.6152085665136453 127 108 88
0.04664678783178866 -0.3497368576951647 -1.6182222183918462 124 107 86
0.039350835934977235 -0.35070406843253144 -1.6199995040453894 126 109 86
0.030973485812505364 -0.3517833093907411 -1.6211763663410166 129 113 90
0.024641183460789806 -0.35264864683861996 -1.6234324048312851 127 110 89
0.016955062583250635 -0.35365435767373854 -1.62494010321656 123 108 86
0.008874396112622196 -0.3547003579885346 -1.6262126221815567 114 100 78
0.0012838407130467688 -0.3556945830076049 -1.6277296640226482 114 98 76
-0.005562805862978526 -0.35661076005186154 -1.6296327001418172 115 99 77
-0.01371818217492582 -0.3576621834063872 -1.6307998574377656 119 105 84
-0.021748567213875192 -0.35869980535476664 -1.6320129036814113 118 105 87
-0.02215947124816342 -0.35894645917662765 -1.6374121532783013 134 125 112
-0.03888086888164233 -0.3608836465972425 -1.63377757855474 177 173 165
0.07096562199267431 -0.3586233942733208 -1.946228515526505 139 126 113
0.06262718531232159 -0.3596860915369856 -1.9470819709631795 135 122 108
0.055191238081006344 -0.3606571808440039 -1.948488566856608 135 120 107
0.02937603063749361 -0.36347352048200693 -1.9380692362159144 134 119 105
0.02303775415499887 -0.36433155995649513 -1.9401036595835364 131 116 101
0.016982848927273198 -0.3651605695397431 -1.942304426612593 128 114 97
0.011086311678360272 -0.36597313822753097 -1.944592176691483 130 116 98
0.004220506262217594 -0.3668822283315839 -1.9462344330349972 131 115 98
-0.004915961774964783 -0.36801785810848975 -1.9463761862614597 129 113 96
-0.005399859129958662 -0.36828721387157437 -1.9521523748984466 129 113 94
-0.014629074757805505 -0.36943069271493234 -1.9521941198858408 124 108 88
-0.02341582700439926 -0.3705289458222324 -1.9524984192012682 120 104 84
-0.03142961917021159 -0.3715490935453766 -1.953286246971126 120 104 84
-0.0365085457940848 -0.37227575911794986 -1.9559948516041343 121 105 84
-0.03836772087009099 -0.37268121295178663 -1.9608315990389604 124 107 86
-0.04332232714893869 -0.37339487143533956 -1.963605705855187 128 113 92
-0.0469461259082975 -0.37397572506257043 -1.9672583366083627 127 111 90
-0.06455055916539454 -0.37594609098231785 -1.9615258742237482 123 106 85
-0.0696276572832254 -0.37666981367802443 -1.9641595711794773 123 106 86
-0.07412605933923366 -0.3773356581957723 -1.9671717461435705 121 105 85
-0.06333315267265238 -0.3764845671884733 -1.9805272389481465 120 103 83
-0.07197846347314851 -0.37756182748309697 -1.9807352578458015 120 103 83
-0.07422272983615863 -0.3780042211488683 -1.9852767197084193 118 101 80
-0.07684406060644611 -0.37848391112516355 -1.9895601115864723 109 92 70
-0.08661193050550009 -0.37967016452028124 -1.9889435295080071 104 87 65
-0.08086790012328249 -0.37932265079341365 -1.9989587698101503 109 92 66
-0.0836794994214134 -0.3798209996547827 -2.0031074985609765 113 96 69
-0.08581850345290964 -0.38025289465284107 -2.0077186070248905 114 94 68
-0.08965583602457627 -0.38085220267233033 -2.0111515594467955 112 92 65
-0.09280709914924268 -0.3813836754853919 -2.0150547740080635 112 94 64
-0.09703254188009092 -0.38202071799967374 -2.01820405290323 109 91 63
-0.10159131819515976 -0.3826902244390018 -2.0211112157326303 101 82 56
-0.10762654556309825 -0.3835044521557962 -2.0229715281089913 102 83 56
-0.1128097790829764 -0.3842344228113428 -2.025415391720979 106 88 58
-0.11771120114713218 -0.38493627553727605 -2.0280454234780927 110 91 60
-0.12643358780168523 -0.38601231216784454 -2.0279567337238142 111 92 60
-0.13437737452702225 -0.3870110611167993 -2.0283933616094636 113 94 64
-0.13860068959260863 -0.38764472974286424 -2.0314568688962567 113 94 65
-0.14482813166007835 -0.3884740969985643 -2.0330788365851182 111 92 63
-0.14509075019283613 -0.38871987292703686 -2.0389598002856184 110 90 63
-0.1479716250159443 -0.38922162136177973 -2.0429659136092164 110 90 63
-0.14629702073356887 -0.38927873766562354 -2.0502542448329244 110 90 63
-0.15308865223163948 -0.39016190192196376 -2.051434694878978 110 90 63
-0.15508322589458767 -0.39057699836458537 -2.0560753719813665 110 90 62
-0.15450826088121905 -0.3907419818440158 -2.0625862541901934 111 91 61
-0.1559890622327711 -0.39110734246779555 -2.0676084177060776 111 90 60
-0.1649827593811396 -0.3922029738317775 -2.067134370455946 111 90 59
-0.16599038779779074 -0.39252199592481163 -2.072493179314986 88 67 36
-0.15822711713202542 -0.3919901256865115 -2.0843142675980064 92 72 40
-0.14770820536914986 -0.3911926306387237 -2.098212785869231 114 94 62
-0.18233396196376817 -0.39477055565063085 -2.0787333689896124 113 92 61
-0.1776738470925473 -0.3949845949268952 -2.100534630662333 116 94 63
-0.19457746283948196 -0.3968393235093985 -2.0940046634321674 116 94 62
-0.18887239494617558 -0.3965103812354161 -2.104399056176619 116 94 61
-0.18731963172184507 -0.3965829692088671 -2.1116983018090116 116 94 60
-0.19185721025611024 -0.39724278167341137 -2.114410487959504 116 93 60
-0.19137702504089993 -0.39741927769555585 -2.1209154442519282 117 94 61
-0.19700000391032735 -0.3981830949153312 -2.122792260374304 117 94 61
-0.2072294401360858 -0.3993889650618143 -2.121141812488545 117 94 60
-0.21348891062879438 -0.4002124017329243 -2.1224909769840044 118 95 59
-0.22059588865448077 -0.4011164719857374 -2.1231719837127776 122 99 62
-0.227948606932594 -0.40204329422193197 -2.1236419308251744 124 100 63
-0.22498957253286 -0.40198176435548405 -2.132040963631497 125 100 64
-0.23074241991082367 -0.40275464330625993 -2.133724559975276 125 100 64
-0.23350588373304793 -0.40324113478079876 -2.137710564753198 125 100 63
-0.23810016352743613 -0.40390240586645043 -2.140269517040003 129 104 67
-0.2393211949367714 -0.40424131786406237 -2.1454486763704046 129 104 67
-0.2380696082288859 -0.4043445735745024 -2.1525659918606563 129 104 67
-0.24009102458717502 -0.4047602287936062 -2.1571304945419416 134 108 70
-0.24725757163122064 -0.4056657188032521 -2.1576474115465887 134 107 68
-0.24647670086241213 -0.40581442589053807 -2.164412002310995 137 109 71
-0.25089002766444135 -0.40645725057929366 -2.167079694050703 143 116 76
-0.25894097799339544 -0.4074451179171666 -2.166850653897795 146 119 79
-0.2628811499356619 -0.4080419989410296 -2.169865817248023 147 119 77
-0.26740840161375745 -0.40869422932928395 -2.1724041702476113 149 121 76
-0.26656204373025105 -0.40883711001049117 -2.1792315342275286 157 127 81
-0.2768757631719546 -0.4100365605784079 -2.1771165166921116 156 125 79
-0.27587380952232177 -0.4101647747592094 -2.184070332221153 154 123 77
-0.27896532000816054 -0.4106801921643848 -2.187734703057186 162 131 84
-0.28549672989779995 -0.41152011781938375 -2.1886107271719313 163 132 84
-0.2819803981252511 -0.4114117826778901 -2.197620551439277 163 132 84
-0.2802686842294273 -0.4114744010667116 -2.2051872065244043 170 140 92
-0.2835994509225441 -0.4120123323726529 -2.2086560751961652 172 141 94
-0.2776351854549415 -0.411675814850107 -2.2197259209286457 166 136 90
-0.2882741677374736 -0.41290087033075207 -2.2172071943563876 158 130 84
-0.29601565080444336 -0.41385246370730555 -2.2170337860535563 159 131 85
-0.29996732448838037 -0.4144476100123472 -2.2199618750065286 162 134 88
-0.3309423373734826 -0.41824288564488754 -2.2189312504151033 160 131 88
-0.33130842269666383 -0.4185003420964566 -2.224781281743288 157 128 87
-0.32913230151572004 -0.4185208827092737 -2.232772160528669 160 130 89
-0.33754415095901125 -0.4195291526074852 -2.23187437897757 171 142 96
-0.34336380826620866 -0.42029492652884337 -2.2331341206273128 167 137 91
-0.3431945733778 -0.4205027864948633 -2.2394429975031365 148 119 76
-0.34523100755098085 -0.42091607832738215 -2.2438910949039736 147 124 81
-0.34978488286794174 -0.42156320209930165 -2.246197804679472 142 122 86
-0.34227440602813597 -0.4210903465279215 -2.2587836664670116 123 107 80
-0.3626199363150679 -0.42320175354997963 -2.247588154374118 117 106 88
-0.3682859088510821 -0.423950302272875 -2.2488972747090767 124 115 104
-0.37327166468972833 -0.4246352857062211 -2.2507744264166543 142 136 127
-0.3605661030913112 -0.4236840498304175 -2.2678941505870265 161 157 152
-0.37020371778524497 -0.4247992481326092 -2.2657627175506354 175 174 171
-0.37707506344489533 -0.42565785699427705 -2.265994114024058 187 187 188
-0.3831167242362047 -0.4264391414544662 -2.2669241073833057 193 193 195
-0.3840506056827336 -0.4267492285895808 -2.272288155996015 198 197 200
-0.3915102633685722 -0.4276600793154766 -2.271952852323811 203 202 205
0.14460869726781234 -0.33224971539821946 -1.6128009074906502 158 151 140
0.13022384153102973 -0.33398991667009686 -1.6111518510207528 141 129 113
0.11902291540438592 -0.33538922232855906 -1.6111098392518943 132 117 95
0.10785315524993488 -0.33678401783176476 -1.6110506466541392 122 106 81
0.09661888254124062 -0.3381844900346377 -1.6109243759619067 124 107 79
0.08365333393930274 -0.33976790886999747 -1.609856472937744 132 111 83
0.06998127726762748 -0.341424996745501 -1.608376568078254 131 110 81
0.0572876615486787 -0.3429766138352853 -1.607370560206594 130 111 82
0.047789068673867674 -0.34418762543032766 -1.6080186505229195 127 107 80
0.03876415833312352 -0.3453473989598591 -1.6088911824591272 116 96 70
0.034151134729968 -0.3460384459470731 -1.6120927545791037 124 103 75
0.024972054246945485 -0.34721300936282384 -1.6128393158675647 126 104 74
0.02359512477451764 -0.34756038112675347 -1.6177529583255914 120 98 69
0.016265005942290522 -0.34853789505276334 -1.6194584054682095 112 91 65
0.009813396866886537 -0.34942179279556224 -1.6216197150200689 113 96 72
0.0011596210990365563 -0.3505378751192926 -1.622568639773829 108 94 69
-0.0082370488758704 -0.3517315513566901 -1.62308801350814 108 92 67
-0.01538663890915315 -0.35268703275823754 -1.6248087385963572 111 93 69
-0.02327384735107807 -0.35371965019132445 -1.62610557653317 113 96 70
-0.030185904085331394 -0.3546486748024392 -1.627917450552282 115 98 72
-0.035120303486739446 -0.35536867506180103 -1.6308037786104053 111 94 73
-0.035563850228488736 -0.35561542175068384 -1.6361691768359097 116 105 86
-0.04583551565936017 -0.35689658210687736 -1.6360730087536894 137 129 116
0.06326655397182623 -0.3535018369515202 -1.923582933643063 141 127 112
0.05508663584951612 -0.3545591592806886 -1.9245459201491293 138 123 108
0.04679258359838734 -0.35562731809748616 -1.925412488957308 136 121 106
0.0231889192015573 -0.3582618683256333 -1.916510459092944 132 116 101
0.017053656131220563 -0.3591063351261567 -1.9186754636976904 134 118 103
0.008815578973307536 -0.36016519872305075 -1.9194776594071978 135 119 103
0.013045198104881472 -0.35994954361581655 -1.9282660878552456 132 116 101
-0.004471521700195935 -0.361954755160746 -1.9230640099427676 130 114 98
-0.007948317482870393 -0.3625255196423063 -1.9268775248662404 128 113 95
-0.00886225774002003 -0.3628348392866161 -1.9323479692525145 128 113 92
-0.018261595323681545 -0.36400871879280405 -1.9323026759259136 127 112 93
-0.021109193226156342 -0.36451462041234883 -1.9365040035398053 125 110 90
-0.026292929916317487 -0.3652580575778568 -1.9391730644237377 122 106 86
-0.03328731570651111 -0.3661851049813001 -1.940640663131128 115 99 77
-0.0433770502250187 -0.36742586059692106 -1.94004934109585 108 91 68
-0.03759873002028069 -0.36705480333454144 -1.9499115596576821 108 91 67
-0.045393519883831446 -0.3680616237790556 -1.9508089861684252 107 89 65
-0.05127267223852494 -0.3688734559181569 -1.952957017400936 112 95 69
-0.05695463937099188 -0.3696647698852341 -1.9552212363702723 114 97 71
-0.06413236641273568 -0.370606951147993 -1.9564701796605997 113 96 70
-0.06907602228193466 -0.37132244608178167 -1.9591976588536884 108 91 65
-0.07687932396256392 -0.3723265331263157 -1.959988552231684 118 101 76
-0.08386484430085206 -0.3732471979476383 -1.9613082164236681 121 103 79
-0.08739712895176832 -0.37381866122236646 -1.9649466757372525 120 103 78
-0.08589975765480318 -0.37388271806263873 -1.9719963421231896 120 102 78
-0.08884028765410967 -0.374394508887715 -1.9760368556720764 118 101 77
-0.0906432419711376 -0.374791633242366 -1.9808515731929128 113 95 71
-0.09375973438232876 -0.3753209736962223 -1.9847670802208746 106 88 64
-0.09061013071537194 -0.37522014291381456 -1.992987656108399 110 91 66
-0.09371475993630896 -0.37574846473470846 -1.996916206471141 110 91 65
-0.09583469070756301 -0.3761777821063792 -2.001521989592673 106 89 62
-0.09990080755244446 -0.37680234557921566 -2.0047772337340417 105 87 60
-0.10354267154697894 -0.3773840901854604 -2.008319681287305 106 89 58
-0.10751445434515872 -0.37799865724610937 -2.0116254482278277 110 90 62
-0.11284114165300296 -0.37874856970529763 -2.0139746681943858 110 89 63
-0.1156173960902781 -0.3792429036444297 -2.018101791821214 98 79 51
-0.12146551241521975 -0.38004416141997455 -2.0200620820691353 94 77 48
-0.12792005858465272 -0.38090542336296573 -2.0215781417901852 99 81 53
-0.13436205609616048 -0.3817647796552816 -2.0230847681684976 104 85 56
-0.14045509957113367 -0.38258868533515256 -2.0248211302560817 107 88 56
-0.1411657157656594 -0.38287566091661124 -2.030378080450877 111 92 61
-0.14476776792065282 -0.38345074554778447 -2.033873373613444 111 92 62
-0.14745904906887453 -0.3839349895797003 -2.038015559546994 113 94 65
-0.15126221727069455 -0.3845296861500309 -2.0413554551647044 112 92 65
-0.15150229903973988 -0.38477016660510444 -2.047258845290246 111 92 64
-0.15040073256074726 -0.38487775481995573 -2.054141091315391 111 91 63
-0.16225340930753196 -0.3862707396399435 -2.051635409776954 111 90 61
-0.15469643634339714 -0.38573851536202275 -2.063216390581323 110 89 60
-0.1556557053000357 -0.3860511772932751 -2.0686215730555 109 88 59
-0.17331016624756368 -0.3880161444579725 -2.0618074172265475 111 90 61
-0.16600197249915594 -0.38751038071242583 -2.0732579029448446 110 89 59
-0.17836018470015635 -0.38894919610880463 -2.0702643555028244 97 76 44
-0.1888484223347754 -0.39020181519898156 -2.068607845700399 109 89 56
-0.19987175928881784 -0.39150592872349477 -2.066518633060155 118 98 65
-0.1896934760106046 -0.3911535608698706 -2.092340343353076 117 94 63
-0.19364868572415428 -0.3917604121624122 -2.095487817871583 117 94 62
-0.19732881555373694 -0.3923399457019865 -2.0988340057562755 117 94 61
-0.2209104024468448 -0.3948732603935654 -2.0871697132598985 117 94 60
-0.2075206760266588 -0.39377607623951943 -2.1033647937521582 117 94 60
-0.19885033251782003 -0.3931439454143255 -2.116049089755251 117 94 60
-0.20389375303619572 -0.3938567737831753 -2.118351792045874 119 96 62
-0.21076087967718515 -0.394747632898928 -2.119250719878738 118 95 61
-0.21332793740201106 -0.39521722335978227 -2.123417645904522 118 94 58
-0.21976053358727965 -0.396064463850981 -2.124617397751634 123 99 62
-0.22487130700322466 -0.39678196398065985 -2.1268148688352815 127 101 64
-0.22837725387088936 -0.39734242530467495 -2.130237111480237 128 102 65
-0.23326454267740815 -0.3980373160257529 -2.132584369273189 127 101 64
-0.23996010514840405 -0.39890789139561944 -2.1335161809622245 128 102 65
-0.24539759135580475 -0.3996553006477582 -2.1354064977183076 128 102 65
-0.246938908268589 -0.40002330838532624 -2.1403223127487316 130 104 68
-0.24503746590415276 -0.40005689569464287 -2.1479347895805088 130 104 67
-0.24736313594040082 -0.4005014973443395 -2.1522475634976796 133 106 67
-0.2528942474080259 -0.40125699958367245 -2.1540364518081407 137 108 69
-0.2519304723449126 -0.40138244540605195 -2.16093623563952 140 111 72
-0.2599915913405696 -0.402382382176662 -2.1607062783018853 145 116 76
-0.2653253516561511 -0.4031174541556427 -2.162614402407301 150 121 80
-0.26772882026178346 -0.4035686943522954 -2.166840470700715 153 124 82
-0.2717646553486689 -0.4041775748664504 -2.1697620289947785 150 122 76
-0.27114146714009824 -0.4043364384352016 -2.1764044065313963 162 133 86
-0.2779593565398474 -0.4052133730774072 -2.177085471554825 166 135 88
-0.27718950451356317 -0.405358375100377 -2.183853527706834 163 132 85
-0.2760596383783117 -0.40546917432155694 -2.190925120499429 161 130 83
-0.2816844387916906 -0.4062302936196728 -2.192542905826027 165 134 87
-0.281469619920955 -0.40642953891307326 -2.1988854367926174 167 136 89
-0.28278148514087464 -0.40677577644097357 -2.203995511278591 172 141 94
-0.2857317541558698 -0.4072793553474504 -2.207771511232523 172 141 95
-0.2902311210162255 -0.408151865058622 -2.2164619229295717 162 134 87
-0.29856268257511387 -0.40917019112078856 -2.2157990719729317 163 136 89
-0.29834417284286885 -0.4093698447645626 -2.222166005075201 166 138 91
