ply
format ascii 1.0
element vertex 890
property float x
property float y
property float z
property float nx
property float ny
property float nz
property uchar diffuse_red
property uchar diffuse_green
property uchar diffuse_blue
property uchar class
property uchar detection
end_header
0.1421 0.5183 -2.2543 0.267 0.930 0.254 77 65 39 0 0
0.1426 0.5196 -2.2592 0.231 0.960 0.161 84 72 47 0 0
0.1430 0.5205 -2.2645 0.585 0.793 0.169 97 89 73 0 0
0.1440 0.5236 -2.2677 0.776 0.460 0.432 142 139 134 0 0
-0.0045 0.1000 -1.1849 0.323 0.836 0.443 74 63 38 0 0
0.0119 0.1480 -1.2089 -0.446 0.659 0.605 123 101 57 0 0
0.0190 0.1656 -1.3208 0.491 0.668 0.559 62 45 18 0 0
0.0180 0.1626 -1.3273 0.048 0.980 0.191 64 42 16 0 0
0.0193 0.1661 -1.3408 0.362 0.779 0.512 157 128 76 0 0
0.0201 0.1684 -1.3448 0.362 0.779 0.512 171 141 91 0 0
0.0219 0.1735 -1.3525 0.135 0.880 0.455 127 103 71 0 0
0.0229 0.1764 -1.3562 0.278 0.924 0.263 116 94 63 0 0
0.0244 0.1804 -1.3644 0.226 0.868 0.442 142 121 91 0 0
0.0349 0.2109 -1.3848 0.434 0.684 0.586 114 97 58 0 0
0.0484 0.2500 -1.4257 0.289 0.861 0.417 115 90 51 0 0
0.0509 0.2572 -1.4372 0.336 0.876 0.345 113 88 51 0 0
0.0540 0.2662 -1.4426 0.434 0.767 0.472 93 70 37 0 0
0.0548 0.2683 -1.4466 0.434 0.767 0.472 93 70 38 0 0
0.0558 0.2709 -1.4657 0.434 0.754 0.493 82 58 26 0 0
0.0601 0.2825 -1.4954 0.386 0.866 0.319 110 85 58 0 0
0.0631 0.2903 -1.5325 0.821 0.522 0.229 78 54 24 0 0
0.0657 0.2972 -1.5652 0.587 0.803 0.104 75 52 23 0 0
0.0706 0.3113 -1.5831 0.442 0.198 0.875 93 69 35 0 0
0.0737 0.3203 -1.5881 0.642 0.757 -0.121 153 130 92 0 0
0.0981 0.3918 -1.6275 0.129 0.805 0.579 74 51 22 0 0
0.0990 0.3943 -1.6312 0.129 0.805 0.579 76 52 25 0 0
0.0828 0.3436 -1.7125 0.097 0.852 0.515 68 51 33 0 0
0.0846 0.3471 -1.7704 0.144 0.900 0.411 68 47 20 0 0
0.0841 0.3447 -1.7998 -0.101 0.993 0.059 105 82 47 0 0
0.0867 0.3513 -1.8399 0.118 0.957 0.264 76 55 24 0 0
0.0883 0.3558 -1.8423 0.361 0.691 0.627 80 59 28 0 0
0.0890 0.3574 -1.8637 0.362 0.853 0.377 84 63 32 0 0
0.0912 0.3632 -1.8821 0.233 0.923 0.305 88 65 34 0 0
0.0918 0.3649 -1.8865 0.368 0.853 0.370 84 63 32 0 0
0.0919 0.3652 -1.8920 0.242 0.852 0.465 79 58 27 0 0
0.0929 0.3678 -1.8957 0.100 0.823 0.559 81 60 29 0 0
0.0938 0.3701 -1.9111 0.408 0.908 0.101 77 53 25 0 0
0.0980 0.3816 -1.9482 0.085 0.782 0.617 76 52 26 0 0
0.1154 0.4292 -2.0794 0.071 0.832 0.550 66 44 21 0 0
0.1158 0.4296 -2.1028 0.117 0.885 0.450 105 82 48 0 0
0.1161 0.4303 -2.1141 0.527 0.797 0.297 117 94 61 0 0
0.1206 0.4433 -2.1269 0.201 0.850 0.488 60 42 20 0 0
0.1206 0.4430 -2.1332 0.365 0.839 0.404 58 41 21 0 0
0.1215 0.4455 -2.1370 0.391 0.872 0.295 53 36 18 0 0
0.1220 0.4471 -2.1416 0.433 0.852 0.295 54 37 20 0 0
0.1226 0.4485 -2.1464 0.433 0.852 0.295 73 57 41 0 0
0.1243 0.4534 -2.1542 0.197 0.829 0.524 52 37 18 0 0
0.1251 0.4556 -2.1582 0.328 0.716 0.616 52 37 18 0 0
0.1274 0.4625 -2.1642 0.009 0.846 0.534 54 41 24 0 0
0.1402 0.4986 -2.2224 0.199 0.778 0.596 48 34 23 0 0
0.1405 0.4994 -2.2277 0.185 0.899 0.397 49 35 23 0 0
0.1411 0.5011 -2.2323 0.225 0.923 0.311 56 42 29 0 0
-0.0067 0.0884 -0.8938 0.086 0.471 0.878 109 96 81 0 0
0.0015 0.1031 -1.1929 0.183 0.534 0.825 42 34 13 0 0
0.0298 0.1863 -1.2356 0.342 0.813 0.471 110 91 60 0 0
0.0224 0.1623 -1.2863 0.358 0.887 0.293 24 17 3 0 0
0.0233 0.1648 -1.2952 0.120 0.944 0.308 26 18 3 0 0
0.0209 0.1569 -1.3191 -0.202 0.973 -0.109 67 47 19 0 0
0.0231 0.1629 -1.3417 0.219 0.938 0.268 145 115 64 0 0
0.0241 0.1655 -1.3455 0.041 0.903 0.427 164 134 85 0 0
0.0246 0.1670 -1.3498 0.414 0.848 0.332 159 131 88 0 0
0.0254 0.1690 -1.3539 0.012 0.715 0.699 133 110 77 0 0
0.0314 0.1867 -1.3656 0.359 0.731 0.581 103 79 48 0 0
0.0380 0.2058 -1.3815 0.244 0.662 0.709 114 96 61 0 0
0.0391 0.2091 -1.3849 0.244 0.662 0.709 113 97 55 0 0
0.0530 0.2496 -1.4149 0.045 0.879 0.475 136 107 67 0 0
0.0546 0.2540 -1.4279 0.091 0.902 0.421 128 101 60 0 0
0.0558 0.2574 -1.4363 0.153 0.929 0.338 107 83 46 0 0
0.0640 0.2802 -1.4906 0.141 0.850 0.507 174 147 100 0 0
0.0648 0.2824 -1.4946 0.185 0.822 0.539 190 164 129 0 0
0.0753 0.3109 -1.5824 0.684 0.671 0.286 93 70 34 0 0
0.0778 0.3182 -1.5885 0.131 0.940 0.314 144 120 77 0 0
0.0784 0.3196 -1.5929 0.131 0.940 0.314 120 97 54 0 0
0.0986 0.3778 -1.6621 0.074 0.884 -0.462 95 75 48 0 0
0.0915 0.3508 -1.8391 0.098 0.931 0.351 76 55 24 0 0
0.0924 0.3535 -1.8428 0.316 0.814 0.487 79 58 27 0 0
0.0964 0.3637 -1.8919 0.432 0.797 0.422 80 58 27 0 0
0.0969 0.3651 -1.8966 0.340 0.761 0.552 79 56 25 0 0
0.0979 0.3678 -1.9002 0.220 0.796 0.564 78 55 24 0 0
0.0987 0.3703 -1.9041 0.220 0.796 0.564 78 55 24 0 0
0.1021 0.3778 -1.9789 0.319 0.814 0.486 83 60 31 0 0
0.1023 0.3782 -1.9844 0.384 0.847 0.367 85 61 33 0 0
0.1050 0.3861 -1.9899 0.010 0.908 0.419 79 55 27 0 0
0.1075 0.3933 -1.9958 0.557 0.811 0.182 74 51 23 0 0
0.1160 0.4164 -2.0651 0.103 0.904 0.416 64 42 21 0 0
0.1204 0.4279 -2.1209 0.456 0.613 0.645 97 77 55 0 0
0.1217 0.4317 -2.1235 0.174 0.866 0.468 60 42 20 0 0
0.1220 0.4324 -2.1289 0.122 0.865 0.487 56 38 17 0 0
0.1227 0.4342 -2.1334 0.250 0.891 0.378 58 40 21 0 0
0.1250 0.4412 -2.1334 0.365 0.839 0.404 57 39 21 0 0
0.1259 0.4436 -2.1373 0.391 0.872 0.295 57 40 23 0 0
0.1264 0.4450 -2.1420 0.433 0.852 0.295 53 36 18 0 0
0.1269 0.4464 -2.1468 0.433 0.852 0.295 48 32 14 0 0
0.1289 0.4521 -2.1539 0.197 0.829 0.524 57 41 22 0 0
0.1457 0.4999 -2.2259 0.129 0.856 0.500 51 38 23 0 0
0.0038 0.0955 -1.1855 0.547 0.667 0.505 76 65 43 0 0
0.0349 0.1871 -1.2345 0.260 0.824 0.504 110 91 59 0 0
0.0350 0.1873 -1.2394 0.084 0.991 0.106 95 75 42 0 0
0.0268 0.1612 -1.2861 0.408 0.863 0.299 42 37 17 0 0
0.0271 0.1617 -1.2909 0.148 0.951 0.270 36 30 12 0 0
0.0332 0.1776 -1.3643 0.288 0.746 0.600 133 111 78 0 0
0.0356 0.1848 -1.3658 0.359 0.731 0.581 106 84 49 0 0
0.0430 0.2062 -1.3856 0.497 0.615 0.612 103 81 41 0 0
0.0569 0.2466 -1.4259 0.354 0.770 0.532 119 91 53 0 0
0.0578 0.2493 -1.4296 0.318 0.739 0.594 121 94 54 0 0
0.0638 0.2665 -1.4510 0.396 0.810 0.432 88 66 29 0 0
0.0645 0.2685 -1.4551 0.260 0.727 0.636 88 66 30 0 0
0.0655 0.2713 -1.4587 0.260 0.727 0.636 87 64 32 0 0
0.0783 0.3056 -1.5741 0.574 0.748 0.333 81 58 27 0 0
0.1014 0.3735 -1.6110 0.169 0.388 0.906 111 92 63 0 0
0.1024 0.3765 -1.6143 0.386 0.517 0.764 144 124 87 0 0
0.1045 0.3827 -1.6209 0.600 0.598 0.531 127 104 64 0 0
0.0894 0.3341 -1.7113 0.569 0.812 -0.129 73 58 38 0 0
0.0895 0.3343 -1.7166 0.344 0.892 0.292 64 47 28 0 0
0.0909 0.3378 -1.7307 0.108 0.835 0.540 67 51 27 0 0
0.0931 0.3424 -1.7936 0.249 0.798 0.548 90 67 36 0 0
0.1023 0.3660 -1.9004 0.197 0.790 0.580 79 56 25 0 0
0.1031 0.3686 -1.9042 0.197 0.790 0.580 79 56 25 0 0
0.1018 0.3644 -1.9131 0.383 0.912 0.145 78 55 24 0 0
0.1072 0.3784 -1.9714 0.287 0.855 0.432 84 60 32 0 0
0.1200 0.4138 -2.0600 0.256 0.837 0.484 64 42 23 0 0
0.1207 0.4156 -2.0644 0.103 0.904 0.416 65 43 21 0 0
0.1294 0.4394 -2.1336 0.365 0.839 0.404 54 37 19 0 0
0.1309 0.4436 -2.1359 0.180 0.907 0.381 56 39 22 0 0
0.1316 0.4457 -2.1401 0.146 0.892 0.428 52 35 17 0 0
0.1323 0.4477 -2.1443 0.142 0.898 0.416 52 35 17 0 0
0.1330 0.4496 -2.1487 0.142 0.898 0.416 53 36 18 0 0
0.1343 0.4531 -2.1577 0.207 0.812 0.545 53 38 19 0 0
0.1379 0.4625 -2.1977 0.345 0.775 0.530 49 34 19 0 0
0.1549 0.5124 -2.2372 0.220 0.872 0.437 70 59 38 0 0
0.0024 0.0878 -0.8931 -0.066 0.372 0.926 118 105 86 0 0
0.0102 0.1104 -0.9087 0.006 0.870 0.494 137 108 71 0 0
0.0142 0.1219 -0.9278 0.276 0.893 0.355 74 50 24 0 0
0.0145 0.1227 -0.9321 0.044 0.933 0.358 84 63 34 0 0
0.0149 0.1237 -0.9363 0.009 0.938 0.347 73 56 31 0 0
0.0306 0.1610 -1.2061 0.398 0.741 0.541 124 97 54 0 0
0.0315 0.1634 -1.2100 0.398 0.741 0.541 127 100 55 0 0
0.0322 0.1655 -1.2140 0.330 0.819 0.469 128 102 55 0 0
0.0405 0.1894 -1.2427 -0.058 0.991 0.119 52 36 11 0 0
0.0314 0.1604 -1.2858 0.372 0.821 0.433 35 31 8 0 0
0.0328 0.1628 -1.3300 0.478 0.813 0.332 79 54 26 0 0
0.0330 0.1630 -1.3451 0.236 0.886 0.400 181 149 97 0 0
0.0381 0.1777 -1.3635 0.311 0.835 0.453 123 102 65 0 0
0.0406 0.1852 -1.3648 0.030 0.935 0.353 85 64 28 0 0
0.0490 0.2095 -1.3883 0.372 0.831 0.413 120 97 63 0 0
0.0544 0.2252 -1.4057 0.155 0.783 0.603 206 178 136 0 0
0.0558 0.2292 -1.4138 0.032 0.914 0.404 197 168 123 0 0
0.0668 0.2609 -1.4481 0.245 0.695 0.676 99 76 40 0 0
0.0680 0.2644 -1.4513 0.260 0.730 0.632 83 61 27 0 0
0.0697 0.2695 -1.4588 0.341 0.796 0.501 84 61 28 0 0
0.0813 0.3007 -1.5604 0.056 0.842 0.537 75 53 23 0 0
0.0819 0.3021 -1.5700 -0.013 0.871 0.491 71 49 24 0 0
0.0929 0.3339 -1.6033 0.439 0.521 0.732 141 121 81 0 0
0.1108 0.3862 -1.6546 0.007 0.908 -0.419 86 65 35 0 0
0.0939 0.3327 -1.7167 0.344 0.892 0.292 73 57 35 0 0
0.0945 0.3341 -1.7266 0.253 0.877 0.409 58 40 20 0 0
0.0976 0.3410 -1.7935 0.249 0.798 0.548 86 63 34 0 0
0.1056 0.3610 -1.9030 0.338 0.827 0.449 80 57 26 0 0
0.1065 0.3633 -1.9127 0.267 0.940 0.212 79 56 25 0 0
0.1126 0.3796 -1.9693 0.066 0.918 0.390 82 58 31 0 0
0.1126 0.3794 -1.9752 -0.032 0.879 0.476 82 58 31 0 0
0.1158 0.3879 -2.0093 0.228 0.784 0.578 69 44 21 0 0
0.1200 0.3994 -2.0351 0.475 0.847 0.237 80 56 29 0 0
0.1255 0.4151 -2.0636 0.399 0.812 0.427 65 43 22 0 0
0.1268 0.4185 -2.0726 0.190 0.781 0.596 70 48 27 0 0
0.1338 0.4373 -2.1340 0.046 0.938 0.344 52 34 18 0 0
0.1600 0.5113 -2.2672 0.602 0.781 0.167 94 84 69 0 0
0.0070 0.0875 -0.8926 -0.066 0.372 0.926 121 108 87 0 0
0.0138 0.1074 -0.9046 -0.023 0.887 0.461 164 139 95 0 0
0.0185 0.1207 -0.9276 0.151 0.929 0.338 65 45 19 0 0
0.0191 0.1224 -0.9317 0.065 0.980 0.186 102 82 50 0 0
0.0194 0.1232 -0.9360 0.065 0.980 0.186 99 79 49 0 0
0.0200 0.1249 -0.9400 0.145 0.967 0.209 94 74 47 0 0
0.0017 0.0601 -1.1790 -0.166 0.054 0.985 79 68 50 0 0
0.0406 0.1760 -1.2234 -0.095 0.773 0.627 123 102 63 0 0
0.0449 0.1884 -1.2424 -0.209 0.977 0.052 45 30 6 0 0
0.0424 0.1761 -1.3635 0.311 0.835 0.453 105 83 41 0 0
0.0471 0.1900 -1.3718 0.251 0.902 0.351 56 38 23 0 0
0.0473 0.1902 -1.3768 0.338 0.785 0.519 113 93 72 0 0
0.0700 0.2571 -1.4238 0.194 0.724 0.662 120 96 55 0 0
0.0712 0.2598 -1.4479 0.301 0.742 0.599 94 71 39 0 0
0.0727 0.2643 -1.4506 0.263 0.728 0.633 63 38 18 0 0
0.0736 0.2667 -1.4544 0.394 0.692 0.606 69 44 24 0 0
0.0741 0.2683 -1.4586 0.437 0.785 0.438 86 63 29 0 0
0.0733 0.2643 -1.4918 0.550 0.779 0.301 133 105 74 0 0
0.0742 0.2665 -1.5062 0.354 0.869 0.345 166 145 119 0 0
0.0790 0.2804 -1.5242 -0.001 0.647 0.762 78 53 22 0 0
0.1023 0.3478 -1.6043 0.324 0.274 0.906 122 105 80 0 0
0.1109 0.3735 -1.6144 -0.295 0.776 0.558 155 133 101 0 0
0.0982 0.3311 -1.7167 0.148 0.938 0.312 65 49 26 0 0
0.1033 0.3431 -1.7965 0.499 0.693 0.521 53 36 19 0 0
0.1060 0.3498 -1.8365 -0.017 0.974 0.227 87 62 32 0 0
0.1094 0.3578 -1.8985 0.251 0.762 0.597 82 59 28 0 0
0.1101 0.3596 -1.9028 0.501 0.740 0.450 80 57 26 0 0
0.1149 0.3729 -1.9386 0.175 0.936 0.304 74 50 26 0 0
0.1204 0.3865 -2.0091 0.202 0.787 0.582 69 43 22 0 0
0.1255 0.4009 -2.0386 0.189 0.837 0.513 81 61 30 0 0
0.1391 0.4384 -2.1316 0.124 0.928 0.351 48 30 15 0 0
0.1641 0.5085 -2.2684 0.481 0.876 0.030 89 79 64 0 0
0.0239 0.1231 -0.9309 0.022 0.971 0.237 113 93 60 0 0
0.0257 0.1276 -0.9523 0.071 0.981 0.182 83 63 36 0 0
0.0383 0.1554 -1.2023 0.173 0.834 0.524 124 97 53 0 0
0.0396 0.1593 -1.2056 0.430 0.770 0.471 126 97 54 0 0
0.0405 0.1619 -1.2093 0.327 0.724 0.608 142 115 71 0 0
0.0502 0.1899 -1.2410 0.024 0.919 0.393 58 41 16 0 0
0.0397 0.1563 -1.2812 0.004 0.918 0.397 47 40 18 0 0
0.0423 0.1629 -1.3133 -0.145 0.989 -0.032 65 45 20 0 0
0.0417 0.1609 -1.3193 0.029 0.999 0.032 63 42 20 0 0
0.0415 0.1599 -1.3299 0.377 0.909 0.179 88 65 32 0 0
0.0434 0.1649 -1.3427 -0.080 0.879 0.471 167 139 88 0 0
0.0505 0.1856 -1.3630 0.251 0.902 0.351 70 51 22 0 0
0.0516 0.1887 -1.3717 0.251 0.902 0.351 82 64 43 0 0
0.0521 0.1902 -1.3760 0.251 0.902 0.351 110 89 62 0 0
0.0744 0.2558 -1.4236 0.194 0.724 0.662 118 90 50 0 0
0.0782 0.2662 -1.4538 0.403 0.743 0.534 89 65 39 0 0
0.0790 0.2685 -1.4577 0.403 0.743 0.534 86 62 31 0 0
0.0789 0.2680 -1.4631 0.424 0.809 0.408 91 72 40 0 0
0.0805 0.2718 -1.4868 0.200 0.891 0.407 179 149 105 0 0
0.0811 0.2735 -1.4909 0.200 0.891 0.407 164 138 102 0 0
0.0817 0.2753 -1.4951 0.200 0.891 0.407 150 132 106 0 0
0.0824 0.2771 -1.4993 0.200 0.891 0.407 164 146 116 0 0
0.0870 0.2888 -1.5551 0.276 0.640 0.717 98 71 30 0 0
0.0919 0.3027 -1.5784 0.176 0.963 0.205 83 59 25 0 0
0.1053 0.3371 -1.7280 0.512 0.804 0.303 72 55 36 0 0
0.1064 0.3378 -1.7936 0.166 0.760 0.629 81 59 33 0 0
0.1073 0.3405 -1.7973 0.271 0.739 0.617 57 42 22 0 0
0.1145 0.3578 -1.9030 0.398 0.885 0.240 81 58 27 0 0
0.1148 0.3586 -1.9081 0.446 0.817 0.365 80 57 26 0 0
0.1180 0.3685 -1.9065 0.457 0.863 0.218 77 53 24 0 0
0.1213 0.3773 -1.9340 0.307 0.849 0.431 69 47 23 0 0
0.1225 0.3797 -1.9610 0.211 0.795 0.568 67 45 22 0 0
0.1255 0.3873 -2.0014 0.218 0.976 0.015 63 41 20 0 0
0.1277 0.3930 -2.0202 0.371 0.604 0.705 66 42 17 0 0
0.1280 0.3934 -2.0316 0.457 0.786 0.416 75 49 23 0 0
0.1281 0.3937 -2.0372 0.436 0.785 0.440 80 58 31 0 0
0.1363 0.4173 -2.0709 0.158 0.862 0.481 70 48 27 0 0
0.1392 0.4248 -2.1002 0.101 0.923 0.372 90 71 40 0 0
0.1461 0.4440 -2.1434 0.203 0.893 0.401 47 30 14 0 0
0.1468 0.4458 -2.1479 0.188 0.928 0.321 54 37 19 0 0
0.1567 0.4740 -2.1952 -0.005 0.968 0.250 54 38 22 0 0
0.1681 0.5071 -2.2377 0.639 0.406 0.653 61 50 32 0 0
0.0252 0.1137 -0.9107 0.451 0.655 0.607 89 68 44 0 0
0.0278 0.1209 -0.9220 0.093 0.905 0.416 73 52 28 0 0
0.0304 0.1288 -0.9286 0.177 0.771 0.612 99 78 47 0 0
0.0297 0.1262 -0.9385 0.293 0.918 0.269 111 89 59 0 0
0.0427 0.1544 -1.2021 0.173 0.834 0.524 125 98 52 0 0
0.0439 0.1578 -1.2055 0.042 0.745 0.666 125 98 52 0 0
0.0538 0.1863 -1.2419 0.345 0.930 0.128 59 42 17 0 0
0.0448 0.1571 -1.2851 -0.029 0.870 0.492 36 30 10 0 0
0.0459 0.1583 -1.3299 0.277 0.920 0.277 96 73 42 0 0
0.0492 0.1680 -1.3405 -0.049 0.918 0.394 182 152 108 0 0
0.0497 0.1692 -1.3449 0.112 0.956 0.273 151 122 84 0 0
0.0501 0.1704 -1.3494 0.112 0.956 0.273 134 103 65 0 0
0.0506 0.1717 -1.3539 0.112 0.956 0.273 147 118 81 0 0
0.0518 0.1751 -1.3624 0.190 0.931 0.311 92 72 41 0 0
0.0559 0.1871 -1.3717 0.140 0.905 0.402 88 70 48 0 0
0.0564 0.1884 -1.3762 0.154 0.885 0.440 114 93 64 0 0
0.0787 0.2545 -1.4235 0.249 0.661 0.708 121 94 51 0 0
0.0818 0.2627 -1.4549 0.407 0.829 0.382 101 78 42 0 0
0.0824 0.2643 -1.4591 0.407 0.829 0.382 85 62 27 0 0
0.0876 0.2781 -1.5030 0.283 0.893 0.351 73 48 22 0 0
0.0882 0.2797 -1.5073 0.196 0.918 0.344 80 54 24 0 0
0.0967 0.3028 -1.5773 -0.087 0.939 0.334 82 58 24 0 0
0.1100 0.3341 -1.7839 0.327 0.922 0.209 99 75 40 0 0
0.1189 0.3584 -1.8505 0.488 0.800 0.347 84 61 30 0 0
0.1194 0.3574 -1.9079 0.349 0.895 0.277 79 56 27 0 0
0.1334 0.3952 -2.0230 0.451 0.763 0.463 70 45 20 0 0
0.1346 0.3980 -2.0383 0.463 0.787 0.408 81 62 30 0 0
0.1372 0.4054 -2.0558 0.440 0.652 0.618 76 53 28 0 0
0.1598 0.4690 -2.1801 0.365 0.772 0.520 49 33 17 0 0
0.1612 0.4729 -2.1827 0.132 0.678 0.724 50 34 18 0 0
0.1730 0.5067 -2.2366 0.336 0.503 0.796 67 56 38 0 0
0.0347 0.1277 -0.9284 0.177 0.771 0.612 114 93 63 0 0
0.0356 0.1304 -0.9321 0.177 0.771 0.612 112 89 58 0 0
0.0340 0.1252 -0.9384 0.299 0.912 0.280 111 87 56 0 0
-0.0001 0.0087 -1.1930 0.017 -0.257 0.966 104 95 81 0 0
0.0456 0.1490 -1.1940 0.315 0.855 0.413 114 90 42 0 0
0.0465 0.1515 -1.1978 0.223 0.788 0.573 118 95 47 0 0
0.0566 0.1813 -1.2190 0.321 0.795 0.514 121 105 74 0 0
0.0570 0.1826 -1.2233 0.219 0.844 0.490 97 80 52 0 0
0.0578 0.1846 -1.2273 0.363 0.877 0.315 102 84 55 0 0
0.0583 0.1859 -1.2316 0.363 0.877 0.315 99 80 48 0 0
0.0588 0.1872 -1.2409 0.697 0.678 0.233 56 39 16 0 0
0.0496 0.1569 -1.2845 -0.029 0.870 0.492 32 27 7 0 0
0.0528 0.1643 -1.3364 0.258 0.801 0.541 163 132 78 0 0
0.0536 0.1667 -1.3403 0.338 0.710 0.618 175 144 99 0 0
0.0831 0.2532 -1.4234 0.241 0.770 0.591 131 104 63 0 0
0.0883 0.2662 -1.4881 -0.042 0.680 0.732 161 133 91 0 0
0.1120 0.3336 -1.6050 -0.019 0.491 0.871 123 103 72 0 0
0.1138 0.3389 -1.6070 0.332 0.471 0.817 132 111 82 0 0
0.1157 0.3447 -1.6086 0.234 0.217 0.948 121 102 74 0 0
0.1278 0.3814 -1.6169 0.279 0.782 0.557 123 100 62 0 0
0.1286 0.3838 -1.6207 0.319 0.823 0.469 127 105 69 0 0
0.1151 0.3369 -1.7369 0.038 0.772 0.634 77 56 25 0 0
0.1237 0.3553 -1.9082 0.398 0.874 0.279 78 54 27 0 0
0.1311 0.3754 -1.9676 0.367 0.929 0.046 70 48 25 0 0
0.1346 0.3844 -2.0070 -0.069 0.839 0.540 61 39 18 0 0
0.1356 0.3872 -2.0106 0.031 0.936 0.352 62 39 18 0 0
0.1449 0.4128 -2.0721 0.245 0.949 0.198 54 36 14 0 0
0.1472 0.4194 -2.0842 -0.176 0.756 0.630 58 37 16 0 0
0.1480 0.4215 -2.0884 -0.024 0.867 0.498 71 52 30 0 0
0.1533 0.4358 -2.1298 0.235 0.906 0.353 49 31 15 0 0
0.1656 0.4712 -2.1828 0.127 0.831 0.541 49 33 17 0 0
0.1737 0.4944 -2.2223 0.357 0.819 0.449 64 49 29 0 0
0.1745 0.4964 -2.2265 0.357 0.819 0.449 69 54 35 0 0
0.0390 0.1266 -0.9283 0.177 0.771 0.612 120 99 69 0 0
0.0396 0.1283 -0.9368 0.165 0.912 0.376 114 90 58 0 0
0.0416 0.1222 -1.1851 -0.136 0.355 0.925 98 76 33 0 0
0.0509 0.1502 -1.1977 0.223 0.788 0.573 115 91 42 0 0
0.0558 0.1648 -1.2109 0.122 0.819 0.561 96 76 45 0 0
0.0608 0.1797 -1.2190 0.321 0.795 0.514 113 97 68 0 0
0.0617 0.1818 -1.2328 0.183 0.752 0.633 93 74 44 0 0
0.0572 0.1629 -1.3364 0.258 0.801 0.541 172 142 86 0 0
0.0580 0.1652 -1.3403 0.258 0.801 0.541 155 125 77 0 0
0.0629 0.1796 -1.3587 0.188 0.800 0.570 78 53 25 0 0
0.0637 0.1818 -1.3626 0.290 0.800 0.525 71 51 26 0 0
0.0646 0.1842 -1.3665 0.341 0.894 0.290 87 70 50 0 0
0.0657 0.1874 -1.3700 0.347 0.826 0.445 66 46 31 0 0
0.0726 0.2079 -1.3902 0.300 0.632 0.714 153 126 95 0 0
0.0892 0.2561 -1.4465 0.287 0.881 0.377 88 66 34 0 0
0.0921 0.2645 -1.4573 0.017 0.829 0.559 84 62 31 0 0
0.0929 0.2670 -1.4611 0.017 0.829 0.559 88 67 39 0 0
0.0928 0.2656 -1.4825 0.273 0.781 0.562 86 64 31 0 0
0.0936 0.2677 -1.4864 0.400 0.643 0.653 145 118 80 0 0
0.1178 0.3367 -1.6074 0.332 0.471 0.817 121 100 75 0 0
0.1193 0.3411 -1.6099 0.349 0.359 0.866 111 91 63 0 0
0.1328 0.3822 -1.6207 0.319 0.823 0.469 123 100 63 0 0
0.1187 0.3336 -1.7273 0.226 0.936 0.270 62 45 25 0 0
0.1192 0.3348 -1.7319 0.226 0.936 0.270 65 47 23 0 0
0.1197 0.3361 -1.7365 0.382 0.738 0.557 79 59 30 0 0
0.1180 0.3294 -1.7685 0.349 0.864 0.364 65 44 17 0 0
0.1185 0.3307 -1.7731 0.377 0.925 0.043 58 38 16 0 0
0.1281 0.3542 -1.8965 0.287 0.915 0.283 87 65 34 0 0
0.1290 0.3567 -1.9003 0.258 0.915 0.311 77 55 25 0 0
0.1295 0.3581 -1.9050 0.258 0.915 0.311 74 51 24 0 0
0.1412 0.3892 -2.0078 0.289 0.936 0.198 61 39 18 0 0
0.1411 0.3884 -2.0201 0.261 0.680 0.685 61 39 18 0 0
0.1502 0.4135 -2.0761 0.425 0.851 0.309 52 34 14 0 0
0.1525 0.4200 -2.0883 0.604 0.728 0.324 71 53 32 0 0
0.1528 0.4203 -2.0999 0.033 0.997 0.064 81 62 31 0 0
0.1695 0.4681 -2.1781 0.235 0.852 0.469 51 34 18 0 0
0.1703 0.4702 -2.1823 0.127 0.831 0.541 50 33 17 0 0
0.1753 0.4846 -2.2055 0.309 0.716 0.626 71 54 36 0 0
0.1759 0.4861 -2.2163 0.178 0.948 0.263 62 46 28 0 0
0.1782 0.4928 -2.2223 0.214 0.849 0.483 55 38 20 0 0
0.1842 0.5096 -2.2553 0.108 0.979 0.171 64 54 35 0 0
0.0395 0.1145 -0.9135 -0.029 0.709 0.705 95 72 42 0 0
0.0414 0.1203 -0.9207 0.202 0.841 0.502 110 88 57 0 0
0.0432 0.1254 -0.9281 0.281 0.695 0.662 118 97 68 0 0
0.0439 0.1272 -0.9321 0.341 0.675 0.654 111 90 58 0 0
0.0440 0.1274 -0.9366 0.165 0.912 0.376 104 80 47 0 0
0.0457 0.1314 -0.9627 0.142 0.958 0.250 95 75 45 0 0
0.0451 0.1183 -1.1812 -0.408 0.589 0.698 90 68 30 0 0
0.0622 0.1698 -1.2129 0.231 0.647 0.727 106 86 57 0 0
0.0649 0.1781 -1.2142 0.300 0.825 0.478 103 84 53 0 0
0.0607 0.1586 -1.3377 0.399 0.561 0.726 158 126 75 0 0
0.0758 0.2030 -1.3868 0.218 0.727 0.651 119 98 67 0 0
0.0768 0.2059 -1.3904 0.218 0.727 0.651 155 127 100 0 0
0.0778 0.2088 -1.3940 0.240 0.574 0.783 172 143 108 0 0
0.0844 0.2283 -1.4095 0.301 0.746 0.595 192 167 117 0 0
0.0853 0.2309 -1.4132 0.301 0.746 0.595 172 143 98 0 0
0.1021 0.2774 -1.5216 -0.004 0.849 0.528 76 51 21 0 0
0.1030 0.2801 -1.5252 0.125 0.981 0.148 70 46 15 0 0
0.1234 0.3391 -1.6102 0.095 0.407 0.909 123 104 77 0 0
0.1371 0.3808 -1.6206 0.279 0.782 0.557 116 93 54 0 0
0.1234 0.3303 -1.7779 0.372 0.808 0.456 77 56 27 0 0
0.1329 0.3538 -1.8956 0.303 0.910 0.281 84 63 32 0 0
0.1329 0.3535 -1.9015 0.530 0.645 0.550 76 55 26 0 0
0.1341 0.3563 -1.9166 0.253 0.804 0.538 68 46 22 0 0
0.1368 0.3639 -1.9337 0.419 0.818 0.395 70 48 24 0 0
0.1402 0.3724 -1.9733 0.504 0.776 0.381 73 51 30 0 0
0.1450 0.3849 -2.0157 0.527 0.650 0.547 58 36 16 0 0
0.1456 0.3867 -2.0202 0.261 0.680 0.685 56 34 15 0 0
0.1555 0.4143 -2.0800 0.228 0.791 0.567 49 30 13 0 0
0.1562 0.4164 -2.0842 0.125 0.878 0.463 53 35 15 0 0
0.1797 0.4829 -2.2057 0.309 0.716 0.626 67 50 32 0 0
0.1800 0.4835 -2.2111 0.271 0.916 0.296 61 44 26 0 0
0.1806 0.4851 -2.2158 0.178 0.948 0.263 60 45 26 0 0
0.0494 0.1286 -0.9586 0.067 0.968 0.240 70 50 26 0 0
0.0498 0.1296 -0.9628 0.067 0.968 0.240 81 61 31 0 0
0.0697 0.1774 -1.2285 0.013 0.842 0.539 116 91 63 0 0
0.0623 0.1503 -1.3055 0.511 0.828 0.229 53 38 17 0 0
0.0626 0.1510 -1.3102 0.339 0.925 0.174 60 44 21 0 0
0.0674 0.1638 -1.3496 0.536 0.800 0.270 165 136 96 0 0
0.0877 0.2240 -1.4058 0.301 0.746 0.595 198 173 128 0 0
0.0886 0.2266 -1.4095 0.301 0.746 0.595 187 160 108 0 0
0.0895 0.2292 -1.4133 0.301 0.746 0.595 171 144 99 0 0
0.1032 0.2686 -1.4739 0.265 0.950 0.165 70 48 25 0 0
0.1206 0.3159 -1.5973 0.730 0.610 0.308 141 110 66 0 0
0.1412 0.3790 -1.6208 0.450 0.721 0.527 116 93 53 0 0
0.1431 0.3845 -1.6278 0.288 0.696 0.658 77 56 28 0 0
0.1272 0.3273 -1.7677 0.601 0.564 0.566 68 47 20 0 0
0.1281 0.3300 -1.7714 0.601 0.564 0.566 58 39 17 0 0
0.1313 0.3380 -1.8102 0.795 0.523 0.308 56 38 15 0 0
0.1332 0.3416 -1.8524 0.058 0.736 0.674 81 58 27 0 0
0.1348 0.3463 -1.8547 0.081 0.875 0.476 81 58 29 0 0
0.1452 0.3726 -1.9719 0.055 0.846 0.531 71 49 28 0 0
0.1488 0.3815 -2.0114 0.128 0.935 0.330 54 34 15 0 0
0.1512 0.3878 -2.0356 0.115 0.753 0.648 61 43 19 0 0
0.1524 0.3914 -2.0386 0.300 0.811 0.503 73 55 26 0 0
0.1561 0.4020 -2.0534 0.557 0.702 0.444 73 48 23 0 0
0.1863 0.4875 -2.2121 0.146 0.743 0.654 63 48 29 0 0
0.1874 0.4906 -2.2214 0.247 0.864 0.438 55 40 21 0 0
0.1936 0.5080 -2.2539 0.259 0.953 0.160 66 56 38 0 0
0.0520 0.1236 -0.9323 -0.012 0.722 0.692 104 79 48 0 0
0.0543 0.1302 -0.9438 0.149 0.985 0.089 94 71 44 0 0
0.0664 0.1489 -1.2903 0.022 0.997 0.080 22 18 3 0 0
0.0920 0.2223 -1.4059 0.301 0.746 0.595 193 167 117 0 0
0.0998 0.2452 -1.4346 0.172 0.869 0.463 89 68 37 0 0
0.1004 0.2466 -1.4389 0.320 0.845 0.428 87 66 36 0 0
0.1018 0.2507 -1.4470 0.478 0.841 0.253 86 65 35 0 0
0.1022 0.2518 -1.4515 0.478 0.841 0.253 80 59 28 0 0
0.1052 0.2603 -1.4623 0.367 0.694 0.620 83 62 31 0 0
0.1182 0.2949 -1.5722 0.271 0.683 0.678 82 60 28 0 0
0.1436 0.3718 -1.6192 0.241 0.497 0.834 123 99 59 0 0
0.1453 0.3768 -1.6213 0.450 0.721 0.527 113 90 50 0 0
0.1313 0.3248 -1.7684 0.307 0.846 0.435 69 48 21 0 0
0.1382 0.3419 -1.8511 0.435 0.883 0.176 79 56 25 0 0
0.1394 0.3456 -1.8541 0.081 0.875 0.476 79 56 27 0 0
0.1455 0.3601 -1.9342 0.408 0.876 0.257 72 50 26 0 0
0.1495 0.3704 -1.9724 0.206 0.927 0.315 67 45 24 0 0
0.1581 0.3934 -2.0416 0.643 0.759 0.101 111 83 48 0 0
0.1924 0.4906 -2.2199 0.467 0.723 0.508 56 41 22 0 0
0.1932 0.4929 -2.2239 0.279 0.898 0.340 56 41 22 0 0
0.1964 0.5021 -2.2397 0.365 0.639 0.677 76 69 51 0 0
0.0597 0.1294 -0.9987 -0.127 0.991 0.045 124 105 85 0 0
0.0597 0.1292 -1.0034 0.373 0.617 0.693 151 142 133 0 0
0.0705 0.1470 -1.2804 0.495 0.869 0.012 29 23 8 0 0
0.0721 0.1510 -1.2987 0.086 0.932 0.352 40 28 8 0 0
0.0719 0.1494 -1.3145 0.392 0.893 -0.220 55 39 16 0 0
0.0886 0.1977 -1.3872 0.229 0.735 0.638 132 113 83 0 0
0.0923 0.2089 -1.3967 0.023 0.830 0.557 163 136 102 0 0
0.0972 0.2233 -1.4097 0.301 0.746 0.595 164 136 90 0 0
0.1108 0.2619 -1.4811 0.370 0.909 0.193 72 49 20 0 0
0.1112 0.2629 -1.4857 0.464 0.701 0.541 134 111 73 0 0
0.1156 0.2739 -1.5366 0.818 0.442 0.368 71 45 17 0 0
0.1478 0.3700 -1.6194 0.241 0.497 0.834 121 98 57 0 0
0.1498 0.3762 -1.6207 0.111 0.917 0.383 114 91 53 0 0
0.1507 0.3780 -1.6405 0.160 0.984 0.074 89 68 37 0 0
0.1343 0.3218 -1.7201 0.225 0.965 0.131 58 41 21 0 0
0.1350 0.3213 -1.7642 0.628 0.684 0.370 114 91 55 0 0
0.1359 0.3240 -1.7679 0.670 0.614 0.418 67 46 19 0 0
0.1366 0.3261 -1.7720 0.480 0.466 0.744 60 41 18 0 0
0.1396 0.3338 -1.7998 0.386 0.915 0.118 106 86 54 0 0
0.1396 0.3334 -1.8057 0.429 0.868 0.249 75 55 25 0 0
0.1402 0.3349 -1.8102 0.469 0.822 0.324 67 45 20 0 0
0.1470 0.3511 -1.8998 0.138 0.989 0.053 72 51 25 0 0
0.1470 0.3504 -1.9117 0.143 0.827 0.543 70 48 25 0 0
0.1494 0.3570 -1.9296 0.408 0.876 0.257 69 47 24 0 0
0.1499 0.3582 -1.9345 0.408 0.876 0.257 68 46 24 0 0
0.1510 0.3612 -1.9437 0.371 0.869 0.328 64 42 21 0 0
0.1516 0.3627 -1.9483 0.371 0.869 0.328 58 36 15 0 0
0.1521 0.3642 -1.9529 0.371 0.869 0.328 63 41 20 0 0
0.1556 0.3741 -1.9683 -0.104 0.945 0.311 63 41 20 0 0
0.1565 0.3770 -1.9718 0.115 0.936 0.332 63 41 20 0 0
0.1584 0.3802 -2.0157 0.131 0.766 0.629 52 33 16 0 0
0.1608 0.3874 -2.0216 0.269 0.831 0.486 49 32 15 0 0
0.1619 0.3898 -2.0373 0.237 0.694 0.680 83 63 32 0 0
0.1703 0.4155 -2.0515 0.363 0.816 0.449 62 41 20 0 0
0.1677 0.4058 -2.0772 0.580 0.681 0.448 51 32 14 0 0
0.1743 0.4243 -2.1150 0.434 0.747 0.504 92 72 47 0 0
0.1766 0.4312 -2.1210 0.530 0.760 0.376 50 33 17 0 0
0.1782 0.4359 -2.1290 0.056 0.950 0.307 57 38 21 0 0
0.1840 0.4523 -2.1565 0.509 0.683 0.524 57 38 21 0 0
0.1848 0.4547 -2.1604 0.509 0.683 0.524 58 39 22 0 0
0.1923 0.4757 -2.2019 0.270 0.770 0.578 61 42 25 0 0
0.2012 0.5015 -2.2388 0.292 0.670 0.682 63 56 37 0 0
0.2020 0.5039 -2.2426 0.236 0.800 0.552 61 54 35 0 0
0.0631 0.1299 -0.9247 0.058 0.921 0.386 102 82 49 0 0
0.0656 0.1357 -0.9638 -0.123 0.919 0.375 102 84 52 0 0
0.0643 0.1293 -0.9982 -0.168 0.983 0.072 109 88 59 0 0
0.0636 0.1270 -1.0037 0.373 0.617 0.693 116 97 77 0 0
0.0648 0.1303 -1.0071 0.065 0.872 0.485 131 121 112 0 0
0.0820 0.1723 -1.2141 0.056 0.849 0.526 107 88 57 0 0
0.0767 0.1498 -1.3086 0.364 0.927 0.086 63 45 23 0 0
0.0752 0.1433 -1.3369 0.174 0.743 0.647 144 114 65 0 0
0.0757 0.1445 -1.3414 0.104 0.567 0.817 150 117 66 0 0
0.0771 0.1487 -1.3445 0.104 0.567 0.817 161 127 79 0 0
0.0784 0.1527 -1.3477 -0.071 0.665 0.744 173 142 96 0 0
0.0846 0.1713 -1.3640 0.307 0.844 0.440 86 65 37 0 0
0.0855 0.1738 -1.3678 0.292 0.881 0.371 87 69 45 0 0
0.0941 0.2000 -1.3852 0.216 0.929 0.302 186 165 132 0 0
0.0977 0.2106 -1.3951 0.123 0.619 0.775 171 142 111 0 0
0.1014 0.2216 -1.4097 0.301 0.746 0.595 178 153 107 0 0
0.1023 0.2241 -1.4135 0.080 0.838 0.539 142 115 75 0 0
0.1063 0.2364 -1.4172 0.415 0.764 0.493 113 89 57 0 0
0.1100 0.2468 -1.4372 0.370 0.894 0.253 89 66 34 0 0
0.1152 0.2605 -1.4862 0.464 0.701 0.541 120 96 67 0 0
0.1198 0.2718 -1.5368 0.789 0.476 0.388 74 50 18 0 0
0.1263 0.2914 -1.5515 0.133 0.882 0.452 72 49 22 0 0
0.1386 0.3204 -1.7145 0.293 0.956 0.033 54 37 21 0 0
0.1395 0.3222 -1.7297 0.226 0.963 0.149 57 40 20 0 0
0.1411 0.3259 -1.7545 -0.049 0.794 0.606 119 95 57 0 0
0.1414 0.3266 -1.7596 -0.005 0.935 0.354 98 75 39 0 0
0.1420 0.3281 -1.7641 0.050 0.980 0.191 66 44 19 0 0
0.1439 0.3319 -1.8001 0.408 0.862 0.299 109 90 57 0 0
0.1439 0.3314 -1.8060 0.429 0.868 0.249 75 54 23 0 0
0.1444 0.3327 -1.8107 0.469 0.822 0.324 68 46 20 0 0
0.1465 0.3378 -1.8350 0.167 0.898 0.407 85 62 32 0 0
0.1473 0.3401 -1.8389 0.267 0.786 0.558 79 55 27 0 0
0.1474 0.3399 -1.8503 0.261 0.863 0.432 78 54 28 0 0
0.1499 0.3457 -1.8856 0.382 0.687 0.619 75 54 25 0 0
0.1509 0.3484 -1.8893 0.382 0.687 0.619 77 56 27 0 0
0.1544 0.3569 -1.9342 0.218 0.905 0.366 63 41 19 0 0
0.1551 0.3588 -1.9386 0.261 0.938 0.227 63 41 20 0 0
0.1561 0.3613 -1.9481 0.271 0.907 0.321 52 30 9 0 0
0.1566 0.3628 -1.9528 0.271 0.907 0.321 58 36 15 0 0
0.1571 0.3639 -1.9576 0.178 0.919 0.353 60 38 17 0 0
0.1587 0.3681 -1.9717 0.272 0.933 0.235 68 46 25 0 0
0.1767 0.4166 -2.1083 0.375 0.856 0.356 138 106 70 0 0
0.1775 0.4187 -2.1125 0.432 0.861 0.267 145 116 83 0 0
0.1780 0.4200 -2.1173 0.432 0.861 0.267 94 75 47 0 0
0.1828 0.4329 -2.1540 0.447 0.730 0.518 54 35 18 0 0
0.1967 0.4741 -2.2019 0.270 0.770 0.578 61 43 25 0 0
0.2058 0.4986 -2.2705 0.438 0.898 -0.047 112 110 98 0 0
0.0602 0.1081 -0.8950 0.003 0.569 0.822 127 107 83 0 0
0.0672 0.1289 -0.9200 0.261 0.783 0.565 107 84 50 0 0
0.0674 0.1291 -0.9244 0.064 0.842 0.535 107 86 52 0 0
0.0723 0.1416 -0.9749 0.126 0.901 0.415 108 87 48 0 0
0.0730 0.1433 -0.9789 0.239 0.910 0.338 106 85 56 0 0
0.0694 0.1305 -1.0019 -0.237 0.971 -0.020 111 89 60 0 0
0.0692 0.1298 -1.0068 0.065 0.872 0.485 113 94 72 0 0
0.0698 0.1314 -1.0108 0.032 0.949 0.313 117 104 91 0 0
0.0853 0.1679 -1.2104 0.252 0.911 0.326 119 100 66 0 0
0.0860 0.1696 -1.2194 0.425 0.808 0.408 99 79 54 0 0
0.0867 0.1714 -1.2235 0.425 0.808 0.408 88 65 37 0 0
0.0783 0.1411 -1.2817 0.641 0.749 0.168 37 31 16 0 0
0.0801 0.1447 -1.3153 0.664 0.747 0.044 68 51 29 0 0
0.0841 0.1552 -1.3507 0.284 0.646 0.709 106 79 42 0 0
0.0998 0.2030 -1.3829 0.443 0.672 0.593 126 104 71 0 0
0.1008 0.2057 -1.3866 0.443 0.672 0.593 141 121 89 0 0
0.1014 0.2075 -1.3908 0.331 0.821 0.466 127 103 76 0 0
0.1057 0.2199 -1.4098 0.301 0.746 0.595 167 139 94 0 0
0.1066 0.2225 -1.4135 0.301 0.746 0.595 148 119 79 0 0
0.1075 0.2252 -1.4172 0.301 0.746 0.595 131 106 66 0 0
0.1193 0.2582 -1.4866 0.464 0.701 0.541 120 97 64 0 0
0.1431 0.3191 -1.7144 0.270 0.959 0.090 58 41 25 0 0
0.1433 0.3195 -1.7196 0.270 0.959 0.090 65 49 28 0 0
0.1436 0.3198 -1.7303 0.433 0.854 0.288 56 39 19 0 0
0.1459 0.3256 -1.7537 -0.049 0.794 0.606 111 87 50 0 0
0.1514 0.3380 -1.8337 -0.011 0.962 0.272 77 53 25 0 0
0.1590 0.3557 -1.9340 0.218 0.905 0.366 62 40 18 0 0
0.1594 0.3567 -1.9389 0.436 0.845 0.310 60 38 17 0 0
0.1606 0.3600 -1.9479 0.305 0.854 0.421 56 34 13 0 0
0.1613 0.3619 -1.9522 0.305 0.854 0.421 56 34 13 0 0
0.1627 0.3654 -1.9668 0.082 0.809 0.583 61 39 18 0 0
0.1632 0.3668 -1.9715 0.272 0.933 0.235 70 48 27 0 0
0.1802 0.4121 -2.1049 0.433 0.792 0.430 132 105 63 0 0
0.1808 0.4138 -2.1093 0.521 0.779 0.349 142 109 73 0 0
0.1812 0.4147 -2.1146 0.497 0.850 0.175 146 117 82 0 0
0.1819 0.4165 -2.1189 0.426 0.852 0.305 91 72 43 0 0
0.1968 0.4600 -2.1769 0.177 0.920 0.349 61 43 23 0 0
0.1972 0.4612 -2.1819 0.253 0.869 0.425 61 43 23 0 0
0.1977 0.4625 -2.1867 0.391 0.786 0.479 68 50 28 0 0
0.1971 0.4600 -2.1951 0.118 0.905 0.409 71 53 32 0 0
0.2027 0.4767 -2.2102 0.366 0.639 0.676 57 40 21 0 0
0.2049 0.4833 -2.2163 0.417 0.827 0.377 60 43 25 0 0
0.0621 0.0997 -0.8926 0.161 0.300 0.940 121 105 86 0 0
0.0767 0.1408 -0.9747 0.126 0.901 0.415 122 100 55 0 0
0.0772 0.1422 -0.9788 0.239 0.910 0.338 109 89 56 0 0
0.0746 0.1326 -1.0006 -0.315 0.940 -0.129 102 82 52 0 0
0.0748 0.1329 -1.0051 -0.385 0.917 0.105 105 84 55 0 0
0.0744 0.1311 -1.0104 0.032 0.949 0.313 105 88 63 0 0
0.0750 0.1327 -1.0145 0.184 0.821 0.541 114 100 80 0 0
0.0888 0.1640 -1.2066 0.036 0.855 0.517 93 75 44 0 0
0.0899 0.1671 -1.2150 0.351 0.884 0.309 108 89 59 0 0
0.0827 0.1381 -1.3075 0.799 0.590 0.115 68 51 28 0 0
0.0831 0.1390 -1.3122 0.737 0.544 0.402 54 36 14 0 0
0.0835 0.1400 -1.3167 0.677 0.642 0.361 56 40 18 0 0
0.0847 0.1422 -1.3410 0.168 0.719 0.674 148 117 66 0 0
0.0857 0.1453 -1.3446 0.140 0.606 0.783 148 112 64 0 0
0.1027 0.1970 -1.3801 0.531 0.529 0.662 144 125 97 0 0
0.1037 0.1999 -1.3837 0.546 0.572 0.612 117 96 68 0 0
0.1056 0.2056 -1.3909 0.411 0.803 0.431 137 116 88 0 0
0.1090 0.2155 -1.4062 0.319 0.694 0.646 173 141 95 0 0
0.1342 0.2844 -1.5748 0.339 0.844 0.415 83 60 28 0 0
0.1477 0.3172 -1.7309 0.387 0.911 0.144 66 48 28 0 0
0.1474 0.3158 -1.7373 0.434 0.886 0.164 71 51 26 0 0
0.1492 0.3211 -1.7447 0.086 0.937 0.338 92 69 36 0 0
0.1498 0.3229 -1.7490 0.040 0.888 0.458 96 70 39 0 0
0.1501 0.3234 -1.7541 0.143 0.746 0.650 108 85 50 0 0
0.1505 0.3245 -1.7589 0.134 0.988 0.073 108 86 53 0 0
0.1508 0.3248 -1.7641 0.134 0.988 0.073 56 36 13 0 0
0.1598 0.3451 -1.8950 0.120 0.863 0.491 79 58 31 0 0
0.1623 0.3511 -1.9248 0.340 0.885 0.317 69 47 25 0 0
0.1629 0.3528 -1.9292 0.281 0.917 0.284 66 44 22 0 0
0.1638 0.3549 -1.9391 0.399 0.855 0.332 60 38 17 0 0
0.1644 0.3566 -1.9436 0.419 0.885 0.202 62 40 19 0 0
0.1666 0.3627 -1.9561 0.265 0.899 0.350 63 41 21 0 0
0.1672 0.3643 -1.9607 0.265 0.899 0.350 62 40 20 0 0
0.1678 0.3659 -1.9652 0.265 0.899 0.350 65 43 23 0 0
0.1700 0.3710 -1.9959 0.406 0.807 0.429 51 33 13 0 0
0.1699 0.3702 -2.0024 0.360 0.851 0.383 49 31 12 0 0
0.1743 0.3825 -2.0277 0.045 0.884 0.466 51 33 16 0 0
0.1746 0.3832 -2.0329 0.419 0.658 0.626 82 62 37 0 0
0.1748 0.3835 -2.0385 0.504 0.864 0.026 90 68 35 0 0
0.1752 0.3839 -2.0499 0.524 0.850 -0.057 131 103 65 0 0
0.1755 0.3847 -2.0552 0.192 0.620 0.761 104 79 48 0 0
0.1755 0.3841 -2.0616 -0.135 0.697 0.705 60 39 14 0 0
0.1842 0.4092 -2.1000 0.245 0.930 0.273 96 75 35 0 0
0.2014 0.4590 -2.1764 0.177 0.920 0.349 60 40 20 0 0
0.2032 0.4638 -2.1902 0.177 0.920 0.349 66 48 28 0 0
0.2036 0.4648 -2.1953 0.330 0.874 0.357 60 42 23 0 0
0.0661 0.0979 -0.8927 0.161 0.300 0.940 122 105 86 0 0
0.0703 0.1112 -0.8931 0.526 0.322 0.788 128 107 83 0 0
0.0800 0.1348 -1.0039 -0.428 0.898 0.099 96 76 48 0 0
0.0801 0.1345 -1.0086 -0.334 0.942 0.040 93 73 46 0 0
0.0794 0.1321 -1.0141 -0.028 0.932 0.360 99 79 53 0 0
0.0888 0.1418 -1.3151 0.706 0.505 0.497 58 41 21 0 0
0.0912 0.1474 -1.3428 0.284 0.869 0.406 144 113 67 0 0
0.1148 0.2181 -1.4142 0.332 0.644 0.689 117 95 63 0 0
0.1245 0.2459 -1.4608 0.367 0.921 0.130 78 53 26 0 0
0.1306 0.2627 -1.5030 0.554 0.622 0.553 73 49 19 0 0
0.1384 0.2827 -1.5749 0.339 0.844 0.415 85 62 29 0 0
0.1655 0.3659 -1.6234 0.238 0.699 0.675 97 77 41 0 0
0.1520 0.3152 -1.7367 0.228 0.955 0.191 66 46 21 0 0
0.1538 0.3203 -1.7442 0.040 0.888 0.458 90 66 34 0 0
0.1535 0.3191 -1.7505 0.111 0.713 0.692 110 84 52 0 0
0.1553 0.3242 -1.7580 0.005 0.956 0.295 107 88 55 0 0
0.1542 0.3184 -1.7896 0.301 0.780 0.549 88 64 33 0 0
0.1594 0.3297 -1.8712 0.364 0.898 0.246 80 58 31 0 0
0.1613 0.3351 -1.8786 0.316 0.940 0.126 79 58 31 0 0
0.1627 0.3390 -1.8871 0.415 0.771 0.482 73 52 23 0 0
0.1635 0.3413 -1.8911 0.457 0.712 0.534 74 53 26 0 0
0.1656 0.3464 -1.9157 0.238 0.909 0.342 65 43 20 0 0
0.1742 0.3680 -2.0029 0.459 0.773 0.438 51 34 12 0 0
0.1791 0.3822 -2.0266 0.054 0.818 0.572 46 30 12 0 0
0.1835 0.3941 -2.0580 0.386 0.760 0.523 56 36 15 0 0
0.1844 0.3964 -2.0620 0.386 0.760 0.523 55 37 17 0 0
0.1887 0.4079 -2.0998 0.332 0.898 0.289 100 79 40 0 0
0.1993 0.4381 -2.1514 0.060 0.777 0.626 55 37 17 0 0
0.2180 0.4919 -2.2418 0.240 0.777 0.582 65 56 39 0 0
0.2189 0.4944 -2.2456 0.181 0.851 0.493 58 50 31 0 0
0.0737 0.1074 -0.8938 0.526 0.322 0.788 127 107 84 0 0
0.0853 0.1363 -1.0121 -0.399 0.916 0.029 92 72 45 0 0
0.0846 0.1335 -1.0177 -0.094 0.990 0.107 90 72 46 0 0
0.0848 0.1339 -1.0222 -0.055 0.974 0.221 80 64 41 0 0
0.0844 0.1322 -1.0275 0.768 0.418 0.485 98 84 65 0 0
0.0709 0.0815 -1.1325 -0.851 0.378 0.364 189 191 190 0 0
0.0915 0.1371 -1.2814 0.470 0.724 0.505 37 32 13 0 0
0.0917 0.1356 -1.3123 0.575 0.731 0.368 59 42 23 0 0
0.0924 0.1374 -1.3165 0.476 0.555 0.682 53 37 18 0 0
0.1155 0.2059 -1.3994 0.464 0.623 0.629 95 78 53 0 0
0.1585 0.3167 -1.7896 0.301 0.780 0.549 81 62 36 0 0
0.1656 0.3332 -1.8788 -0.036 0.945 0.326 77 56 29 0 0
0.1688 0.3414 -1.9069 0.519 0.754 0.403 70 48 25 0 0
0.1693 0.3427 -1.9116 0.142 0.920 0.364 67 45 22 0 0
0.1699 0.3444 -1.9160 0.142 0.920 0.364 69 47 24 0 0
0.1725 0.3511 -1.9396 0.399 0.855 0.332 65 43 22 0 0
0.1724 0.3498 -1.9520 0.346 0.655 0.672 64 42 21 0 0
0.1818 0.3762 -2.0068 0.489 0.832 0.263 56 38 17 0 0
0.1903 0.3998 -2.0580 0.404 0.810 0.426 55 37 17 0 0
0.2224 0.4901 -2.2421 0.249 0.869 0.428 73 64 47 0 0
0.0608 0.0505 -0.8975 -0.104 0.011 0.994 175 176 176 0 0
0.0772 0.1037 -0.8945 0.491 0.332 0.805 126 108 85 0 0
0.0871 0.1347 -0.9071 -0.112 0.836 0.537 194 168 121 0 0
0.0897 0.1354 -1.0118 -0.172 0.985 -0.017 87 72 43 0 0
0.0896 0.1349 -1.0167 -0.126 0.989 -0.081 84 69 40 0 0
0.0897 0.1349 -1.0213 -0.104 0.990 0.100 78 62 37 0 0
0.0883 0.1299 -1.0278 0.589 0.686 0.426 87 71 48 0 0
0.0890 0.1318 -1.0318 0.608 0.717 0.341 87 71 51 0 0
0.0896 0.1333 -1.0359 0.773 0.456 0.441 97 83 64 0 0
0.0986 0.1520 -1.1806 0.218 0.851 0.478 86 66 32 0 0
0.1038 0.1663 -1.2133 0.409 0.826 0.388 80 56 25 0 0
0.1069 0.1649 -1.3684 0.216 0.765 0.607 106 83 54 0 0
0.1195 0.2034 -1.3999 0.464 0.623 0.629 105 84 56 0 0
0.1202 0.2052 -1.4040 0.488 0.643 0.591 149 126 87 0 0
0.1358 0.2508 -1.4719 0.008 0.937 0.350 82 59 28 0 0
0.1558 0.3058 -1.6012 -0.036 0.391 0.919 143 119 81 0 0
0.1725 0.3583 -1.6210 0.538 0.698 0.473 123 99 64 0 0
0.1620 0.3191 -1.6941 0.431 0.656 -0.620 72 60 39 0 0
0.1706 0.3332 -1.8776 0.006 0.912 0.411 74 53 26 0 0
0.1774 0.3504 -1.9447 0.651 0.714 0.259 66 44 23 0 0
0.1760 0.3447 -1.9605 0.201 0.926 0.319 68 46 24 0 0
0.1823 0.3620 -2.0051 0.297 0.827 0.477 57 36 15 0 0
0.1958 0.4001 -2.0800 0.206 0.606 0.768 46 29 13 0 0
0.2029 0.4198 -2.1227 0.158 0.929 0.335 58 41 21 0 0
0.2041 0.4230 -2.1318 0.360 0.886 0.293 63 42 23 0 0
0.2112 0.4438 -2.1616 0.158 0.833 0.531 70 52 30 0 0
0.2187 0.4650 -2.2030 0.113 0.787 0.607 62 43 26 0 0
0.0910 0.1333 -0.8981 0.068 0.907 0.415 140 114 84 0 0
0.0922 0.1364 -0.9061 -0.097 0.961 0.260 217 190 142 0 0
0.0925 0.1369 -0.9149 -0.194 0.952 0.237 128 104 66 0 0
0.0923 0.1358 -0.9198 -0.117 0.962 0.247 109 87 52 0 0
0.0930 0.1380 -0.9236 0.246 0.858 0.452 95 76 43 0 0
0.0937 0.1398 -0.9275 0.246 0.858 0.452 93 74 42 0 0
0.0938 0.1326 -1.0262 0.031 0.997 0.077 84 67 40 0 0
0.0940 0.1330 -1.0308 0.031 0.997 0.077 80 64 38 0 0
0.0927 0.1284 -1.0371 0.694 0.603 0.394 81 65 38 0 0
0.0934 0.1302 -1.0411 0.694 0.603 0.394 86 69 40 0 0
0.1028 0.1503 -1.1807 0.314 0.848 0.426 83 63 29 0 0
0.1035 0.1522 -1.1847 0.323 0.815 0.480 83 63 30 0 0
0.1043 0.1544 -1.1886 0.236 0.766 0.598 74 52 18 0 0
0.1052 0.1571 -1.1923 0.236 0.766 0.598 80 57 26 0 0
0.1060 0.1594 -1.1962 0.285 0.927 0.246 79 56 26 0 0
0.1072 0.1619 -1.2146 0.442 0.826 0.350 77 52 20 0 0
0.0990 0.1297 -1.2884 0.736 0.674 0.065 33 24 4 0 0
0.0986 0.1263 -1.3152 0.389 0.469 0.793 49 33 16 0 0
0.0999 0.1304 -1.3183 0.389 0.469 0.793 44 28 11 0 0
0.1207 0.1923 -1.3895 0.049 0.706 0.706 166 139 103 0 0
0.1245 0.2038 -1.4040 0.464 0.623 0.629 80 59 32 0 0
0.1395 0.2476 -1.4676 0.304 0.748 0.590 65 40 15 0 0
0.1404 0.2502 -1.4713 0.198 0.936 0.291 82 58 30 0 0
0.1407 0.2507 -1.4762 -0.070 0.947 0.313 73 50 22 0 0
0.1607 0.3062 -1.6000 0.641 0.369 0.674 148 121 81 0 0
0.1630 0.3137 -1.6007 0.454 0.183 0.872 140 115 79 0 0
0.1702 0.3192 -1.8359 0.075 0.985 0.156 77 56 28 0 0
0.1753 0.3309 -1.9009 0.569 0.728 0.383 74 52 28 0 0
0.1781 0.3392 -1.9119 0.283 0.813 0.509 68 46 22 0 0
0.1790 0.3417 -1.9157 0.113 0.898 0.424 66 44 21 0 0
0.1806 0.3445 -1.9479 0.251 0.956 0.151 66 44 21 0 0
0.1861 0.3579 -2.0071 0.484 0.761 0.431 59 37 16 0 0
0.1916 0.3737 -2.0355 0.647 0.644 0.409 74 56 29 0 0
0.1977 0.3909 -2.0685 0.128 0.975 0.184 46 28 9 0 0
0.2138 0.4366 -2.1546 0.073 0.715 0.696 66 45 24 0 0
0.2152 0.4404 -2.1633 0.247 0.853 0.460 72 53 28 0 0
0.2256 0.4699 -2.2213 0.297 0.680 0.671 63 46 28 0 0
0.2328 0.4904 -2.2572 0.001 0.955 0.297 68 59 42 0 0
0.0960 0.1345 -0.9017 0.462 0.885 0.057 177 153 113 0 0
0.0972 0.1367 -0.9235 0.383 0.842 0.381 93 73 40 0 0
0.0980 0.1389 -0.9273 0.564 0.741 0.365 96 77 44 0 0
0.0992 0.1422 -0.9352 0.382 0.767 0.516 97 78 45 0 0
0.0995 0.1350 -1.0388 -0.205 0.975 -0.089 80 63 34 0 0
0.1083 0.1526 -1.1839 0.147 0.928 0.341 79 59 26 0 0
0.1088 0.1537 -1.1883 0.170 0.850 0.498 80 59 27 0 0
0.1095 0.1559 -1.1922 0.170 0.850 0.498 71 48 21 0 0
0.1102 0.1576 -1.1963 0.275 0.899 0.342 54 31 7 0 0
0.1116 0.1608 -1.2144 0.181 0.939 0.291 84 61 28 0 0
0.1121 0.1622 -1.2186 0.158 0.908 0.389 109 87 53 0 0
0.1029 0.1268 -1.2890 0.364 0.919 0.151 35 27 6 0 0
0.1135 0.1554 -1.3613 0.254 0.798 0.547 120 97 68 0 0
0.1294 0.2042 -1.4029 0.094 0.911 0.402 96 74 47 0 0
0.1302 0.2064 -1.4069 0.175 0.886 0.429 54 35 16 0 0
0.1303 0.2063 -1.4121 0.429 0.776 0.462 119 101 67 0 0
0.1363 0.2237 -1.4387 0.258 0.918 0.301 82 61 30 0 0
0.1397 0.2339 -1.4486 0.091 0.943 0.319 71 50 24 0 0
0.1448 0.2490 -1.4712 0.246 0.903 0.354 79 55 28 0 0
0.1466 0.2520 -1.5056 0.169 0.901 0.399 69 42 18 0 0
0.1472 0.2538 -1.5098 0.169 0.901 0.399 67 43 22 0 0
0.1488 0.2584 -1.5176 -0.118 0.570 0.813 62 40 16 0 0
0.1644 0.3027 -1.6013 0.610 0.375 0.698 147 119 79 0 0
0.1663 0.3087 -1.6028 0.450 0.210 0.868 165 141 104 0 0
0.1724 0.3216 -1.6904 0.328 0.688 -0.647 68 52 35 0 0
0.1698 0.3091 -1.7421 0.536 0.761 0.364 82 60 25 0 0
0.1704 0.3108 -1.7464 0.536 0.761 0.364 90 67 33 0 0
0.1797 0.3291 -1.9010 0.458 0.653 0.602 73 51 27 0 0
0.1815 0.3340 -1.9146 0.615 0.757 0.222 68 46 22 0 0
0.1822 0.3359 -1.9188 0.567 0.689 0.450 68 46 22 0 0
0.1996 0.3819 -2.0569 0.426 0.587 0.688 59 38 13 0 0
0.2024 0.3902 -2.0678 0.128 0.975 0.184 49 34 13 0 0
0.2117 0.4162 -2.1231 0.494 0.806 0.326 60 42 22 0 0
0.2193 0.4382 -2.1578 0.046 0.814 0.580 73 53 28 0 0
0.2197 0.4388 -2.1633 0.280 0.759 0.587 73 53 28 0 0
0.2206 0.4415 -2.1669 0.300 0.638 0.709 65 44 22 0 0
0.2221 0.4455 -2.1815 0.361 0.883 0.300 71 54 31 0 0
0.2320 0.4750 -2.2153 0.512 0.809 0.288 61 44 26 0 0
0.2328 0.4772 -2.2193 0.353 0.869 0.348 65 48 30 0 0
0.2336 0.4792 -2.2296 0.188 0.650 0.736 72 61 42 0 0
0.2351 0.4834 -2.2378 0.490 0.724 0.486 54 42 25 0 0
0.0793 0.0654 -0.8960 -0.074 0.022 0.997 168 161 154 0 0
0.1008 0.1353 -0.9010 0.464 0.876 0.132 163 140 104 0 0
0.1008 0.1349 -0.9056 0.434 0.893 0.121 204 179 135 0 0
0.1020 0.1367 -0.9320 0.143 0.970 0.196 105 85 52 0 0
0.1037 0.1416 -0.9395 0.310 0.676 0.669 96 76 42 0 0
0.1049 0.1452 -0.9427 0.301 0.931 0.207 96 76 43 0 0
0.1139 0.1548 -1.1920 0.313 0.854 0.416 70 49 22 0 0
0.1196 0.1595 -1.3637 0.300 0.594 0.746 99 74 41 0 0
0.1203 0.1615 -1.3677 0.306 0.826 0.474 127 102 74 0 0
0.1284 0.1862 -1.3910 0.146 0.697 0.702 184 157 123 0 0
0.1338 0.2023 -1.4082 0.460 0.638 0.618 81 61 42 0 0
0.1344 0.2042 -1.4124 0.429 0.776 0.462 149 131 99 0 0
0.1442 0.2333 -1.4481 0.091 0.943 0.319 81 59 31 0 0
0.1499 0.2498 -1.4750 0.219 0.917 0.334 85 62 31 0 0
0.1505 0.2490 -1.5064 0.555 0.809 0.193 65 42 19 0 0
0.1533 0.2578 -1.5118 0.425 0.564 0.708 65 43 20 0 0
0.1537 0.2589 -1.5164 -0.011 0.693 0.720 62 40 16 0 0
0.1693 0.3032 -1.6000 0.283 0.676 0.680 150 122 83 0 0
0.1745 0.3071 -1.7643 0.265 0.936 0.231 89 68 37 0 0
0.1750 0.3081 -1.7691 0.265 0.936 0.231 54 33 14 0 0
0.1754 0.3092 -1.7739 0.265 0.936 0.231 62 39 23 0 0
0.1759 0.3102 -1.7787 0.265 0.936 0.231 85 60 36 0 0
0.1875 0.3371 -1.9168 0.348 0.905 0.246 68 46 22 0 0
0.1912 0.3477 -1.9374 0.212 0.773 0.598 67 45 22 0 0
0.1947 0.3547 -1.9897 0.335 0.921 0.201 66 44 23 0 0
0.2082 0.3927 -2.0704 0.298 0.900 0.318 53 34 13 0 0
0.2086 0.3933 -2.0758 0.288 0.897 0.336 51 32 13 0 0
0.2107 0.3988 -2.0949 0.241 0.948 0.206 76 56 25 0 0
0.2233 0.4354 -2.1529 0.051 0.953 0.299 70 49 26 0 0
0.2241 0.4370 -2.1635 0.006 0.867 0.498 73 53 27 0 0
0.2353 0.4700 -2.2124 0.347 0.745 0.570 62 43 26 0 0
0.2361 0.4721 -2.2165 0.512 0.805 0.299 61 44 26 0 0
0.2370 0.4743 -2.2266 0.219 0.587 0.779 66 51 31 0 0
0.2381 0.4776 -2.2296 0.253 0.608 0.753 67 56 36 0 0
0.2392 0.4811 -2.2325 0.234 0.635 0.736 73 60 42 0 0
0.2402 0.4839 -2.2359 0.272 0.879 0.391 57 45 28 0 0
0.2408 0.4857 -2.2404 0.272 0.879 0.391 43 32 16 0 0
0.2414 0.4871 -2.2451 0.151 0.901 0.407 46 37 20 0 0
0.1042 0.1314 -0.9018 0.655 0.677 0.335 155 130 96 0 0
0.1109 0.1496 -0.9498 0.223 0.858 0.462 69 52 27 0 0
0.1112 0.1501 -0.9542 0.039 0.989 0.145 65 49 24 0 0
0.1179 0.1556 -1.1524 0.103 0.994 -0.022 80 61 26 0 0
0.1238 0.1575 -1.3638 0.378 0.599 0.707 96 70 38 0 0
0.1247 0.1602 -1.3676 0.339 0.836 0.431 112 85 57 0 0
0.1257 0.1633 -1.3712 0.430 0.780 0.455 150 123 92 0 0
0.1471 0.2276 -1.4401 0.189 0.758 0.624 66 44 22 0 0
0.1528 0.2428 -1.4832 0.542 0.710 0.450 103 78 42 0 0
0.1538 0.2441 -1.5083 0.660 0.737 0.143 60 38 17 0 0
0.1567 0.2526 -1.5191 0.317 0.675 0.666 61 39 16 0 0
0.1603 0.2617 -1.5556 0.324 0.675 0.663 73 48 18 0 0
0.1928 0.3621 -1.6306 0.412 0.756 0.509 85 65 33 0 0
0.1788 0.3054 -1.7589 0.478 0.877 0.048 111 87 54 0 0
0.1787 0.3047 -1.7649 0.483 0.807 0.339 88 67 39 0 0
0.1810 0.3091 -1.8006 0.361 0.920 -0.151 103 79 48 0 0
0.1925 0.3377 -1.9152 0.408 0.749 0.522 69 48 23 0 0
0.1992 0.3534 -1.9895 0.279 0.902 0.330 67 45 24 0 0
0.2059 0.3727 -2.0208 0.263 0.564 0.783 64 41 22 0 0
0.2098 0.3831 -2.0534 0.082 0.989 0.125 67 45 20 0 0
0.2133 0.3925 -2.0751 0.176 0.953 0.248 62 39 19 0 0
0.2151 0.3986 -2.0760 0.094 0.967 0.238 62 37 19 0 0
0.2166 0.3995 -2.1226 0.578 0.723 0.379 85 65 34 0 0
0.2234 0.4210 -2.1341 0.199 0.889 0.412 66 45 23 0 0
0.2250 0.4250 -2.1486 0.278 0.946 0.169 68 46 25 0 0
0.2254 0.4259 -2.1538 0.278 0.946 0.169 66 44 23 0 0
0.2279 0.4343 -2.1525 0.209 0.914 0.348 73 51 28 0 0
0.2419 0.4741 -2.2253 0.577 0.749 0.326 65 49 29 0 0
0.2423 0.4750 -2.2305 0.242 0.651 0.719 63 50 29 0 0
0.2433 0.4781 -2.2337 0.208 0.692 0.692 61 48 29 0 0
0.2442 0.4808 -2.2373 0.358 0.630 0.689 63 51 34 0 0
0.2454 0.4846 -2.2399 0.274 0.922 0.273 52 41 24 0 0
0.2460 0.4860 -2.2447 0.272 0.879 0.391 51 42 25 0 0
0.2465 0.4866 -2.2563 0.235 0.937 0.257 74 65 48 0 0
0.1212 0.1522 -1.1389 0.362 0.813 0.457 74 55 25 0 0
0.1233 0.1547 -1.1907 0.106 0.939 0.326 79 62 29 0 0
0.1238 0.1561 -1.1950 0.106 0.939 0.326 84 66 35 0 0
0.1245 0.1579 -1.1990 -0.056 0.979 0.197 74 57 28 0 0
0.1139 0.1118 -1.3292 0.101 0.621 0.777 108 88 50 0 0
0.1280 0.1553 -1.3642 0.378 0.599 0.707 87 61 28 0 0
0.1290 0.1585 -1.3677 0.339 0.836 0.431 111 86 53 0 0
0.1297 0.1604 -1.3718 0.339 0.836 0.431 122 93 60 0 0
0.1366 0.1814 -1.3918 0.366 0.650 0.666 171 142 103 0 0
0.1378 0.1851 -1.3951 0.483 0.630 0.608 166 138 95 0 0
0.1579 0.2435 -1.4871 0.251 0.507 0.825 153 124 78 0 0
0.1612 0.2537 -1.4969 0.201 0.461 0.865 99 76 49 0 0
0.1592 0.2462 -1.5063 0.519 0.853 0.053 61 39 18 0 0
0.1592 0.2457 -1.5117 0.413 0.910 0.031 63 41 18 0 0
0.1596 0.2464 -1.5217 0.188 0.944 0.272 63 43 19 0 0
0.1774 0.2982 -1.6012 0.055 0.475 0.878 152 125 81 0 0
0.1955 0.3563 -1.6228 0.347 0.862 0.369 91 67 36 0 0
0.1803 0.2981 -1.7136 0.296 0.948 0.115 75 58 38 0 0
0.1851 0.3080 -1.7836 0.464 0.852 0.244 85 64 35 0 0
0.1846 0.3049 -1.8024 0.674 0.736 0.053 103 82 50 0 0
0.1867 0.3107 -1.8151 0.539 0.673 0.507 75 54 26 0 0
0.1961 0.3335 -1.9114 0.212 0.907 0.365 69 49 24 0 0
0.1969 0.3357 -1.9155 0.306 0.816 0.490 69 49 24 0 0
0.2041 0.3529 -1.9944 0.217 0.883 0.417 66 44 23 0 0
0.2098 0.3690 -2.0225 0.353 0.935 0.026 65 43 21 0 0
0.2110 0.3718 -2.0378 -0.189 0.721 0.666 112 88 52 0 0
0.2139 0.3804 -2.0484 -0.007 0.732 0.681 77 54 29 0 0
0.2147 0.3828 -2.0523 0.305 0.943 0.130 69 47 23 0 0
0.2217 0.3995 -2.1272 0.158 0.885 0.437 69 51 27 0 0
0.2441 0.4657 -2.2195 0.377 0.867 0.325 61 43 23 0 0
0.2453 0.4695 -2.2220 0.593 0.765 0.251 63 45 27 0 0
0.2461 0.4715 -2.2262 0.661 0.699 0.273 63 48 27 0 0
0.2477 0.4763 -2.2340 0.261 0.685 0.680 59 46 27 0 0
0.2486 0.4790 -2.2376 0.266 0.648 0.713 57 46 29 0 0
0.2498 0.4826 -2.2403 0.282 0.938 0.203 57 49 30 0 0
0.2504 0.4841 -2.2449 0.312 0.932 0.183 56 47 30 0 0
0.2505 0.4839 -2.2512 0.464 0.870 0.166 57 48 31 0 0
0.1180 0.1443 -0.9325 0.060 0.828 0.557 101 78 44 0 0
0.1189 0.1459 -0.9500 0.059 0.973 0.222 79 61 34 0 0
0.1280 0.1569 -1.1650 0.127 0.992 0.028 71 52 20 0 0
0.1269 0.1529 -1.1715 0.175 0.985 -0.004 73 57 23 0 0
0.1286 0.1576 -1.1792 0.094 0.994 0.057 81 60 30 0 0
0.1276 0.1533 -1.1907 -0.020 0.971 0.240 101 81 48 0 0
0.1286 0.1563 -1.1942 -0.114 0.939 0.324 94 75 41 0 0
0.1289 0.1572 -1.1987 0.015 0.989 0.149 80 60 26 0 0
0.1192 0.1131 -1.3329 0.174 0.552 0.815 132 106 61 0 0
0.1575 0.2299 -1.4474 0.006 0.915 0.403 75 54 30 0 0
0.1654 0.2508 -1.5080 0.387 0.776 0.498 60 42 17 0 0
0.1678 0.2545 -1.5580 -0.161 0.930 0.330 75 49 20 0 0
0.1988 0.3519 -1.6193 -0.078 0.787 0.612 156 130 97 0 0
0.1874 0.3020 -1.7536 0.044 0.998 0.035 102 79 44 0 0
0.1867 0.2971 -1.7845 0.645 0.549 0.531 86 65 38 0 0
0.1885 0.3014 -1.8037 0.674 0.736 0.053 103 82 50 0 0
0.1889 0.3023 -1.8087 0.681 0.717 0.151 88 67 38 0 0
0.1897 0.3046 -1.8127 0.641 0.743 0.191 72 51 24 0 0
0.1901 0.3055 -1.8176 0.641 0.743 0.191 77 56 28 0 0
0.1935 0.3131 -1.8571 0.247 0.793 0.557 67 45 24 0 0
0.1945 0.3161 -1.8606 0.418 0.869 0.267 63 41 20 0 0
0.1957 0.3193 -1.8696 0.214 0.939 0.269 63 41 20 0 0
