ply
format ascii 1.0
element vertex 838
property float x
property float y
property float z
property float nx
property float ny
property float nz
property uchar diffuse_red
property uchar diffuse_green
property uchar diffuse_blue
property uchar class
property uchar detection
end_header
-0.3789 -0.0542 -1.9705 -0.831 -0.346 0.436 59 38 14 0 0
-0.3809 -0.0548 -1.9747 -0.831 -0.346 0.436 62 40 17 0 0
-0.3845 -0.0560 -1.9777 -0.894 -0.297 0.336 63 42 19 0 0
-0.4018 -0.0613 -2.0106 -0.749 -0.567 0.344 93 74 45 0 0
-0.4055 -0.0623 -2.0253 -1.000 -0.012 -0.027 119 93 49 0 0
-0.4224 -0.0671 -2.0823 -0.664 -0.122 0.738 74 56 25 0 0
-0.4304 -0.0695 -2.0993 -0.900 -0.056 0.432 167 139 104 0 0
-0.4572 -0.0781 -2.1239 -0.767 -0.545 0.339 84 60 22 0 0
-0.5217 -0.0984 -2.2159 -0.744 -0.405 0.531 85 67 26 0 0
-0.5255 -0.0994 -2.2367 -0.963 -0.086 0.255 85 68 25 0 0
-0.5282 -0.1002 -2.2403 -0.927 -0.126 0.352 88 71 27 0 0
-0.5466 -0.1057 -2.2839 -0.689 -0.718 -0.092 200 203 204 0 0
-0.1174 0.0218 -0.9338 -0.649 -0.572 0.502 156 134 95 0 0
-0.1333 0.0169 -0.9607 -0.822 -0.473 0.316 146 119 70 0 0
-0.1578 0.0095 -1.0123 -0.869 -0.461 0.182 68 47 22 0 0
-0.1635 0.0079 -1.0383 -0.855 -0.320 0.409 62 46 20 0 0
-0.1685 0.0066 -1.0599 -0.826 -0.514 0.233 78 62 38 0 0
-0.1696 0.0063 -1.0643 -0.826 -0.514 0.233 78 63 38 0 0
-0.1675 0.0078 -1.1128 -0.596 -0.786 0.162 48 36 18 0 0
-0.1633 0.0109 -1.2073 -0.710 -0.695 0.116 68 52 28 0 0
-0.1388 0.0209 -1.3093 -0.657 -0.651 0.380 68 53 33 0 0
-0.1321 0.0237 -1.3383 -0.944 -0.137 0.301 65 49 34 0 0
-0.1337 0.0232 -1.3426 -0.851 -0.191 0.489 37 25 16 0 0
-0.1350 0.0228 -1.3472 -0.824 -0.251 0.508 43 32 22 0 0
-0.1426 0.0205 -1.3589 -0.823 -0.223 0.523 89 68 37 0 0
-0.1450 0.0197 -1.3629 -0.823 -0.223 0.523 128 103 61 0 0
-0.2352 -0.0089 -1.4766 -0.481 -0.527 0.700 66 47 14 0 0
-0.2495 -0.0131 -1.5158 -0.946 -0.206 0.252 65 43 20 0 0
-0.2601 -0.0162 -1.5467 -0.834 0.200 0.514 62 43 17 0 0
-0.2675 -0.0185 -1.5582 -0.882 -0.297 0.366 57 39 17 0 0
-0.2980 -0.0284 -1.5822 -0.894 -0.277 0.351 96 74 43 0 0
-0.3016 -0.0293 -1.6013 -0.916 0.396 -0.058 113 90 52 0 0
-0.3341 -0.0401 -1.6128 -0.617 -0.161 0.770 171 152 117 0 0
-0.3359 -0.0407 -1.6170 -0.904 -0.260 0.339 142 126 100 0 0
-0.3390 -0.0417 -1.6204 -0.889 -0.053 0.456 136 124 103 0 0
-0.3414 -0.0424 -1.6242 -0.968 0.084 0.235 145 132 114 0 0
-0.3419 -0.0425 -1.6292 -0.993 0.057 -0.102 134 121 101 0 0
-0.3136 -0.0313 -1.7241 -0.899 -0.290 0.326 107 83 45 0 0
-0.3151 -0.0317 -1.7287 -0.899 -0.290 0.326 100 76 39 0 0
-0.3387 -0.0380 -1.8296 -0.940 0.112 0.321 75 51 25 0 0
-0.3381 -0.0376 -1.8414 -0.940 -0.258 0.223 75 51 24 0 0
-0.3452 -0.0400 -1.8419 -0.900 -0.402 0.168 75 51 25 0 0
-0.3360 -0.0366 -1.8601 -0.956 -0.090 0.279 77 53 25 0 0
-0.3380 -0.0372 -1.8643 -0.810 -0.018 0.586 75 51 25 0 0
-0.3421 -0.0384 -1.8727 -0.774 0.019 0.633 72 50 26 0 0
-0.3452 -0.0394 -1.8761 -0.921 -0.209 0.330 73 51 27 0 0
-0.3505 -0.0407 -1.9066 -0.857 -0.234 0.459 65 41 17 0 0
-0.3559 -0.0422 -1.9256 -0.684 -0.567 0.460 64 42 18 0 0
-0.3594 -0.0433 -1.9287 -0.721 -0.251 0.646 66 44 20 0 0
-0.3784 -0.0491 -1.9662 -0.788 -0.147 0.597 61 40 18 0 0
-0.4060 -0.0573 -2.0378 -0.945 0.002 0.327 86 64 31 0 0
-0.4048 -0.0568 -2.0447 -0.984 -0.177 -0.023 92 67 35 0 0
-0.4219 -0.0625 -2.0482 -0.712 -0.564 0.417 74 50 24 0 0
-0.4270 -0.0635 -2.0915 -0.900 -0.056 0.432 147 119 72 0 0
-0.4289 -0.0640 -2.0959 -0.980 -0.095 0.176 153 125 84 0 0
-0.4600 -0.0734 -2.1649 -0.580 -0.478 0.659 83 61 24 0 0
-0.5207 -0.0932 -2.2122 -0.754 -0.130 0.644 103 84 43 0 0
-0.5241 -0.0943 -2.2150 -0.898 -0.060 0.435 90 72 31 0 0
-0.5276 -0.0951 -2.2361 -0.904 -0.267 0.335 81 64 21 0 0
-0.5292 -0.0956 -2.2407 -0.904 -0.267 0.335 86 69 26 0 0
-0.1311 0.0220 -0.9433 -0.828 -0.318 0.461 191 169 134 0 0
-0.1330 0.0214 -0.9473 -0.828 -0.318 0.461 164 140 108 0 0
-0.1342 0.0211 -0.9515 -0.892 -0.336 0.303 159 134 100 0 0
-0.1361 0.0205 -0.9555 -0.757 -0.510 0.407 139 114 74 0 0
-0.1649 0.0122 -1.0382 -0.834 -0.402 0.377 66 50 24 0 0
-0.1704 0.0105 -1.0502 -0.754 -0.572 0.323 49 32 12 0 0
-0.1716 0.0117 -1.1406 -0.945 -0.320 0.070 62 46 25 0 0
-0.1697 0.0124 -1.1462 -0.577 -0.265 0.772 69 53 30 0 0
-0.1516 0.0200 -1.2281 -0.981 0.048 0.190 52 38 23 0 0
-0.1453 0.0229 -1.2712 -0.993 -0.095 -0.066 74 59 39 0 0
-0.1420 0.0247 -1.3084 -0.657 -0.651 0.380 62 47 27 0 0
-0.1399 0.0255 -1.3145 -0.619 -0.738 0.267 62 47 27 0 0
-0.1366 0.0272 -1.3471 -0.875 -0.259 0.410 39 25 17 0 0
-0.1368 0.0273 -1.3521 -0.829 -0.085 0.553 65 49 36 0 0
-0.1609 0.0196 -1.3815 -0.727 -0.271 0.631 162 133 92 0 0
-0.2556 -0.0100 -1.5289 -0.817 -0.426 -0.390 65 44 17 0 0
-0.2563 -0.0102 -1.5338 -0.832 -0.548 0.082 73 46 16 0 0
-0.2568 -0.0103 -1.5388 -0.832 -0.548 0.082 128 99 48 0 0
-0.2601 -0.0112 -1.5475 -0.480 -0.609 0.631 50 32 8 0 0
-0.2712 -0.0144 -1.5835 -0.894 -0.301 0.333 54 41 24 0 0
-0.3354 -0.0357 -1.6129 -0.617 -0.161 0.770 152 135 105 0 0
-0.3374 -0.0363 -1.6169 -0.924 -0.014 0.383 141 125 101 0 0
-0.3399 -0.0371 -1.6207 -0.859 0.103 0.501 131 117 95 0 0
-0.3162 -0.0273 -1.7178 -0.919 -0.358 0.166 108 84 46 0 0
-0.3249 -0.0289 -1.7954 -0.949 -0.041 0.313 58 40 18 0 0
-0.3369 -0.0326 -1.8207 -0.718 -0.105 0.688 82 58 28 0 0
-0.3391 -0.0333 -1.8247 -0.970 -0.183 0.162 78 54 26 0 0
-0.3417 -0.0340 -1.8341 -0.949 -0.111 0.295 75 51 24 0 0
-0.3418 -0.0334 -1.8682 -0.858 -0.164 0.486 75 53 29 0 0
-0.3446 -0.0343 -1.8719 -0.808 -0.102 0.580 74 52 28 0 0
-0.3459 -0.0343 -1.8996 -0.645 -0.330 0.689 70 46 22 0 0
-0.3490 -0.0353 -1.9030 -0.903 -0.356 0.241 72 48 24 0 0
-0.3505 -0.0357 -1.9077 -0.896 -0.315 0.313 66 42 18 0 0
-0.4059 -0.0523 -2.0332 -0.997 -0.072 -0.031 104 81 49 0 0
-0.4071 -0.0526 -2.0381 -0.934 -0.177 0.309 90 68 36 0 0
-0.4055 -0.0518 -2.0513 -0.923 -0.375 0.083 73 49 22 0 0
-0.4161 -0.0554 -2.0543 -0.731 -0.682 -0.042 74 50 24 0 0
-0.5216 -0.0885 -2.2127 -0.722 -0.266 0.639 99 80 40 0 0
-0.5251 -0.0896 -2.2155 -0.955 -0.184 0.233 94 76 35 0 0
-0.5309 -0.0912 -2.2405 -0.934 -0.283 0.218 87 70 27 0 0
-0.5401 -0.0943 -2.2438 -0.920 -0.372 0.124 88 74 32 0 0
-0.5408 -0.0944 -2.2493 -0.920 -0.372 0.124 93 79 45 0 0
-0.0640 0.0490 -0.9107 -0.363 -0.262 0.894 141 117 85 0 0
-0.1207 0.0301 -0.9335 -0.743 -0.396 0.540 152 133 84 0 0
-0.1299 0.0271 -0.9442 -0.747 -0.340 0.572 167 145 105 0 0
-0.1325 0.0263 -0.9479 -0.620 -0.410 0.669 201 179 137 0 0
-0.1349 0.0255 -0.9517 -0.747 -0.340 0.572 171 147 103 0 0
-0.1666 0.0163 -1.0381 -0.839 -0.316 0.442 65 49 24 0 0
-0.1731 0.0153 -1.1067 -0.685 -0.650 0.329 57 42 25 0 0
-0.1752 0.0148 -1.1155 -0.759 -0.648 0.058 45 33 14 0 0
-0.1673 0.0180 -1.1478 -0.764 -0.403 0.504 73 56 34 0 0
-0.1680 0.0182 -1.1670 -0.756 -0.579 -0.305 76 60 34 0 0
-0.1541 0.0240 -1.2275 -0.996 0.065 -0.067 50 36 22 0 0
-0.1414 0.0297 -1.2991 -0.893 -0.424 -0.152 52 35 20 0 0
-0.1427 0.0294 -1.3087 -0.792 -0.526 0.309 54 39 23 0 0
-0.2106 0.0084 -1.4289 -0.716 -0.291 0.635 112 91 51 0 0
-0.2339 0.0009 -1.4578 -0.657 0.019 0.753 108 82 44 0 0
-0.2504 -0.0037 -1.5115 -0.946 -0.206 0.252 58 36 14 0 0
-0.2588 -0.0065 -1.5172 -0.764 -0.542 0.350 66 44 23 0 0
-0.2590 -0.0063 -1.5277 -0.865 -0.353 -0.356 64 43 15 0 0
-0.2589 -0.0062 -1.5330 -0.832 -0.548 0.082 83 56 22 0 0
-0.2595 -0.0063 -1.5380 -0.873 -0.470 0.130 142 111 66 0 0
-0.2606 -0.0066 -1.5427 -0.742 -0.511 0.434 124 96 60 0 0
-0.2637 -0.0076 -1.5461 -0.492 -0.644 0.586 40 23 3 0 0
-0.2736 -0.0103 -1.5829 -0.818 -0.436 0.376 66 53 36 0 0
-0.2971 -0.0179 -1.6059 -0.975 -0.050 0.217 119 101 66 0 0
-0.3366 -0.0313 -1.6130 -0.495 -0.402 0.770 172 155 127 0 0
-0.3423 -0.0331 -1.6200 -0.534 -0.686 0.494 156 136 112 0 0
-0.3246 -0.0239 -1.7910 -0.914 -0.073 0.400 106 88 54 0 0
-0.3348 -0.0269 -1.8175 -0.880 -0.103 0.464 85 62 31 0 0
-0.3486 -0.0313 -1.8358 -0.917 -0.356 0.181 74 50 23 0 0
-0.3481 -0.0298 -1.9107 -0.462 -0.700 0.545 68 44 20 0 0
-0.3558 -0.0324 -1.9105 -0.812 -0.495 0.310 68 44 19 0 0
-0.3775 -0.0390 -1.9575 -0.796 -0.157 0.585 45 28 12 0 0
-0.3878 -0.0418 -1.9961 -0.791 -0.370 0.487 63 41 17 0 0
-0.3982 -0.0451 -2.0112 -0.809 -0.588 -0.010 70 48 18 0 0
-0.3998 -0.0454 -2.0217 -0.695 -0.247 0.675 81 64 37 0 0
-0.4327 -0.0552 -2.1011 -0.712 -0.156 0.685 140 113 75 0 0
-0.5231 -0.0841 -2.2126 -0.722 -0.266 0.639 101 83 41 0 0
-0.5425 -0.0900 -2.2490 -0.920 -0.372 0.124 92 78 44 0 0
-0.1291 0.0320 -0.9449 -0.855 -0.273 0.440 126 106 68 0 0
-0.1592 0.0226 -0.9898 -0.710 -0.484 0.511 107 89 41 0 0
-0.1763 0.0180 -1.0584 -0.776 -0.554 0.301 72 55 29 0 0
-0.1758 0.0183 -1.0633 -0.851 -0.486 0.200 62 44 20 0 0
-0.1756 0.0192 -1.1062 -0.731 -0.531 0.428 70 53 34 0 0
-0.1770 0.0188 -1.1104 -0.707 -0.580 0.405 71 55 32 0 0
-0.1812 0.0178 -1.1376 -0.671 -0.341 0.659 67 49 28 0 0
-0.1843 0.0168 -1.1411 -0.691 -0.271 0.670 73 55 32 0 0
-0.1874 0.0159 -1.1446 -0.691 -0.271 0.670 79 61 37 0 0
-0.1529 0.0293 -1.2287 -0.985 0.153 -0.084 51 38 25 0 0
-0.1398 0.0353 -1.3107 -0.832 0.159 0.531 51 39 26 0 0
-0.1407 0.0351 -1.3154 -0.941 0.065 0.332 43 32 19 0 0
-0.1394 0.0357 -1.3212 -0.992 0.036 0.120 47 36 22 0 0
-0.1480 0.0334 -1.3582 -0.910 -0.271 0.313 105 82 38 0 0
-0.2066 0.0145 -1.4213 -0.835 -0.159 0.528 107 82 51 0 0
-0.2093 0.0137 -1.4251 -0.945 -0.098 0.313 111 84 44 0 0
-0.2120 0.0128 -1.4288 -0.735 -0.350 0.581 138 113 72 0 0
-0.2217 0.0097 -1.4392 -0.862 -0.169 0.477 116 91 51 0 0
-0.2515 0.0008 -1.5117 -0.810 -0.407 0.423 60 39 18 0 0
-0.2534 0.0002 -1.5159 -0.810 -0.407 0.423 58 37 16 0 0
-0.2603 -0.0021 -1.5172 -0.686 -0.485 0.543 59 38 16 0 0
-0.3027 -0.0150 -1.6032 -0.697 0.352 0.625 114 92 62 0 0
-0.3367 -0.0226 -1.8172 -0.762 -0.350 0.544 84 61 32 0 0
-0.3415 -0.0233 -1.8649 -0.722 -0.374 0.582 74 53 26 0 0
-0.3664 -0.0305 -1.9382 -0.857 0.127 0.500 69 47 23 0 0
-0.3679 -0.0309 -1.9429 -0.879 -0.161 0.450 67 45 19 0 0
-0.3786 -0.0343 -1.9578 -0.796 -0.157 0.585 48 32 12 0 0
-0.3812 -0.0352 -1.9615 -0.796 -0.157 0.585 55 36 13 0 0
-0.3881 -0.0371 -1.9853 -0.872 -0.188 0.452 64 42 18 0 0
-0.4026 -0.0414 -2.0206 -0.762 -0.519 0.387 84 65 38 0 0
-0.4258 -0.0490 -2.0368 -0.354 -0.331 0.875 70 48 22 0 0
-0.4243 -0.0483 -2.0499 -0.813 -0.578 0.066 72 48 22 0 0
-0.4228 -0.0470 -2.0869 -0.771 -0.110 0.628 78 59 27 0 0
-0.4255 -0.0479 -2.0905 -0.771 -0.110 0.628 110 87 34 0 0
-0.4288 -0.0490 -2.0937 -0.781 -0.254 0.571 142 115 67 0 0
-0.4315 -0.0498 -2.0974 -0.726 -0.051 0.686 166 138 99 0 0
-0.4338 -0.0506 -2.1014 -0.677 -0.335 0.655 138 113 77 0 0
-0.4369 -0.0516 -2.1047 -0.653 -0.574 0.495 88 65 33 0 0
-0.4655 -0.0605 -2.1517 -0.639 -0.639 0.428 89 67 30 0 0
-0.4722 -0.0627 -2.1578 -0.826 -0.479 0.298 85 63 26 0 0
-0.5251 -0.0798 -2.2121 -0.883 -0.255 0.394 94 77 33 0 0
-0.0031 0.0793 -0.8982 -0.091 0.046 0.995 114 99 76 0 0
-0.1176 0.0402 -0.9169 -0.899 -0.115 0.423 167 142 111 0 0
-0.1243 0.0380 -0.9238 -0.753 -0.499 0.428 159 137 105 0 0
-0.1284 0.0369 -0.9409 -0.747 -0.377 0.547 96 71 40 0 0
-0.1303 0.0363 -0.9449 -0.795 -0.277 0.539 83 61 32 0 0
-0.1612 0.0266 -0.9895 -0.800 -0.442 0.406 91 71 37 0 0
-0.1831 0.0212 -1.0988 -0.804 -0.578 -0.139 55 39 19 0 0
-0.1819 0.0217 -1.1041 -0.847 -0.526 -0.071 70 54 31 0 0
-0.1818 0.0218 -1.1090 -0.854 -0.512 -0.087 73 56 32 0 0
-0.1834 0.0216 -1.1275 -0.907 -0.334 0.255 78 62 35 0 0
-0.1851 0.0211 -1.1316 -0.863 -0.284 0.419 73 56 31 0 0
-0.1848 0.0213 -1.1366 -0.739 -0.299 0.604 69 51 27 0 0
-0.1875 0.0205 -1.1403 -0.739 -0.299 0.604 80 63 37 0 0
-0.1901 0.0196 -1.1440 -0.739 -0.299 0.604 74 56 32 0 0
-0.1534 0.0338 -1.2191 -0.996 -0.003 -0.091 59 43 25 0 0
-0.1529 0.0340 -1.2243 -0.996 -0.003 -0.091 58 42 26 0 0
-0.1524 0.0343 -1.2295 -0.999 0.031 0.038 51 39 25 0 0
-0.1406 0.0401 -1.3161 -0.941 0.065 0.332 35 27 17 0 0
-0.1436 0.0399 -1.3560 -0.795 -0.088 0.600 119 90 37 0 0
-0.1493 0.0379 -1.3583 -0.910 -0.271 0.313 114 86 36 0 0
-0.2461 0.0072 -1.4944 -0.688 0.052 0.724 95 70 35 0 0
-0.2505 0.0060 -1.5078 -0.912 -0.245 0.329 68 46 23 0 0
-0.2525 0.0054 -1.5119 -0.946 -0.206 0.252 66 45 21 0 0
-0.2660 0.0015 -1.5517 -0.773 -0.070 0.630 49 31 15 0 0
-0.2781 -0.0023 -1.5711 -0.826 -0.518 0.223 36 21 8 0 0
-0.3014 -0.0097 -1.6049 -0.417 -0.178 0.891 111 91 61 0 0
-0.3425 -0.0234 -1.6270 -0.951 -0.143 0.274 127 107 81 0 0
-0.3698 -0.0327 -1.6306 -0.925 -0.127 0.358 92 66 34 0 0
-0.3212 -0.0142 -1.7228 -0.850 -0.126 0.511 105 81 47 0 0
-0.3155 -0.0116 -1.7545 -0.893 -0.104 0.439 89 71 43 0 0
-0.3194 -0.0129 -1.7573 -0.834 -0.010 0.551 49 32 12 0 0
-0.3196 -0.0127 -1.7684 -0.988 0.048 0.143 68 51 27 0 0
-0.3333 -0.0165 -1.8150 -0.899 -0.118 0.422 84 62 31 0 0
-0.3373 -0.0178 -1.8178 -0.770 -0.209 0.603 73 50 23 0 0
-0.3420 -0.0193 -1.8257 -0.806 -0.512 0.298 76 52 26 0 0
-0.3438 -0.0197 -1.8357 -0.804 -0.195 0.561 75 51 25 0 0
-0.3602 -0.0239 -1.9094 -0.852 -0.394 0.346 65 41 15 0 0
-0.3614 -0.0243 -1.9142 -0.853 -0.447 0.271 65 41 15 0 0
-0.3634 -0.0249 -1.9184 -0.901 -0.398 0.173 63 39 15 0 0
-0.3649 -0.0252 -1.9289 -0.902 -0.402 0.157 61 39 15 0 0
-0.3662 -0.0255 -1.9337 -0.904 -0.377 0.201 65 43 19 0 0
-0.3673 -0.0258 -1.9386 -0.882 -0.398 0.251 65 44 19 0 0
-0.3752 -0.0283 -1.9500 -0.871 -0.369 0.323 53 35 15 0 0
-0.3796 -0.0297 -1.9581 -0.851 -0.262 0.456 49 31 11 0 0
-0.3817 -0.0303 -1.9623 -0.851 -0.262 0.456 59 38 15 0 0
-0.3892 -0.0324 -1.9855 -0.872 -0.188 0.452 64 42 18 0 0
-0.4267 -0.0441 -2.0491 -0.804 -0.552 0.222 72 48 22 0 0
-0.4236 -0.0423 -2.0874 -0.630 -0.225 0.743 74 54 23 0 0
-0.4576 -0.0533 -2.1238 -0.882 -0.228 0.413 86 62 26 0 0
-0.5053 -0.0682 -2.2016 -0.715 -0.064 0.697 97 75 33 0 0
-0.5400 -0.0795 -2.2359 -0.648 -0.456 0.610 97 81 37 0 0
-0.5468 -0.0815 -2.2539 -0.893 -0.449 0.020 74 64 44 0 0
-0.0660 0.0625 -0.9065 -0.279 -0.359 0.890 129 110 81 0 0
-0.0724 0.0603 -0.9091 -0.438 -0.187 0.880 138 116 85 0 0
-0.1201 0.0441 -0.9210 -0.758 -0.051 0.650 141 119 92 0 0
-0.1247 0.0426 -0.9241 -0.706 -0.352 0.615 191 168 139 0 0
-0.1252 0.0425 -0.9285 -0.743 -0.309 0.594 174 150 119 0 0
-0.1281 0.0416 -0.9368 -0.611 -0.675 0.413 105 81 49 0 0
-0.1328 0.0402 -0.9444 -0.684 -0.614 0.395 128 102 72 0 0
-0.1344 0.0397 -0.9485 -0.660 -0.512 0.549 97 74 42 0 0
-0.1838 0.0257 -1.1039 -0.822 -0.567 -0.043 71 55 30 0 0
-0.1837 0.0259 -1.1087 -0.822 -0.567 -0.043 70 53 30 0 0
-0.1835 0.0260 -1.1136 -0.822 -0.567 -0.043 72 53 31 0 0
-0.1878 0.0248 -1.1262 -0.860 -0.359 0.364 79 61 37 0 0
-0.1878 0.0249 -1.1310 -0.769 -0.531 0.355 69 51 30 0 0
-0.1883 0.0248 -1.1356 -0.758 -0.539 0.367 67 49 29 0 0
-0.1900 0.0243 -1.1397 -0.758 -0.539 0.367 87 69 46 0 0
-0.1530 0.0388 -1.2198 -0.979 -0.113 -0.168 62 46 28 0 0
-0.1521 0.0392 -1.2252 -0.979 -0.113 -0.168 63 47 31 0 0
-0.1510 0.0398 -1.2357 -0.934 -0.282 0.218 43 34 19 0 0
-0.1540 0.0388 -1.2394 -0.779 -0.604 -0.169 43 33 18 0 0
-0.1525 0.0395 -1.2451 -0.604 -0.792 -0.085 46 32 19 0 0
-0.1415 0.0445 -1.3061 -0.981 -0.055 0.184 37 26 17 0 0
-0.1387 0.0456 -1.3126 -0.882 -0.033 0.470 42 32 23 0 0
-0.2320 0.0162 -1.4559 -0.919 -0.116 0.376 117 94 54 0 0
-0.2336 0.0158 -1.4602 -0.937 -0.164 0.308 103 79 36 0 0
-0.2350 0.0154 -1.4647 -0.937 -0.164 0.308 106 82 42 0 0
-0.2383 0.0145 -1.4786 -0.944 -0.315 0.098 61 39 9 0 0
-0.2388 0.0144 -1.4836 -0.944 -0.315 0.098 100 73 28 0 0
-0.2490 0.0112 -1.4988 -0.764 -0.007 0.645 64 39 14 0 0
-0.2524 0.0102 -1.5075 -0.946 -0.206 0.252 68 46 22 0 0
-0.2787 0.0022 -1.5609 -0.753 -0.389 0.531 59 42 21 0 0
-0.2794 0.0021 -1.5658 -0.826 -0.518 0.223 60 42 22 0 0
-0.2810 0.0016 -1.5702 -0.907 -0.407 0.106 51 33 17 0 0
-0.2790 0.0024 -1.5767 -0.904 -0.357 0.234 46 29 14 0 0
-0.2805 0.0020 -1.5812 -0.897 -0.286 0.337 70 53 34 0 0
-0.3290 -0.0141 -1.6151 -0.645 0.263 0.718 178 157 123 0 0
-0.3616 -0.0253 -1.6208 -0.729 0.111 0.675 141 123 93 0 0
-0.3646 -0.0263 -1.6242 -0.733 -0.016 0.680 157 140 101 0 0
-0.3702 -0.0280 -1.6312 -0.844 -0.345 0.411 92 68 35 0 0
-0.3196 -0.0086 -1.7248 -0.700 -0.079 0.710 97 74 41 0 0
-0.3179 -0.0079 -1.7315 -0.925 -0.379 -0.004 92 71 38 0 0
-0.3197 -0.0079 -1.7637 -0.943 -0.053 0.330 36 18 6 0 0
-0.3230 -0.0087 -1.7782 -0.941 0.030 0.337 82 61 34 0 0
-0.3246 -0.0092 -1.7827 -0.941 0.030 0.337 64 43 17 0 0
-0.3348 -0.0121 -1.8093 -0.799 -0.403 0.447 84 61 34 0 0
-0.3435 -0.0138 -1.8770 -0.866 -0.357 0.350 75 53 29 0 0
-0.3610 -0.0193 -1.9041 -0.866 -0.440 0.238 71 47 21 0 0
-0.3625 -0.0197 -1.9087 -0.917 -0.318 0.242 68 44 18 0 0
-0.3635 -0.0200 -1.9137 -0.853 -0.447 0.271 65 41 15 0 0
-0.3669 -0.0209 -1.9284 -0.904 -0.377 0.201 66 44 20 0 0
-0.3709 -0.0220 -1.9428 -0.881 -0.329 0.340 64 43 17 0 0
-0.3769 -0.0239 -1.9497 -0.871 -0.369 0.323 56 38 19 0 0
-0.3903 -0.0278 -1.9858 -0.872 -0.188 0.452 63 41 18 0 0
-0.3924 -0.0284 -1.9900 -0.872 -0.188 0.452 64 42 18 0 0
-0.4485 -0.0454 -2.1091 -0.685 -0.352 0.638 81 58 24 0 0
-0.4538 -0.0472 -2.1105 -0.803 -0.168 0.572 82 58 22 0 0
-0.4547 -0.0474 -2.1157 -0.841 -0.098 0.532 85 61 24 0 0
-0.4571 -0.0482 -2.1196 -0.841 -0.098 0.532 86 62 26 0 0
-0.4722 -0.0529 -2.1423 -0.744 -0.185 0.642 89 67 30 0 0
-0.4778 -0.0547 -2.1494 -0.852 -0.198 0.485 88 66 29 0 0
-0.5340 -0.0726 -2.2247 -0.721 -0.370 0.585 95 76 33 0 0
-0.5365 -0.0735 -2.2284 -0.721 -0.370 0.585 95 76 33 0 0
-0.5490 -0.0774 -2.2469 -0.911 -0.136 0.389 86 75 46 0 0
-0.5508 -0.0779 -2.2513 -0.968 -0.089 0.235 73 64 45 0 0
-0.5486 -0.0760 -2.3092 -0.662 0.445 0.603 208 209 211 0 0
0.0812 0.1183 -0.9014 -0.253 0.543 0.801 133 124 113 0 0
-0.0154 0.0847 -0.8998 -0.164 -0.124 0.978 125 107 80 0 0
-0.0707 0.0656 -0.9054 -0.245 -0.020 0.969 130 112 84 0 0
-0.1188 0.0491 -0.9173 -0.900 -0.172 0.399 144 124 96 0 0
-0.1268 0.0466 -0.9284 -0.743 -0.309 0.594 156 131 103 0 0
-0.1353 0.0440 -0.9440 -0.762 -0.585 0.278 162 139 105 0 0
-0.1373 0.0434 -0.9479 -0.780 -0.471 0.411 132 109 73 0 0
-0.1872 0.0296 -1.1174 -0.872 -0.490 -0.022 69 50 30 0 0
-0.1898 0.0287 -1.1211 -0.849 -0.442 0.290 70 52 31 0 0
-0.1706 0.0370 -1.1976 -0.651 -0.094 0.753 76 61 38 0 0
-0.1745 0.0358 -1.2008 -0.586 -0.308 0.750 61 46 25 0 0
-0.1781 0.0346 -1.2041 -0.586 -0.308 0.750 66 51 29 0 0
-0.1471 0.0464 -1.2532 -0.924 0.139 -0.358 51 38 22 0 0
-0.1405 0.0494 -1.2867 -0.947 0.148 0.285 26 20 11 0 0
-0.1427 0.0489 -1.3010 -0.972 0.063 0.228 43 32 21 0 0
-0.1438 0.0486 -1.3056 -0.972 0.063 0.228 43 30 20 0 0
-0.1622 0.0437 -1.3739 -0.823 -0.185 0.537 162 130 79 0 0
-0.1647 0.0429 -1.3778 -0.802 -0.434 0.410 164 132 81 0 0
-0.1699 0.0411 -1.3803 -0.898 -0.242 0.369 154 122 77 0 0
-0.2322 0.0212 -1.4618 -0.939 -0.283 0.197 112 88 45 0 0
-0.2353 0.0202 -1.4653 -0.920 -0.090 0.380 102 78 36 0 0
-0.2347 0.0205 -1.4709 -0.870 -0.286 0.402 100 77 40 0 0
-0.2398 0.0190 -1.4838 -0.969 -0.160 0.187 119 94 49 0 0
-0.2426 0.0181 -1.4875 -0.886 -0.015 0.464 145 117 76 0 0
-0.2447 0.0174 -1.4915 -0.886 -0.015 0.464 128 100 65 0 0
-0.2468 0.0168 -1.4956 -0.765 0.018 0.644 108 83 53 0 0
-0.2498 0.0158 -1.4992 -0.769 -0.008 0.639 62 39 15 0 0
-0.2557 0.0139 -1.5063 -0.769 -0.008 0.639 73 51 27 0 0
-0.2795 0.0068 -1.5612 -0.689 -0.255 0.678 59 41 19 0 0
-0.2828 0.0059 -1.5699 -0.907 -0.407 0.106 59 41 22 0 0
-0.2834 0.0058 -1.5749 -0.907 -0.407 0.106 56 40 23 0 0
-0.2864 0.0049 -1.5838 -0.838 -0.356 0.414 80 63 43 0 0
-0.2927 0.0030 -1.5959 -0.759 -0.318 0.568 131 111 67 0 0
-0.3368 -0.0119 -1.6163 -0.231 -0.456 0.859 131 114 92 0 0
-0.3397 -0.0128 -1.6199 -0.645 -0.535 0.546 146 131 111 0 0
-0.3411 -0.0133 -1.6243 -0.857 -0.483 0.178 130 116 99 0 0
-0.3155 -0.0025 -1.7119 -0.814 -0.404 0.418 101 79 46 0 0
-0.3192 -0.0037 -1.7150 -0.981 -0.039 0.192 110 86 50 0 0
-0.3182 -0.0026 -1.7545 -0.725 -0.543 0.425 86 69 42 0 0
-0.3225 -0.0035 -1.7796 -0.725 -0.447 0.524 83 59 33 0 0
-0.3235 -0.0038 -1.7844 -0.820 -0.481 0.310 62 42 15 0 0
-0.3259 -0.0045 -1.7884 -0.800 -0.414 0.435 97 80 51 0 0
-0.3380 -0.0076 -1.8420 -0.897 -0.438 0.052 74 48 23 0 0
-0.3642 -0.0153 -1.9085 -0.866 -0.440 0.238 69 46 22 0 0
-0.3656 -0.0157 -1.9132 -0.853 -0.447 0.271 68 45 21 0 0
-0.3672 -0.0161 -1.9178 -0.901 -0.398 0.173 67 45 21 0 0
-0.3698 -0.0167 -1.9331 -0.901 -0.398 0.173 70 48 24 0 0
-0.3713 -0.0171 -1.9378 -0.922 -0.217 0.320 69 47 23 0 0
-0.3731 -0.0177 -1.9422 -0.918 -0.207 0.338 66 44 20 0 0
-0.3794 -0.0196 -1.9547 -0.927 -0.180 0.328 49 28 7 0 0
-0.3929 -0.0237 -1.9849 -0.777 -0.394 0.491 65 41 19 0 0
-0.3954 -0.0245 -1.9888 -0.794 -0.466 0.391 67 43 20 0 0
-0.4473 -0.0400 -2.1055 -0.887 -0.179 0.425 81 59 27 0 0
-0.4510 -0.0413 -2.1082 -0.847 -0.145 0.512 82 59 27 0 0
-0.4789 -0.0501 -2.1497 -0.915 -0.316 0.249 87 65 28 0 0
-0.5110 -0.0600 -2.2112 -0.508 -0.249 0.824 96 75 32 0 0
-0.5349 -0.0680 -2.2252 -0.708 -0.329 0.625 94 75 32 0 0
-0.5377 -0.0689 -2.2286 -0.828 -0.182 0.530 93 74 32 0 0
-0.5491 -0.0726 -2.2421 -0.951 -0.156 0.268 89 74 39 0 0
-0.5513 -0.0732 -2.2461 -0.877 -0.056 0.476 82 70 43 0 0
-0.5515 -0.0732 -2.2521 -0.968 -0.089 0.235 78 69 51 0 0
-0.5545 -0.0735 -2.2861 -0.927 -0.021 0.375 202 203 207 0 0
0.1095 0.1333 -0.9056 -0.197 0.368 0.909 175 175 175 0 0
-0.1388 0.0475 -0.9478 -0.944 -0.227 0.237 111 87 55 0 0
-0.1643 0.0393 -0.9804 -0.933 -0.153 0.325 93 73 41 0 0
-0.1822 0.0341 -1.0250 -0.821 -0.314 0.476 56 38 19 0 0
-0.1842 0.0334 -1.0289 -0.821 -0.314 0.476 55 36 15 0 0
-0.1862 0.0328 -1.0328 -0.821 -0.314 0.476 61 44 19 0 0
-0.1789 0.0391 -1.2043 -0.558 -0.188 0.808 67 52 30 0 0
-0.1573 0.0474 -1.2390 -0.950 0.055 -0.309 49 36 20 0 0
-0.1497 0.0502 -1.2476 -0.914 -0.022 -0.405 46 33 17 0 0
-0.1471 0.0513 -1.2538 -0.915 -0.062 -0.398 50 37 21 0 0
-0.1364 0.0571 -1.3512 -0.782 -0.027 0.623 184 150 87 0 0
-0.1441 0.0545 -1.3525 -0.834 -0.023 0.551 177 143 81 0 0
-0.1624 0.0485 -1.3744 -0.663 -0.383 0.643 152 121 70 0 0
-0.1715 0.0455 -1.3802 -0.898 -0.346 0.274 149 117 70 0 0
-0.2393 0.0240 -1.4796 -0.713 -0.545 0.441 77 54 24 0 0
-0.2422 0.0232 -1.4885 -0.833 -0.392 0.391 137 110 69 0 0
-0.2434 0.0228 -1.4930 -0.875 -0.297 0.382 129 101 65 0 0
-0.2494 0.0209 -1.5002 -0.737 -0.265 0.622 62 39 15 0 0
-0.2552 0.0191 -1.5127 -0.878 -0.386 0.284 66 44 21 0 0
-0.2772 0.0128 -1.5742 -0.730 0.064 0.681 54 36 16 0 0
-0.3440 -0.0094 -1.6233 -0.813 -0.564 0.146 150 137 117 0 0
-0.3186 0.0021 -1.7441 -0.610 -0.511 0.605 87 66 36 0 0
-0.3214 0.0018 -1.7757 -0.762 -0.485 0.430 66 44 17 0 0
-0.3258 0.0004 -1.7839 -0.820 -0.481 0.310 63 42 15 0 0
-0.3275 -0.0001 -1.7883 -0.820 -0.370 0.436 87 70 41 0 0
-0.3288 -0.0004 -1.7930 -0.871 -0.438 0.222 81 65 38 0 0
-0.3300 -0.0008 -1.7978 -0.803 -0.471 0.365 51 35 12 0 0
-0.3401 -0.0033 -1.8415 -0.897 -0.438 0.052 76 50 25 0 0
-0.3419 -0.0039 -1.8459 -0.790 -0.513 0.336 71 45 21 0 0
-0.3523 -0.0072 -1.8611 -0.698 -0.550 0.459 75 54 27 0 0
-0.3564 -0.0079 -1.8925 -0.361 -0.637 0.681 73 47 24 0 0
-0.3651 -0.0107 -1.9032 -0.853 -0.447 0.271 70 48 24 0 0
-0.3675 -0.0114 -1.9128 -0.919 -0.316 0.235 67 45 21 0 0
-0.3683 -0.0115 -1.9180 -0.925 -0.338 0.173 69 47 23 0 0
-0.3716 -0.0123 -1.9329 -0.926 -0.325 0.194 70 48 24 0 0
-0.3724 -0.0125 -1.9380 -0.922 -0.217 0.320 69 47 23 0 0
-0.3739 -0.0129 -1.9427 -0.922 -0.217 0.320 69 47 23 0 0
-0.3845 -0.0159 -1.9752 -0.922 -0.277 0.272 63 41 18 0 0
-0.3852 -0.0160 -1.9806 -0.857 -0.384 0.344 63 41 18 0 0
-0.4024 -0.0215 -2.0078 -0.881 -0.068 0.469 79 55 28 0 0
-0.4037 -0.0218 -2.0126 -0.953 -0.081 0.291 85 62 34 0 0
-0.4394 -0.0329 -2.0776 -0.796 -0.394 0.459 83 62 26 0 0
-0.4413 -0.0334 -2.0820 -0.991 -0.027 0.132 125 102 51 0 0
-0.4484 -0.0354 -2.1058 -0.887 -0.179 0.425 79 58 25 0 0
-0.4520 -0.0366 -2.1086 -0.847 -0.145 0.512 84 61 29 0 0
-0.4747 -0.0438 -2.1427 -0.744 -0.185 0.642 88 66 29 0 0
-0.4775 -0.0447 -2.1462 -0.744 -0.185 0.642 87 65 28 0 0
-0.5037 -0.0534 -2.1646 -0.909 -0.278 0.311 83 58 23 0 0
-0.5095 -0.0546 -2.2018 -0.697 -0.640 0.323 96 74 34 0 0
-0.5100 -0.0547 -2.2075 -0.595 -0.557 0.579 91 69 29 0 0
-0.5484 -0.0673 -2.2442 -0.952 0.062 0.300 92 77 43 0 0
-0.5524 -0.0685 -2.2526 -0.691 0.062 0.720 83 73 56 0 0
-0.5506 -0.0670 -2.2915 -0.734 -0.448 0.510 202 203 208 0 0
0.1139 0.1399 -0.9073 -0.197 0.368 0.909 176 176 177 0 0
-0.1400 0.0517 -0.9431 -0.831 -0.459 0.314 103 81 53 0 0
-0.1416 0.0512 -0.9472 -0.780 -0.471 0.411 110 88 58 0 0
-0.1570 0.0459 -0.9511 -0.749 -0.489 0.447 106 83 53 0 0
-0.1600 0.0453 -0.9685 -0.744 -0.255 0.617 73 52 24 0 0
-0.1632 0.0442 -0.9720 -0.864 -0.283 0.416 74 55 25 0 0
-0.1651 0.0436 -0.9759 -0.773 -0.448 0.449 77 58 26 0 0
-0.1654 0.0436 -0.9804 -0.916 -0.285 0.284 89 68 37 0 0
-0.1678 0.0429 -0.9888 -0.916 -0.285 0.284 72 53 27 0 0
-0.1691 0.0426 -0.9931 -0.916 -0.285 0.284 53 37 15 0 0
-0.1703 0.0423 -0.9973 -0.916 -0.285 0.284 56 37 17 0 0
-0.1707 0.0422 -1.0018 -0.924 -0.241 0.296 67 48 26 0 0
-0.1724 0.0417 -1.0058 -0.921 -0.162 0.355 74 57 32 0 0
-0.1756 0.0409 -1.0186 -0.957 0.029 0.288 55 37 17 0 0
-0.1761 0.0408 -1.0231 -0.843 0.001 0.538 55 37 17 0 0
-0.1914 0.0362 -1.0548 -0.952 -0.270 0.145 49 34 13 0 0
-0.1944 0.0358 -1.0867 -0.962 -0.251 -0.108 79 61 39 0 0
-0.1937 0.0362 -1.0918 -0.985 -0.168 -0.026 76 57 36 0 0
-0.1599 0.0514 -1.2435 -0.951 0.104 -0.292 47 34 18 0 0
-0.1407 0.0586 -1.2625 -0.970 0.242 0.014 50 37 21 0 0
-0.1378 0.0616 -1.3511 -0.774 -0.175 0.608 187 154 89 0 0
-0.1351 0.0627 -1.3577 -0.967 -0.138 0.214 173 139 79 0 0
-0.1690 0.0512 -1.3770 -0.884 -0.127 0.449 157 124 81 0 0
-0.1710 0.0506 -1.3811 -0.884 -0.127 0.449 166 133 87 0 0
-0.2398 0.0286 -1.4748 -0.845 -0.345 0.409 79 55 31 0 0
-0.2414 0.0281 -1.4792 -0.875 -0.327 0.356 77 54 24 0 0
-0.2437 0.0276 -1.4884 -0.948 -0.117 0.296 127 99 60 0 0
-0.2454 0.0271 -1.4927 -0.895 -0.112 0.432 132 104 68 0 0
-0.2819 0.0158 -1.5614 -0.798 -0.153 0.583 61 43 21 0 0
-0.2915 0.0131 -1.5930 -0.732 -0.244 0.637 87 70 40 0 0
-0.2934 0.0126 -1.5973 -0.666 -0.312 0.677 137 119 82 0 0
-0.3233 0.0061 -1.7754 -0.783 -0.175 0.597 79 57 27 0 0
-0.3260 0.0052 -1.7791 -0.777 -0.230 0.586 75 51 23 0 0
-0.3263 0.0053 -1.7845 -0.906 -0.139 0.399 75 53 29 0 0
-0.3295 0.0042 -1.7879 -0.851 -0.407 0.331 105 87 61 0 0
-0.3295 0.0043 -1.7935 -0.925 -0.377 0.035 77 61 36 0 0
-0.3301 0.0042 -1.7987 -0.916 -0.393 0.078 43 27 8 0 0
-0.3305 0.0042 -1.8041 -0.927 -0.365 0.080 56 41 23 0 0
-0.3325 0.0036 -1.8083 -0.929 -0.291 0.227 49 31 12 0 0
-0.3336 0.0033 -1.8132 -0.929 -0.291 0.227 89 66 37 0 0
-0.3348 0.0030 -1.8180 -0.950 -0.189 0.250 81 56 30 0 0
-0.3357 0.0028 -1.8230 -0.951 0.023 0.308 79 55 28 0 0
-0.3417 0.0011 -1.8414 -0.875 -0.447 0.185 76 52 26 0 0
-0.3418 0.0012 -1.8471 -0.885 -0.343 0.315 69 45 20 0 0
-0.3474 -0.0006 -1.8543 -0.726 -0.529 0.440 68 45 19 0 0
-0.3751 -0.0083 -1.9429 -0.922 -0.217 0.320 68 46 22 0 0
-0.3872 -0.0117 -1.9801 -0.879 -0.409 0.246 61 41 17 0 0
-0.4000 -0.0159 -1.9933 -0.972 -0.056 0.229 75 51 25 0 0
-0.4155 -0.0204 -2.0336 -0.674 -0.252 0.694 90 71 38 0 0
-0.4223 -0.0226 -2.0457 -0.556 -0.348 0.755 71 49 21 0 0
-0.4253 -0.0234 -2.0551 -0.918 -0.143 0.371 75 52 22 0 0
-0.4302 -0.0250 -2.0628 -0.845 -0.413 0.340 69 44 18 0 0
-0.4413 -0.0285 -2.0772 -0.796 -0.394 0.459 86 65 31 0 0
-0.4441 -0.0294 -2.0808 -0.955 -0.293 0.046 126 103 56 0 0
-0.4502 -0.0310 -2.1054 -0.753 -0.422 0.505 76 55 23 0 0
-0.4615 -0.0345 -2.1256 -0.829 -0.042 0.557 83 61 24 0 0
-0.5102 -0.0501 -2.1903 -0.893 -0.161 0.419 98 76 37 0 0
-0.5120 -0.0505 -2.2008 -0.809 -0.579 0.104 94 72 33 0 0
-0.5139 -0.0511 -2.2052 -0.743 -0.461 0.486 94 72 33 0 0
-0.5321 -0.0572 -2.2185 -0.647 -0.252 0.720 95 75 32 0 0
-0.5396 -0.0595 -2.2296 -0.890 -0.213 0.404 99 80 38 0 0
-0.5452 -0.0611 -2.2488 -0.981 0.120 0.154 92 76 44 0 0
-0.5500 -0.0627 -2.2502 -0.799 0.161 0.580 75 61 38 0 0
-0.5507 -0.0627 -2.2618 -0.994 0.013 0.104 115 110 101 0 0
-0.5517 -0.0624 -2.2918 -0.948 -0.219 0.233 203 204 208 0 0
-0.1342 0.0580 -0.9271 -0.688 -0.258 0.678 154 130 102 0 0
-0.1533 0.0518 -0.9482 -0.664 -0.333 0.670 128 106 75 0 0
-0.1673 0.0475 -0.9756 -0.862 -0.316 0.397 80 61 28 0 0
-0.1676 0.0475 -0.9801 -0.850 -0.212 0.482 87 67 36 0 0
-0.1696 0.0469 -0.9840 -0.850 -0.212 0.482 88 66 36 0 0
-0.1710 0.0465 -0.9881 -0.925 -0.122 0.359 72 53 27 0 0
-0.1727 0.0461 -0.9968 -0.972 -0.109 0.208 60 42 21 0 0
-0.1735 0.0459 -1.0012 -0.949 -0.064 0.310 69 50 28 0 0
-0.1768 0.0451 -1.0140 -0.991 0.022 0.135 57 39 19 0 0
-0.1764 0.0453 -1.0188 -0.968 -0.114 0.224 49 32 12 0 0
-0.1793 0.0444 -1.0224 -0.889 -0.153 0.431 54 36 16 0 0
-0.1902 0.0411 -1.0463 -0.843 -0.225 0.488 49 33 14 0 0
-0.1918 0.0407 -1.0551 -0.826 -0.492 0.276 46 31 12 0 0
-0.1717 0.0510 -1.1939 -0.643 -0.443 0.625 69 54 29 0 0
-0.1515 0.0591 -1.2379 -0.863 0.435 -0.257 58 46 29 0 0
-0.1459 0.0614 -1.2506 -0.896 0.364 -0.256 49 36 20 0 0
-0.1384 0.0643 -1.2641 -0.913 0.405 0.044 50 37 21 0 0
-0.1359 0.0674 -1.3580 -0.967 -0.138 0.214 164 129 75 0 0
-0.1698 0.0559 -1.3772 -0.884 -0.127 0.449 155 123 75 0 0
-0.1719 0.0553 -1.3814 -0.884 -0.127 0.449 161 128 83 0 0
-0.2337 0.0354 -1.4633 -0.894 -0.177 0.412 97 74 33 0 0
-0.2408 0.0330 -1.4645 -0.755 -0.223 0.617 99 76 36 0 0
-0.2444 0.0319 -1.4730 -0.869 -0.196 0.455 77 54 28 0 0
-0.2658 0.0253 -1.5134 -0.731 -0.600 0.326 65 43 20 0 0
-0.2666 0.0252 -1.5235 -0.943 -0.281 0.181 67 43 20 0 0
-0.2647 0.0264 -1.5459 -0.992 -0.096 0.084 140 119 78 0 0
-0.3572 -0.0048 -1.6059 -0.761 -0.336 0.555 135 120 105 0 0
-0.3599 -0.0056 -1.6095 -0.797 -0.201 0.569 119 103 85 0 0
-0.3672 -0.0081 -1.6154 -0.676 -0.128 0.725 160 146 117 0 0
-0.3701 -0.0090 -1.6188 -0.803 -0.032 0.595 179 161 127 0 0
-0.3213 0.0112 -1.7497 -0.859 -0.486 0.163 76 57 31 0 0
-0.3317 0.0089 -1.8099 -0.998 0.067 -0.004 46 28 11 0 0
-0.3316 0.0091 -1.8156 -0.998 0.067 -0.004 85 62 32 0 0
-0.3316 0.0092 -1.8213 -0.998 0.067 -0.004 83 58 31 0 0
-0.3302 0.0099 -1.8280 -0.987 -0.158 -0.024 80 57 30 0 0
-0.3431 0.0058 -1.8471 -0.890 -0.376 0.257 74 50 25 0 0
-0.3476 0.0042 -1.8495 -0.585 -0.397 0.707 74 50 26 0 0
-0.3491 0.0038 -1.8542 -0.839 -0.260 0.478 75 52 26 0 0
-0.3512 0.0032 -1.8583 -0.782 -0.216 0.585 74 53 24 0 0
-0.3532 0.0026 -1.8626 -0.823 -0.334 0.460 77 56 27 0 0
-0.4171 -0.0160 -2.0335 -0.674 -0.252 0.694 85 66 32 0 0
-0.4246 -0.0183 -2.0451 -0.593 -0.361 0.719 70 47 19 0 0
-0.4241 -0.0180 -2.0514 -0.967 -0.247 0.062 73 49 24 0 0
-0.4278 -0.0191 -2.0602 -0.917 -0.331 0.220 74 50 23 0 0
-0.4299 -0.0198 -2.0643 -0.706 -0.278 0.652 74 49 22 0 0
-0.4440 -0.0243 -2.0821 -0.989 0.002 0.145 131 110 66 0 0
-0.4522 -0.0264 -2.1170 -0.817 -0.138 0.560 83 60 26 0 0
-0.4547 -0.0272 -2.1208 -0.817 -0.138 0.560 83 60 26 0 0
-0.4612 -0.0293 -2.1271 -0.839 -0.358 0.409 80 58 22 0 0
-0.5111 -0.0454 -2.1908 -0.949 -0.179 0.259 96 74 36 0 0
-0.5401 -0.0549 -2.2244 -0.790 -0.401 0.463 98 79 38 0 0
-0.5497 -0.0576 -2.2519 -0.855 0.215 0.471 74 60 39 0 0
-0.5521 -0.0584 -2.2557 -0.668 0.239 0.705 88 78 65 0 0
-0.0643 0.0872 -0.9137 -0.168 0.042 0.985 121 103 75 0 0
-0.1259 0.0655 -0.9211 -0.445 -0.238 0.864 136 115 88 0 0
-0.1325 0.0632 -0.9234 -0.410 -0.123 0.904 165 142 116 0 0
-0.1416 0.0604 -0.9388 -0.756 -0.215 0.618 97 77 51 0 0
-0.1443 0.0595 -0.9425 -0.705 -0.449 0.548 83 61 36 0 0
-0.1448 0.0595 -0.9469 -0.885 -0.101 0.455 86 66 35 0 0
-0.1591 0.0549 -0.9697 -0.848 -0.233 0.477 71 52 23 0 0
-0.1778 0.0496 -1.0234 -0.810 -0.474 0.345 50 34 13 0 0
-0.1812 0.0486 -1.0315 -0.814 -0.206 0.543 52 35 15 0 0
-0.1904 0.0457 -1.0467 -0.789 -0.333 0.516 45 30 11 0 0
-0.1985 0.0435 -1.0718 -0.967 -0.147 0.208 68 52 31 0 0
-0.1709 0.0605 -1.3774 -0.852 -0.018 0.524 161 127 79 0 0
-0.1957 0.0524 -1.4061 -0.885 -0.103 0.455 93 70 37 0 0
-0.3543 0.0011 -1.6086 -0.573 -0.550 0.608 120 107 89 0 0
-0.3592 -0.0005 -1.6108 -0.721 -0.268 0.639 127 113 92 0 0
-0.3644 -0.0023 -1.6128 -0.781 -0.089 0.618 114 101 83 0 0
-0.3668 -0.0031 -1.6165 -0.849 -0.171 0.500 134 123 100 0 0
-0.3614 -0.0010 -1.6253 -0.964 -0.173 0.200 183 166 134 0 0
-0.3623 -0.0011 -1.6302 -0.972 -0.234 -0.008 148 125 88 0 0
-0.3644 -0.0018 -1.6341 -0.855 -0.009 0.519 95 73 37 0 0
-0.3667 -0.0025 -1.6380 -0.855 -0.009 0.519 94 71 39 0 0
-0.3716 -0.0041 -1.6454 -0.454 -0.638 0.623 102 83 56 0 0
-0.3217 0.0158 -1.7393 -0.876 -0.374 0.304 84 64 32 0 0
-0.3234 0.0153 -1.7437 -0.839 -0.367 0.402 84 66 37 0 0
-0.3268 0.0146 -1.7637 -0.802 -0.524 0.286 32 18 7 0 0
-0.3320 0.0140 -1.8164 -0.976 0.198 0.093 84 62 31 0 0
-0.3348 0.0132 -1.8257 -0.963 -0.005 0.270 83 63 33 0 0
-0.3377 0.0124 -1.8350 -0.683 -0.477 0.553 75 54 25 0 0
-0.3447 0.0102 -1.8470 -0.907 -0.088 0.412 72 48 24 0 0
-0.3481 0.0091 -1.8502 -0.861 0.115 0.496 72 48 24 0 0
-0.3727 0.0019 -1.9121 -0.811 -0.565 0.149 65 43 19 0 0
-0.3725 0.0021 -1.9181 -0.700 -0.556 0.448 65 43 19 0 0
-0.4016 -0.0065 -1.9884 -0.672 -0.323 0.666 75 51 25 0 0
-0.4407 -0.0182 -2.0802 -0.819 -0.292 0.494 80 61 27 0 0
-0.4585 -0.0234 -2.1248 -0.786 -0.291 0.546 78 55 21 0 0
-0.4624 -0.0247 -2.1274 -0.848 -0.374 0.375 79 56 22 0 0
-0.4658 -0.0259 -2.1304 -0.869 -0.048 0.493 81 58 24 0 0
-0.4976 -0.0361 -2.1743 -0.945 -0.171 0.279 79 57 20 0 0
-0.5369 -0.0485 -2.2350 -0.604 -0.461 0.650 97 78 37 0 0
-0.5461 -0.0515 -2.2445 -0.943 -0.330 -0.035 86 69 32 0 0
-0.5446 -0.0508 -2.2521 -0.998 0.041 0.039 76 60 33 0 0
-0.5475 -0.0517 -2.2555 -0.931 -0.186 0.313 74 60 43 0 0
-0.5501 -0.0526 -2.2591 -0.848 -0.086 0.524 93 84 71 0 0
-0.5525 -0.0533 -2.2630 -0.848 -0.086 0.524 129 126 120 0 0
-0.5852 -0.0651 -2.2552 -0.393 -0.692 0.605 200 201 206 0 0
-0.0647 0.0918 -0.9140 -0.168 0.042 0.985 118 99 74 0 0
-0.1318 0.0683 -0.9287 -0.707 0.291 0.644 190 166 131 0 0
-0.1459 0.0637 -0.9424 -0.791 -0.192 0.581 80 58 32 0 0
-0.1500 0.0624 -0.9501 -0.821 -0.321 0.472 131 106 75 0 0
-0.1767 0.0540 -0.9962 -0.779 -0.430 0.457 58 40 19 0 0
-0.1726 0.0556 -1.0024 -0.923 -0.266 0.278 60 42 19 0 0
-0.1740 0.0553 -1.0066 -0.942 -0.151 0.300 66 49 25 0 0
-0.1743 0.0553 -1.0112 -0.747 -0.203 0.633 61 45 25 0 0
-0.1757 0.0549 -1.0153 -0.658 -0.233 0.716 44 28 10 0 0
-0.1776 0.0543 -1.0193 -0.812 -0.240 0.532 42 27 8 0 0
-0.1802 0.0535 -1.0230 -0.926 -0.307 0.221 47 33 13 0 0
-0.1804 0.0535 -1.0276 -0.911 -0.172 0.375 43 30 11 0 0
-0.1813 0.0533 -1.0319 -0.726 -0.376 0.576 47 31 12 0 0
-0.1807 0.0536 -1.0369 -0.921 -0.305 0.243 49 33 15 0 0
-0.1817 0.0534 -1.0412 -0.921 -0.305 0.243 54 38 19 0 0
-0.1919 0.0499 -1.0466 -0.800 -0.368 0.473 46 31 11 0 0
-0.1925 0.0498 -1.0511 -0.768 -0.569 0.295 48 33 12 0 0
-0.1862 0.0537 -1.1204 -0.936 -0.341 0.082 66 49 29 0 0
-0.1866 0.0537 -1.1251 -0.936 -0.341 0.082 73 56 36 0 0
-0.1704 0.0656 -1.3783 -0.857 -0.035 0.514 176 142 92 0 0
-0.1764 0.0637 -1.3857 -0.892 -0.096 0.441 199 166 121 0 0
-0.1964 0.0571 -1.4065 -0.885 -0.103 0.455 98 75 42 0 0
-0.3340 0.0183 -1.8160 -0.882 0.277 0.382 85 63 33 0 0
-0.3360 0.0177 -1.8202 -0.882 0.277 0.382 85 61 34 0 0
-0.3377 0.0172 -1.8247 -0.852 0.048 0.522 85 65 34 0 0
-0.3391 0.0168 -1.8293 -0.939 -0.293 0.178 78 57 28 0 0
-0.3401 0.0166 -1.8343 -0.963 -0.110 0.245 75 54 25 0 0
-0.3446 0.0152 -1.8424 -0.862 0.101 0.497 76 52 28 0 0
-0.3462 0.0147 -1.8470 -0.909 0.105 0.402 71 47 23 0 0
-0.3549 0.0123 -1.8749 -0.810 -0.560 0.171 73 51 27 0 0
-0.4024 -0.0022 -1.9714 -0.931 -0.211 0.299 56 36 12 0 0
-0.4266 -0.0088 -2.0517 -0.985 -0.107 0.132 77 53 24 0 0
-0.4557 -0.0176 -2.1165 -0.954 -0.269 0.134 86 64 25 0 0
-0.4577 -0.0182 -2.1208 -0.875 0.009 0.484 83 60 24 0 0
-0.4734 -0.0235 -2.1309 -0.631 -0.469 0.618 80 57 23 0 0
-0.4714 -0.0226 -2.1388 -0.623 0.010 0.782 85 62 27 0 0
-0.5429 -0.0459 -2.2245 -0.890 -0.073 0.450 98 79 37 0 0
-0.5443 -0.0462 -2.2293 -0.935 -0.294 0.198 96 77 35 0 0
-0.5469 -0.0471 -2.2329 -0.785 -0.392 0.480 95 76 32 0 0
-0.5479 -0.0469 -2.2565 -0.992 -0.089 0.090 74 61 45 0 0
-0.5489 -0.0471 -2.2617 -0.975 -0.088 0.204 100 91 81 0 0
-0.5498 -0.0473 -2.2670 -0.976 -0.092 0.196 136 134 130 0 0
-0.5510 -0.0476 -2.2721 -0.960 -0.242 0.139 169 170 170 0 0
-0.0658 0.0962 -0.9140 -0.169 -0.011 0.986 120 105 85 0 0
-0.0830 0.0901 -0.9177 -0.244 0.057 0.968 126 105 82 0 0
-0.1329 0.0728 -0.9334 -0.644 0.120 0.756 165 140 104 0 0
-0.1452 0.0686 -0.9430 -0.782 -0.060 0.621 79 59 34 0 0
-0.1505 0.0668 -0.9458 -0.924 -0.065 0.376 88 67 37 0 0
-0.1660 0.0624 -0.9913 -0.855 -0.125 0.503 59 38 17 0 0
-0.1680 0.0618 -0.9952 -0.896 -0.306 0.323 57 38 19 0 0
-0.1699 0.0612 -0.9992 -0.895 -0.219 0.389 59 41 21 0 0
-0.1721 0.0606 -1.0031 -0.976 -0.150 0.161 54 36 15 0 0
-0.1786 0.0589 -1.0287 -0.940 -0.058 0.335 42 31 13 0 0
-0.1810 0.0581 -1.0325 -0.897 -0.127 0.424 45 29 13 0 0
-0.1847 0.0572 -1.0499 -0.907 -0.317 0.277 47 32 11 0 0
-0.1859 0.0569 -1.0542 -0.923 -0.043 0.382 49 34 11 0 0
-0.1829 0.0582 -1.0649 -0.608 -0.514 0.605 54 37 19 0 0
-0.1870 0.0569 -1.0680 -0.817 -0.478 0.323 58 41 23 0 0
-0.1878 0.0567 -1.0724 -0.762 -0.576 0.296 57 40 22 0 0
-0.1875 0.0580 -1.1204 -0.875 -0.481 0.046 66 49 30 0 0
-0.1529 0.0730 -1.2240 -0.856 -0.349 -0.381 64 50 31 0 0
-0.1510 0.0739 -1.2349 -0.991 -0.096 -0.090 54 38 22 0 0
-0.1480 0.0753 -1.2464 -0.792 -0.107 -0.601 59 43 27 0 0
-0.1972 0.0618 -1.4068 -0.885 -0.103 0.455 111 88 54 0 0
-0.3682 0.0061 -1.6174 -0.677 -0.063 0.733 158 143 113 0 0
-0.3716 0.0050 -1.6205 -0.677 -0.063 0.733 167 149 115 0 0
-0.3373 0.0189 -1.6864 -0.803 -0.004 -0.596 78 62 33 0 0
-0.3286 0.0223 -1.6977 -0.879 0.005 -0.477 89 73 41 0 0
-0.3251 0.0239 -1.7112 -0.861 -0.383 0.334 100 79 45 0 0
-0.3271 0.0238 -1.7375 -0.929 -0.286 0.234 86 65 37 0 0
-0.3280 0.0236 -1.7425 -0.984 -0.101 0.144 88 69 44 0 0
-0.3275 0.0239 -1.7484 -0.997 -0.055 -0.055 69 53 30 0 0
-0.3408 0.0212 -1.8291 -0.934 -0.349 -0.080 77 56 27 0 0
-0.3410 0.0214 -1.8404 -0.862 -0.361 0.355 73 52 23 0 0
-0.3426 0.0210 -1.8449 -0.862 -0.361 0.355 74 50 26 0 0
-0.3447 0.0203 -1.8491 -0.771 -0.456 0.445 73 49 25 0 0
-0.3462 0.0199 -1.8537 -0.689 -0.670 0.278 74 50 26 0 0
-0.3955 0.0056 -1.9839 -0.640 -0.560 0.526 65 43 20 0 0
-0.5484 -0.0420 -2.2574 -0.986 -0.098 0.134 79 67 52 0 0
-0.5492 -0.0422 -2.2629 -0.960 -0.089 0.265 107 99 91 0 0
-0.5504 -0.0425 -2.2678 -0.976 -0.092 0.196 144 142 140 0 0
-0.5507 -0.0424 -2.2738 -0.931 -0.346 0.114 172 174 176 0 0
-0.5506 -0.0422 -2.2801 -0.946 -0.268 -0.182 189 190 193 0 0
-0.1534 0.0706 -0.9498 -0.877 -0.026 0.479 119 97 64 0 0
-0.1555 0.0699 -0.9537 -0.877 -0.026 0.479 101 79 46 0 0
-0.1576 0.0693 -0.9576 -0.877 -0.026 0.479 88 65 33 0 0
-0.1581 0.0692 -0.9621 -0.888 -0.230 0.397 73 51 22 0 0
-0.1585 0.0692 -0.9665 -0.825 -0.242 0.511 66 45 18 0 0
-0.1606 0.0685 -0.9704 -0.906 -0.271 0.326 69 49 21 0 0
-0.1632 0.0678 -0.9788 -0.970 -0.157 0.184 57 37 12 0 0
-0.1653 0.0671 -0.9827 -0.974 -0.101 0.205 62 44 17 0 0
-0.1662 0.0669 -0.9870 -0.974 -0.101 0.205 60 41 17 0 0
-0.1668 0.0668 -0.9915 -0.949 -0.218 0.228 55 35 13 0 0
-0.1678 0.0666 -0.9958 -0.949 -0.218 0.228 54 36 16 0 0
-0.1688 0.0664 -1.0001 -0.949 -0.218 0.228 59 42 22 0 0
-0.1835 0.0628 -1.0651 -0.908 -0.281 0.311 53 36 16 0 0
-0.1924 0.0610 -1.1189 -0.985 0.170 0.028 65 48 31 0 0
-0.1910 0.0616 -1.1243 -0.923 -0.269 -0.276 72 55 37 0 0
-0.1937 0.0607 -1.1280 -0.989 -0.006 -0.146 81 64 45 0 0
-0.1718 0.0697 -1.1715 -0.997 -0.072 -0.036 78 63 42 0 0
-0.1668 0.0717 -1.1786 -0.945 -0.315 -0.087 74 61 39 0 0
-0.1036 0.0984 -1.3348 -0.939 0.312 -0.147 77 54 30 0 0
-0.0993 0.1001 -1.3421 -0.944 0.264 -0.199 91 64 31 0 0
-0.1005 0.1002 -1.3626 -0.514 0.233 0.826 178 147 85 0 0
-0.1034 0.0992 -1.3664 -0.801 0.245 0.546 157 126 74 0 0
-0.1890 0.0692 -1.3909 -0.740 -0.366 0.565 120 91 50 0 0
-0.1916 0.0684 -1.3948 -0.813 -0.192 0.550 102 73 36 0 0
-0.1938 0.0677 -1.3989 -0.879 -0.178 0.443 119 96 56 0 0
-0.1979 0.0665 -1.4071 -0.885 -0.103 0.455 117 94 56 0 0
-0.3614 0.0132 -1.6120 -0.698 -0.037 0.715 184 166 141 0 0
-0.3277 0.0293 -1.7660 -0.891 0.037 0.453 35 20 3 0 0
-0.3299 0.0295 -1.8039 -0.856 -0.012 0.517 40 26 9 0 0
-0.3420 0.0261 -1.8407 -0.935 -0.176 0.309 73 52 23 0 0
-0.3441 0.0255 -1.8449 -0.996 0.002 0.085 74 50 26 0 0
-0.3443 0.0255 -1.8504 -0.999 -0.009 0.037 73 49 25 0 0
-0.3438 0.0259 -1.8566 -0.992 0.106 -0.072 75 51 27 0 0
-0.3847 0.0134 -1.9410 -0.744 -0.382 0.548 65 43 19 0 0
-0.3903 0.0122 -1.9716 -0.818 -0.409 0.405 61 39 16 0 0
-0.3922 0.0116 -1.9760 -0.818 -0.409 0.405 62 40 17 0 0
-0.3957 0.0105 -1.9791 -0.786 -0.458 0.415 64 42 18 0 0
-0.4249 0.0020 -2.0556 -0.879 -0.087 0.469 78 55 23 0 0
-0.4271 0.0013 -2.0598 -0.879 -0.087 0.469 75 54 23 0 0
-0.4294 0.0006 -2.0637 -0.937 -0.182 0.299 73 52 21 0 0
-0.4559 -0.0076 -2.1129 -0.761 -0.588 0.275 78 55 21 0 0
-0.4561 -0.0075 -2.1187 -0.808 -0.447 0.384 81 59 23 0 0
-0.4581 -0.0082 -2.1230 -0.811 -0.354 0.466 82 60 25 0 0
-0.4600 -0.0087 -2.1273 -0.813 -0.381 0.440 81 58 25 0 0
-0.4621 -0.0094 -2.1315 -0.785 -0.292 0.547 80 57 24 0 0
-0.4639 -0.0099 -2.1360 -0.683 -0.210 0.699 75 52 20 0 0
-0.4675 -0.0111 -2.1388 -0.766 -0.110 0.633 73 50 16 0 0
-0.5414 -0.0351 -2.2349 -0.925 -0.132 0.357 92 74 32 0 0
-0.5453 -0.0364 -2.2372 -0.807 -0.222 0.547 94 75 38 0 0
-0.5510 -0.0376 -2.2687 -0.817 -0.261 0.514 151 150 150 0 0
-0.0881 0.0979 -0.9168 -0.223 -0.194 0.955 164 157 152 0 0
-0.1690 0.0707 -0.9911 -0.923 -0.315 0.222 50 34 14 0 0
-0.1785 0.0721 -1.1691 -0.987 0.152 0.060 77 60 41 0 0
-0.1789 0.0721 -1.1739 -0.995 0.077 0.069 76 60 39 0 0
-0.1591 0.0806 -1.2274 -0.810 -0.422 -0.407 71 58 38 0 0
-0.0973 0.1058 -1.3385 -0.821 0.550 0.151 73 51 20 0 0
-0.0967 0.1061 -1.3441 -0.921 0.389 -0.019 122 97 57 0 0
-0.1578 0.0850 -1.3765 -0.892 -0.452 -0.009 163 128 79 0 0
-0.1904 0.0737 -1.3909 -0.913 -0.229 0.337 109 81 39 0 0
-0.1928 0.0729 -1.3949 -0.837 -0.145 0.528 119 89 52 0 0
-0.2045 0.0691 -1.4095 -0.840 0.141 0.524 121 98 56 0 0
-0.2060 0.0687 -1.4140 -0.751 0.184 0.634 112 88 53 0 0
-0.2299 0.0606 -1.4324 -0.809 -0.286 0.513 123 98 58 0 0
-0.2455 0.0559 -1.4657 -0.842 -0.153 0.517 88 67 34 0 0
-0.2717 0.0493 -1.5727 -0.915 -0.379 -0.141 60 42 22 0 0
-0.3105 0.0360 -1.5971 -0.280 -0.213 0.936 108 87 56 0 0
-0.3592 0.0188 -1.6090 -0.557 -0.065 0.828 159 139 112 0 0
-0.3623 0.0178 -1.6123 -0.687 -0.237 0.687 175 156 128 0 0
-0.3656 0.0167 -1.6155 -1.000 -0.010 0.006 135 118 87 0 0
-0.3685 0.0157 -1.6190 -0.978 -0.111 0.178 190 175 142 0 0
-0.3657 0.0175 -1.6476 -0.926 -0.352 -0.140 92 70 38 0 0
-0.3438 0.0262 -1.6784 -0.732 -0.182 -0.656 76 61 36 0 0
-0.3286 0.0331 -1.7328 -0.863 -0.224 0.454 88 68 38 0 0
-0.3292 0.0348 -1.8055 -0.805 -0.266 0.531 44 30 14 0 0
-0.3855 0.0188 -1.9649 -0.792 -0.209 0.574 66 44 20 0 0
-0.4041 0.0128 -1.9911 -0.847 -0.521 0.110 73 52 25 0 0
-0.4431 0.0015 -2.0952 -0.994 -0.110 -0.025 150 123 87 0 0
-0.4576 -0.0032 -2.1126 -0.710 -0.366 0.602 82 59 25 0 0
-0.4585 -0.0034 -2.1179 -0.879 -0.220 0.424 83 60 26 0 0
-0.4636 -0.0050 -2.1255 -0.959 -0.183 0.218 78 55 22 0 0
-0.4644 -0.0051 -2.1308 -0.917 -0.262 0.302 74 51 19 0 0
-0.4666 -0.0059 -2.1348 -0.853 -0.091 0.514 73 50 17 0 0
-0.4741 -0.0084 -2.1403 -0.851 -0.325 0.412 83 61 24 0 0
-0.5149 -0.0213 -2.2063 -0.873 0.158 0.461 96 73 32 0 0
-0.5453 -0.0315 -2.2325 -0.774 0.036 0.632 91 73 32 0 0
-0.5476 -0.0322 -2.2365 -0.889 -0.103 0.447 93 75 41 0 0
-0.1058 0.0964 -0.9206 -0.323 -0.650 0.688 176 168 163 0 0
-0.1103 0.0948 -0.9237 -0.313 -0.809 0.498 160 148 137 0 0
-0.1622 0.0772 -0.9661 -0.928 -0.107 0.357 69 49 22 0 0
-0.1704 0.0750 -0.9910 -0.938 -0.264 0.224 61 43 20 0 0
-0.1715 0.0747 -0.9953 -0.974 -0.053 0.219 50 33 11 0 0
-0.1724 0.0745 -0.9996 -0.974 -0.053 0.219 60 44 24 0 0
-0.1783 0.0732 -1.0303 -0.976 0.000 0.219 56 42 23 0 0
-0.1839 0.0724 -1.0755 -0.867 -0.480 0.134 62 49 27 0 0
-0.1844 0.0723 -1.0801 -0.908 -0.419 -0.004 73 61 41 0 0
-0.1852 0.0722 -1.0845 -0.993 0.002 -0.119 75 62 42 0 0
-0.0956 0.1115 -1.3400 -0.720 0.627 0.297 87 63 29 0 0
-0.1695 0.0858 -1.3764 -0.587 -0.526 0.615 170 137 84 0 0
-0.1832 0.0811 -1.3850 -0.734 -0.138 0.664 169 136 82 0 0
-0.1862 0.0801 -1.3886 -0.734 -0.138 0.664 124 95 49 0 0
-0.1934 0.0777 -1.3953 -0.872 -0.090 0.481 114 84 42 0 0
-0.1955 0.0770 -1.3993 -0.872 -0.090 0.481 100 74 37 0 0
-0.2011 0.0752 -1.4069 -0.837 -0.084 0.540 116 92 58 0 0
-0.2037 0.0744 -1.4107 -0.656 -0.441 0.612 114 90 52 0 0
-0.2099 0.0724 -1.4178 -0.593 -0.541 0.596 81 58 27 0 0
-0.2260 0.0670 -1.4353 -0.881 -0.378 0.283 110 85 45 0 0
-0.2423 0.0619 -1.4629 -0.827 -0.419 0.374 83 62 29 0 0
-0.2443 0.0613 -1.4671 -0.811 -0.410 0.418 92 71 39 0 0
-0.2764 0.0525 -1.5706 -0.703 -0.617 0.353 55 38 14 0 0
-0.3641 0.0220 -1.6120 -0.791 -0.049 0.610 136 117 89 0 0
-0.3696 0.0200 -1.6138 -0.950 -0.297 -0.100 164 148 115 0 0
-0.3689 0.0204 -1.6196 -0.947 -0.260 -0.187 172 152 120 0 0
-0.3637 0.0230 -1.6445 -0.830 -0.206 0.518 87 67 33 0 0
-0.3673 0.0218 -1.6474 -0.926 -0.352 -0.140 92 72 40 0 0
-0.3472 0.0299 -1.6771 -0.683 -0.300 -0.666 73 58 32 0 0
-0.3314 0.0386 -1.7879 -0.980 0.129 0.149 106 86 58 0 0
-0.3295 0.0398 -1.8063 -0.734 -0.403 0.547 40 26 11 0 0
-0.3316 0.0391 -1.8104 -0.835 -0.530 0.149 44 31 13 0 0
-0.3379 0.0373 -1.8287 -0.649 -0.192 0.736 79 59 29 0 0
-0.3447 0.0352 -1.8408 -0.903 0.032 0.429 74 53 27 0 0
-0.4295 0.0109 -2.0721 -0.833 -0.032 0.553 89 69 33 0 0
-0.4322 0.0100 -2.0758 -0.925 -0.075 0.372 88 67 36 0 0
-0.4602 0.0009 -2.1116 -0.835 0.028 0.550 82 58 24 0 0
-0.4611 0.0007 -2.1169 -0.944 -0.110 0.311 83 59 25 0 0
-0.5506 -0.0275 -2.2658 -0.998 0.017 0.061 130 126 119 0 0
-0.5604 -0.0308 -2.2747 -0.612 0.142 0.778 194 195 199 0 0
-0.1854 0.0765 -1.0706 -0.867 -0.480 0.134 102 94 82 0 0
-0.1860 0.0764 -1.0751 -0.867 -0.480 0.134 114 107 97 0 0
-0.1868 0.0762 -1.0796 -0.833 -0.552 -0.018 116 110 100 0 0
-0.1871 0.0762 -1.0842 -0.883 -0.455 -0.111 116 109 99 0 0
-0.1855 0.0770 -1.0897 -0.965 -0.194 -0.174 115 106 96 0 0
-0.1536 0.0966 -1.3800 -0.802 -0.119 0.585 171 137 85 0 0
-0.1805 0.0870 -1.3819 -0.504 -0.573 0.646 173 140 87 0 0
-0.1914 0.0831 -1.3866 -0.862 -0.313 0.399 126 96 52 0 0
-0.1972 0.0814 -1.3992 -0.822 -0.415 0.390 113 88 46 0 0
-0.2203 0.0738 -1.4286 -0.719 -0.184 0.671 116 92 49 0 0
-0.2283 0.0709 -1.4295 -0.787 -0.280 0.550 117 92 52 0 0
-0.2280 0.0712 -1.4349 -0.894 -0.416 0.164 104 79 39 0 0
-0.2316 0.0700 -1.4382 -0.934 -0.163 0.318 105 80 41 0 0
-0.2741 0.0584 -1.5729 -0.722 -0.492 0.486 60 42 17 0 0
-0.3315 0.0440 -1.8058 -0.734 -0.403 0.547 46 32 17 0 0
-0.3340 0.0433 -1.8097 -0.734 -0.403 0.547 40 26 9 0 0
-0.3862 0.0287 -1.9666 -0.873 -0.205 0.443 66 44 20 0 0
-0.3944 0.0261 -1.9777 -0.846 -0.137 0.515 70 48 22 0 0
-0.4195 0.0192 -2.0579 -0.710 -0.273 0.649 81 59 27 0 0
-0.4264 0.0167 -2.0581 -0.808 -0.441 0.390 72 49 19 0 0
-0.4293 0.0159 -2.0675 -0.871 -0.220 0.439 72 51 21 0 0
-0.4841 -0.0016 -2.1520 -0.795 -0.377 0.475 82 60 23 0 0
-0.4862 -0.0017 -2.1746 -0.823 -0.378 0.423 82 60 23 0 0
-0.5000 -0.0065 -2.1802 -0.704 -0.083 0.705 87 65 27 0 0
-0.5397 -0.0187 -2.2593 -0.908 0.287 0.305 59 42 32 0 0
-0.5607 -0.0260 -2.2697 -0.635 0.219 0.741 185 187 192 0 0
-0.5686 -0.0289 -2.2681 -0.661 0.162 0.732 195 197 200 0 0
-0.1862 0.0804 -1.0518 -0.975 -0.216 0.055 181 181 179 0 0
-0.1865 0.0804 -1.0564 -0.975 -0.216 0.055 181 181 179 0 0
-0.1867 0.0805 -1.0611 -0.922 -0.375 0.097 183 183 181 0 0
-0.1873 0.0804 -1.0656 -0.950 -0.291 0.110 184 184 184 0 0
-0.1875 0.0804 -1.0703 -0.867 -0.480 0.134 186 186 186 0 0
-0.1882 0.0803 -1.0748 -0.867 -0.480 0.134 186 186 186 0 0
-0.1894 0.0800 -1.0791 -0.833 -0.552 -0.018 188 188 188 0 0
-0.1892 0.0802 -1.0839 -0.883 -0.455 -0.111 189 189 189 0 0
-0.1810 0.0917 -1.3822 -0.606 -0.168 0.778 159 124 72 0 0
-0.2001 0.0853 -1.3984 -0.650 -0.624 0.433 126 97 57 0 0
-0.2305 0.0752 -1.4343 -0.951 0.019 0.307 108 83 45 0 0
-0.2477 0.0699 -1.4667 -0.936 0.036 0.351 87 67 30 0 0
-0.2949 0.0560 -1.5825 -0.696 0.133 0.706 93 76 44 0 0
-0.3423 0.0391 -1.5957 -0.659 0.366 0.657 150 124 79 0 0
-0.3483 0.0370 -1.5972 -0.680 0.408 0.609 133 103 61 0 0
-0.3601 0.0347 -1.6649 -0.719 -0.321 -0.616 63 49 28 0 0
-0.3317 0.0465 -1.7169 -0.637 -0.735 0.234 104 84 53 0 0
-0.3879 0.0334 -1.9723 -0.884 0.164 0.438 67 45 21 0 0
-0.3914 0.0326 -1.9931 -0.932 -0.298 0.206 74 53 24 0 0
-0.4009 0.0297 -2.0091 -0.718 -0.538 0.442 73 54 25 0 0
-0.4049 0.0285 -2.0177 -0.800 -0.078 0.595 82 62 35 0 0
-0.4131 0.0261 -2.0406 -0.828 -0.197 0.526 82 64 32 0 0
-0.4141 0.0259 -2.0457 -0.912 0.014 0.409 108 85 51 0 0
-0.4158 0.0254 -2.0503 -0.851 -0.105 0.515 85 62 28 0 0
-0.4208 0.0238 -2.0581 -0.768 -0.137 0.625 75 53 22 0 0
-0.4254 0.0222 -2.0601 -0.809 -0.404 0.427 69 48 18 0 0
-0.4287 0.0211 -2.0633 -0.730 -0.591 0.343 68 47 19 0 0
