ply
format ascii 1.0
element vertex 865
property float x
property float y
property float z
property float nx
property float ny
property float nz
property uchar diffuse_red
property uchar diffuse_green
property uchar diffuse_blue
property uchar class
property uchar detection
end_header
-0.1382 0.3278 -1.8232 -0.488 0.865 0.115 72 53 21 0 0
-0.1410 0.3333 -1.8421 -0.221 0.733 0.643 83 58 28 0 0
-0.1410 0.3335 -1.8477 -0.513 0.761 0.396 82 58 28 0 0
-0.1481 0.3477 -1.9065 -0.529 0.811 0.250 79 56 24 0 0
-0.1479 0.3476 -1.9124 -0.334 0.891 0.306 84 61 29 0 0
-0.1552 0.3628 -1.9829 -0.355 0.858 0.371 84 60 32 0 0
-0.1784 0.4069 -2.1015 -0.613 0.721 0.323 139 107 65 0 0
-0.1856 0.4206 -2.1441 -0.361 0.808 0.466 81 58 26 0 0
-0.1914 0.4318 -2.1768 -0.380 0.846 0.374 85 62 28 0 0
-0.1989 0.4454 -2.2011 -0.472 0.691 0.548 92 70 31 0 0
-0.2137 0.4715 -2.2254 -0.254 0.884 0.394 92 73 30 0 0
-0.2139 0.4721 -2.2310 -0.429 0.870 0.244 93 74 31 0 0
-0.2197 0.4834 -2.2698 -0.905 0.358 0.231 108 98 77 0 0
-0.0171 0.0955 -0.8949 -0.314 0.853 0.418 112 97 73 0 0
-0.0180 0.0972 -0.8991 -0.314 0.853 0.418 123 103 76 0 0
-0.0224 0.1053 -0.9153 -0.216 0.842 0.494 98 77 47 0 0
-0.0266 0.1132 -0.9363 -0.216 0.912 0.349 79 57 36 0 0
-0.0209 0.1054 -0.9873 0.053 0.786 0.616 176 176 175 0 0
-0.0493 0.1629 -1.2214 -0.232 0.315 0.920 100 84 35 0 0
-0.0576 0.1770 -1.2249 -0.492 0.634 0.597 115 91 59 0 0
-0.0430 0.1547 -1.2871 -0.427 0.897 0.114 62 43 19 0 0
-0.0438 0.1563 -1.2916 -0.377 0.743 0.553 60 43 24 0 0
-0.0684 0.2019 -1.3882 -0.351 0.723 0.595 103 79 41 0 0
-0.0935 0.2465 -1.4425 -0.533 0.732 0.424 89 65 27 0 0
-0.1007 0.2604 -1.4875 -0.646 0.617 0.450 97 73 33 0 0
-0.1142 0.2864 -1.5629 -0.284 0.766 0.577 67 42 20 0 0
-0.1155 0.2888 -1.5668 -0.284 0.766 0.577 71 48 24 0 0
-0.1180 0.2933 -1.5748 -0.352 0.906 0.235 135 114 81 0 0
-0.1290 0.3129 -1.6001 -0.141 0.273 0.952 150 125 79 0 0
-0.1305 0.3198 -1.7114 -0.371 0.856 0.361 74 54 27 0 0
-0.1397 0.3398 -1.8216 -0.150 0.978 -0.144 92 70 38 0 0
-0.1367 0.3357 -1.8478 -0.392 0.737 0.552 83 59 28 0 0
-0.1420 0.3464 -1.8918 -0.356 0.893 0.274 81 58 26 0 0
-0.1436 0.3498 -1.9067 -0.523 0.799 0.297 79 56 24 0 0
-0.1452 0.3535 -1.9332 -0.540 0.751 0.379 79 56 25 0 0
-0.1480 0.3592 -1.9581 -0.374 0.847 0.377 84 61 31 0 0
-0.1493 0.3616 -1.9621 -0.438 0.836 0.331 88 64 35 0 0
-0.1498 0.3626 -1.9672 -0.498 0.826 0.265 87 64 34 0 0
-0.1566 0.3766 -2.0272 0.036 0.975 0.220 85 61 31 0 0
-0.1734 0.4057 -2.0439 -0.702 0.667 0.251 79 56 25 0 0
-0.1742 0.4093 -2.1014 -0.464 0.640 0.612 144 111 71 0 0
-0.1770 0.4143 -2.1090 -0.686 0.614 0.390 92 70 35 0 0
-0.1778 0.4158 -2.1138 -0.595 0.660 0.460 81 60 28 0 0
-0.1791 0.4182 -2.1177 -0.841 0.541 0.009 82 59 27 0 0
-0.1764 0.4143 -2.1336 -0.234 0.835 0.498 83 60 28 0 0
-0.1888 0.4372 -2.1801 -0.316 0.848 0.426 86 64 29 0 0
-0.2126 0.4795 -2.2322 -0.142 0.710 0.690 90 71 27 0 0
-0.2116 0.4784 -2.2458 -0.681 0.673 0.287 90 72 27 0 0
-0.0141 0.0998 -0.9037 -0.668 0.448 0.594 162 134 101 0 0
-0.0168 0.1045 -0.9068 -0.597 0.492 0.634 132 103 68 0 0
-0.0179 0.1065 -0.9109 -0.649 0.591 0.479 132 106 70 0 0
-0.0212 0.1128 -0.9277 -0.150 0.935 0.322 82 62 39 0 0
-0.0100 0.0965 -0.9914 0.164 0.964 -0.209 177 177 177 0 0
0.0000 0.0867 -1.1704 -0.183 0.886 0.427 99 85 66 0 0
-0.0012 0.0892 -1.1796 -0.297 0.860 0.416 45 32 14 0 0
-0.0271 0.1341 -1.2104 -0.043 0.924 0.380 133 112 67 0 0
-0.0453 0.1654 -1.2213 -0.108 0.538 0.836 100 82 33 0 0
-0.0386 0.1565 -1.2822 -0.560 0.826 -0.070 82 62 35 0 0
-0.0385 0.1574 -1.3078 -0.509 0.842 0.180 72 54 28 0 0
-0.0440 0.1684 -1.3494 -0.044 0.959 0.281 214 184 128 0 0
-0.0580 0.1930 -1.3732 -0.209 0.884 0.419 138 118 79 0 0
-0.0641 0.2040 -1.3883 -0.544 0.683 0.487 120 93 53 0 0
-0.0973 0.2640 -1.4866 -0.514 0.731 0.448 99 73 37 0 0
-0.1111 0.2906 -1.5671 -0.284 0.766 0.577 75 52 26 0 0
-0.1146 0.2972 -1.5846 -0.212 0.931 0.298 48 35 18 0 0
-0.1168 0.3013 -1.5928 -0.475 0.820 0.320 99 82 59 0 0
-0.1505 0.3590 -1.6141 -0.270 0.800 0.536 179 152 104 0 0
-0.1569 0.3707 -1.6331 0.117 0.962 0.246 97 74 42 0 0
-0.1263 0.3222 -1.7113 -0.558 0.760 0.333 85 66 39 0 0
-0.1286 0.3273 -1.7414 -0.204 0.951 0.233 100 76 42 0 0
-0.1286 0.3297 -1.8023 -0.254 0.860 0.442 112 92 59 0 0
-0.1298 0.3322 -1.8118 -0.220 0.877 0.427 66 45 18 0 0
-0.1341 0.3410 -1.8513 -0.583 0.776 0.242 96 73 42 0 0
-0.1469 0.3696 -2.0231 -0.787 0.350 0.508 73 48 20 0 0
-0.1731 0.4174 -2.1084 -0.565 0.443 0.696 91 69 34 0 0
-0.1878 0.4456 -2.1930 -0.471 0.752 0.461 90 68 31 0 0
-0.1883 0.4467 -2.1981 -0.541 0.752 0.378 89 67 30 0 0
-0.1904 0.4503 -2.2009 -0.460 0.742 0.488 89 67 30 0 0
-0.2073 0.4804 -2.2399 -0.627 0.694 0.353 86 68 22 0 0
-0.2109 0.4871 -2.2521 -0.571 0.460 0.680 97 78 36 0 0
-0.2127 0.4903 -2.2551 -0.589 0.734 0.337 98 76 40 0 0
-0.2139 0.4925 -2.2592 -0.613 0.760 0.214 101 86 54 0 0
-0.2144 0.4935 -2.2644 -0.613 0.760 0.214 116 110 90 0 0
-0.0168 0.1145 -0.9326 -0.245 0.939 0.241 66 45 24 0 0
0.0066 0.0849 -1.1670 -0.297 0.880 0.371 131 112 88 0 0
0.0065 0.0853 -1.1720 -0.340 0.458 0.821 110 96 75 0 0
0.0050 0.0879 -1.1760 -0.692 0.532 0.489 45 32 15 0 0
-0.0345 0.1600 -1.3076 -0.461 0.871 0.171 75 56 28 0 0
-0.0599 0.2062 -1.3883 -0.382 0.776 0.503 146 119 82 0 0
-0.0627 0.2112 -1.3962 -0.347 0.785 0.513 149 125 91 0 0
-0.1014 0.2826 -1.5465 -0.369 0.812 0.451 191 166 113 0 0
-0.1024 0.2845 -1.5507 -0.369 0.812 0.451 189 158 102 0 0
-0.1083 0.2953 -1.5710 -0.331 0.837 0.436 106 82 49 0 0
-0.1182 0.3131 -1.5975 -0.400 0.259 0.879 149 129 93 0 0
-0.1404 0.3511 -1.6101 -0.169 0.702 0.692 188 164 117 0 0
-0.1439 0.3571 -1.6115 -0.271 0.559 0.784 156 130 80 0 0
-0.1464 0.3613 -1.6140 -0.467 0.608 0.643 178 152 104 0 0
-0.1485 0.3651 -1.6169 -0.464 0.692 0.553 205 182 138 0 0
-0.1520 0.3720 -1.6447 -0.599 0.796 0.080 88 65 33 0 0
-0.1236 0.3282 -1.7424 -0.544 0.836 0.072 95 72 39 0 0
-0.1230 0.3301 -1.8094 -0.171 0.936 0.307 69 49 22 0 0
-0.1280 0.3397 -1.8367 -0.183 0.918 0.351 82 59 28 0 0
-0.1367 0.3588 -1.9444 -0.502 0.738 0.451 78 53 23 0 0
-0.2034 0.4835 -2.2392 -0.627 0.694 0.353 86 68 22 0 0
-0.2038 0.4843 -2.2447 -0.514 0.773 0.371 91 73 28 0 0
-0.2071 0.4902 -2.2513 -0.590 0.464 0.661 95 77 36 0 0
-0.2088 0.4933 -2.2545 -0.655 0.626 0.423 101 81 45 0 0
-0.2098 0.4951 -2.2589 -0.655 0.626 0.423 102 86 56 0 0
-0.2100 0.4957 -2.2646 -0.729 0.663 0.168 122 114 98 0 0
0.0058 0.0885 -1.0010 0.495 0.866 0.068 179 180 182 0 0
0.0057 0.0889 -1.0057 0.495 0.866 0.068 179 180 182 0 0
0.0102 0.0881 -1.1666 -0.497 0.766 0.409 132 114 89 0 0
-0.0002 0.1068 -1.1942 -0.740 0.477 0.474 55 40 15 0 0
-0.0130 0.1288 -1.2047 -0.013 0.582 0.813 99 78 40 0 0
-0.0812 0.2533 -1.4371 -0.332 0.872 0.360 115 92 60 0 0
-0.0918 0.2742 -1.5100 -0.480 0.771 0.418 100 72 34 0 0
-0.0955 0.2811 -1.5219 -0.556 0.769 0.317 63 39 15 0 0
-0.1354 0.3519 -1.6111 -0.469 0.666 0.580 170 143 96 0 0
-0.1483 0.3750 -1.6441 -0.465 0.883 0.066 94 71 38 0 0
-0.1173 0.3285 -1.7779 -0.496 0.800 0.338 62 40 18 0 0
-0.1784 0.4491 -2.1942 -0.605 0.726 0.327 85 63 26 0 0
-0.2034 0.4935 -2.2503 -0.590 0.464 0.661 93 75 36 0 0
-0.0094 0.1199 -0.9274 -0.307 0.941 0.144 79 58 35 0 0
-0.0082 0.1184 -0.9375 -0.327 0.875 0.356 67 49 25 0 0
0.0130 0.0854 -0.9980 0.448 0.861 -0.241 176 176 176 0 0
0.0141 0.0909 -1.1663 -0.520 0.835 0.179 100 83 58 0 0
-0.0089 0.1313 -1.2046 -0.254 0.464 0.849 88 68 31 0 0
-0.0763 0.2544 -1.4377 -0.458 0.779 0.428 101 79 44 0 0
-0.0773 0.2562 -1.4420 -0.475 0.707 0.524 97 74 35 0 0
-0.1136 0.3287 -1.7059 -0.469 0.856 0.219 111 89 52 0 0
-0.1139 0.3340 -1.8158 -0.282 0.941 0.187 61 40 14 0 0
-0.1249 0.3538 -1.8467 -0.318 0.723 0.614 96 73 39 0 0
-0.1748 0.4526 -2.1931 -0.407 0.828 0.385 85 62 28 0 0
0.0103 0.0941 -0.8894 0.349 0.814 0.465 121 109 92 0 0
0.0188 0.0924 -1.1667 -0.310 0.878 0.363 97 80 53 0 0
-0.0045 0.1331 -1.2048 -0.494 0.509 0.705 92 71 32 0 0
-0.0248 0.1679 -1.2243 -0.115 0.489 0.865 105 88 38 0 0
-0.0310 0.1784 -1.2295 -0.272 0.409 0.871 116 95 64 0 0
-0.0361 0.1875 -1.2404 -0.493 0.748 0.446 101 80 45 0 0
-0.0198 0.1638 -1.3196 -0.240 0.969 0.055 51 33 12 0 0
-0.0171 0.1601 -1.3373 -0.702 0.702 0.120 129 100 50 0 0
-0.0406 0.2010 -1.3737 -0.220 0.706 0.673 109 87 55 0 0
-0.0473 0.2129 -1.3883 -0.334 0.799 0.500 145 116 77 0 0
-0.0491 0.2160 -1.3919 -0.334 0.842 0.424 161 136 94 0 0
-0.0500 0.2178 -1.3962 -0.334 0.842 0.424 127 105 70 0 0
-0.0704 0.2533 -1.4291 -0.446 0.820 0.358 129 102 61 0 0
-0.0723 0.2568 -1.4376 -0.458 0.779 0.428 85 65 33 0 0
-0.0732 0.2585 -1.4419 -0.428 0.758 0.492 100 79 43 0 0
-0.0815 0.2767 -1.5382 -0.270 0.831 0.486 72 48 21 0 0
-0.0901 0.2921 -1.5611 -0.219 0.906 0.363 70 44 19 0 0
-0.0947 0.3002 -1.5667 -0.615 0.580 0.535 80 55 23 0 0
-0.0934 0.2983 -1.5734 -0.083 0.843 0.531 132 107 73 0 0
-0.1100 0.3317 -1.6999 -0.368 0.896 -0.248 117 94 57 0 0
-0.1097 0.3317 -1.7110 -0.350 0.896 0.272 92 73 39 0 0
-0.1101 0.3331 -1.7269 -0.579 0.756 0.305 87 68 34 0 0
-0.1182 0.3539 -1.8892 -0.340 0.917 0.208 93 70 38 0 0
-0.1682 0.4504 -2.1788 -0.300 0.837 0.459 85 62 28 0 0
-0.1775 0.4671 -2.2061 -0.367 0.653 0.663 85 65 28 0 0
-0.1789 0.4697 -2.2099 -0.528 0.751 0.396 85 65 28 0 0
-0.1899 0.4898 -2.2463 -0.378 0.769 0.515 95 76 32 0 0
0.0167 0.0925 -0.8907 0.186 0.776 0.603 115 103 87 0 0
0.0019 0.1189 -0.9293 -0.646 0.606 0.464 74 55 31 0 0
0.0010 0.1207 -0.9334 -0.542 0.756 0.368 67 50 26 0 0
0.0320 0.0726 -1.0094 -0.204 0.915 -0.349 180 181 182 0 0
0.0333 0.0707 -1.0151 -0.173 0.968 -0.183 179 180 182 0 0
-0.0294 0.1851 -1.2324 -0.250 0.640 0.727 176 153 118 0 0
-0.0313 0.1884 -1.2360 -0.250 0.640 0.727 106 86 54 0 0
-0.0318 0.1895 -1.2405 -0.401 0.783 0.475 101 80 44 0 0
-0.0124 0.1618 -1.3429 -0.187 0.659 0.728 162 134 75 0 0
-0.0536 0.2337 -1.4098 -0.291 0.687 0.666 183 155 106 0 0
-0.0788 0.2800 -1.5052 -0.288 0.629 0.722 136 109 73 0 0
-0.1127 0.3539 -1.8852 -0.380 0.863 0.332 93 70 38 0 0
-0.1177 0.3644 -1.9298 -0.320 0.844 0.431 83 60 29 0 0
-0.1296 0.3879 -2.0115 -0.022 0.869 0.494 77 51 24 0 0
-0.1387 0.4060 -2.0743 -0.613 0.449 0.650 85 62 31 0 0
-0.1775 0.4775 -2.2232 -0.594 0.727 0.346 80 60 25 0 0
-0.1781 0.4788 -2.2282 -0.592 0.698 0.402 85 65 27 0 0
-0.1828 0.4873 -2.2448 -0.194 0.903 0.384 87 69 23 0 0
-0.1840 0.4895 -2.2489 -0.373 0.706 0.601 94 76 32 0 0
0.0267 0.0851 -0.8939 -0.106 0.407 0.907 112 100 85 0 0
0.0091 0.1151 -0.9123 -0.435 0.819 0.374 89 68 38 0 0
0.0119 0.1241 -1.2007 -0.344 0.582 0.737 86 67 26 0 0
-0.0250 0.1870 -1.2326 -0.250 0.640 0.727 162 137 103 0 0
-0.0493 0.2356 -1.4099 -0.291 0.687 0.666 181 152 107 0 0
-0.0857 0.3045 -1.5887 -0.231 0.804 0.547 95 77 56 0 0
-0.1287 0.3773 -1.6161 -0.387 0.467 0.795 184 162 117 0 0
-0.1300 0.3806 -1.6410 -0.036 0.882 0.470 82 59 28 0 0
-0.1321 0.3842 -1.6439 -0.440 0.627 0.643 83 60 27 0 0
-0.0988 0.3325 -1.7194 -0.424 0.858 0.289 85 62 31 0 0
-0.0996 0.3353 -1.7513 -0.417 0.909 0.016 104 81 44 0 0
-0.1012 0.3407 -1.8101 -0.416 0.796 0.440 58 39 14 0 0
-0.1209 0.3822 -1.9943 -0.457 0.874 0.166 78 52 25 0 0
-0.1322 0.4055 -2.0892 -0.447 0.863 0.236 77 56 24 0 0
-0.1708 0.4752 -2.2090 -0.451 0.689 0.567 86 66 29 0 0
-0.1721 0.4779 -2.2190 -0.495 0.762 0.417 85 65 29 0 0
-0.1731 0.4797 -2.2234 -0.495 0.762 0.417 84 65 26 0 0
0.0320 0.0850 -0.8899 0.012 0.536 0.844 142 139 136 0 0
0.0283 0.0913 -0.8925 -0.442 0.277 0.853 110 98 85 0 0
0.0101 0.1244 -0.9528 -0.216 0.976 0.021 61 43 23 0 0
0.0105 0.1239 -0.9578 -0.299 0.948 0.108 70 50 28 0 0
-0.0141 0.1839 -1.3548 -0.483 0.631 0.607 115 89 53 0 0
-0.0226 0.1988 -1.3733 -0.510 0.801 0.314 77 57 26 0 0
-0.0378 0.2254 -1.4010 -0.085 0.855 0.511 208 176 134 0 0
-0.0521 0.2504 -1.4293 -0.319 0.776 0.544 118 89 43 0 0
-0.0702 0.2840 -1.5055 -0.004 0.906 0.422 104 75 40 0 0
-0.0802 0.3041 -1.5794 -0.354 0.862 0.363 63 42 20 0 0
-0.0811 0.3062 -1.5891 -0.430 0.898 0.091 110 89 63 0 0
-0.1263 0.3832 -1.6352 -0.174 0.846 0.503 85 61 30 0 0
-0.1271 0.3848 -1.6396 0.018 0.955 0.296 75 52 21 0 0
-0.1297 0.3892 -1.6420 -0.224 0.373 0.900 85 62 29 0 0
-0.0970 0.3432 -1.8100 -0.331 0.911 0.246 62 42 16 0 0
-0.1115 0.3734 -1.9381 -0.201 0.757 0.622 80 57 26 0 0
-0.1183 0.3872 -1.9921 -0.635 0.760 0.138 79 53 26 0 0
-0.1228 0.3949 -1.9975 -0.414 0.453 0.790 77 51 24 0 0
-0.1279 0.4073 -2.0774 -0.606 0.778 -0.166 82 58 27 0 0
-0.1480 0.4422 -2.1130 -0.416 0.762 0.497 79 56 25 0 0
-0.1687 0.4818 -2.2236 -0.366 0.819 0.441 86 66 29 0 0
0.0145 0.1253 -0.9388 -0.405 0.846 0.346 56 38 18 0 0
-0.0169 0.1923 -1.2424 -0.309 0.836 0.454 113 89 54 0 0
-0.0482 0.2530 -1.4291 -0.461 0.621 0.634 112 83 42 0 0
-0.0656 0.2861 -1.5163 0.038 0.987 0.156 68 44 20 0 0
-0.0750 0.3046 -1.5751 -0.438 0.851 0.291 140 115 84 0 0
-0.0784 0.3111 -1.5928 -0.410 0.636 0.654 101 78 47 0 0
-0.0800 0.3139 -1.5964 -0.410 0.636 0.654 100 83 52 0 0
-0.1222 0.3854 -1.6353 -0.381 0.763 0.522 80 58 26 0 0
-0.0898 0.3381 -1.7583 -0.486 0.845 0.223 122 97 59 0 0
-0.1191 0.3985 -2.0024 -0.406 0.867 0.291 76 50 23 0 0
-0.1207 0.4014 -2.0060 -0.632 0.775 0.012 73 47 20 0 0
-0.1233 0.4094 -2.0838 -0.487 0.852 0.193 79 56 25 0 0
-0.1227 0.4090 -2.0964 -0.426 0.776 0.465 95 72 38 0 0
-0.1245 0.4123 -2.0995 -0.177 0.911 0.372 99 76 36 0 0
-0.1446 0.4460 -2.1116 -0.290 0.762 0.579 80 57 26 0 0
-0.1669 0.4894 -2.2435 -0.263 0.893 0.365 87 68 25 0 0
-0.1802 0.5121 -2.2584 0.351 0.529 0.773 115 105 83 0 0
0.0400 0.0898 -0.8897 -0.244 0.633 0.735 118 111 102 0 0
0.0190 0.1269 -0.9390 -0.332 0.898 0.289 66 48 28 0 0
0.0676 0.0586 -1.1709 0.281 0.285 0.917 175 173 169 0 0
-0.0124 0.1938 -1.2427 -0.217 0.796 0.565 119 94 61 0 0
0.0065 0.1662 -1.3084 -0.722 0.371 0.584 66 49 25 0 0
-0.0311 0.2333 -1.4150 -0.453 0.821 0.347 134 106 63 0 0
-0.0440 0.2553 -1.4290 -0.338 0.795 0.504 116 89 48 0 0
-0.0539 0.2746 -1.4871 -0.097 0.905 0.415 122 93 59 0 0
-0.0714 0.3081 -1.5798 -0.438 0.851 0.291 60 40 20 0 0
-0.0724 0.3099 -1.5841 -0.430 0.898 0.091 79 60 39 0 0
-0.1180 0.3875 -1.6354 -0.381 0.763 0.522 90 67 36 0 0
-0.1172 0.3866 -1.6415 -0.221 0.972 0.083 87 64 33 0 0
-0.0983 0.3570 -1.6733 -0.315 0.696 -0.646 97 74 40 0 0
-0.0883 0.3414 -1.6898 -0.310 0.904 -0.294 107 87 52 0 0
-0.0857 0.3406 -1.7581 -0.283 0.910 0.302 112 87 48 0 0
-0.0862 0.3434 -1.7961 -0.411 0.864 0.290 101 76 41 0 0
-0.0973 0.3683 -1.9283 -0.185 0.944 0.271 87 64 33 0 0
-0.1040 0.3823 -1.9882 -0.571 0.697 0.434 82 58 30 0 0
-0.1194 0.4130 -2.0949 -0.367 0.819 0.441 98 74 41 0 0
-0.1271 0.4266 -2.1132 -0.397 0.654 0.644 95 70 34 0 0
-0.1617 0.4893 -2.2271 -0.372 0.859 0.352 86 66 28 0 0
-0.1644 0.4948 -2.2467 -0.415 0.840 0.349 92 74 31 0 0
-0.1744 0.5120 -2.2609 -0.701 0.242 0.671 119 108 88 0 0
0.0318 0.1278 -1.1928 -0.478 0.603 0.639 93 72 34 0 0
0.0283 0.1339 -1.2003 -0.281 0.675 0.682 123 100 55 0 0
0.0182 0.1549 -1.2837 -0.597 0.798 0.083 61 55 30 0 0
0.0108 0.1680 -1.3033 -0.378 0.801 0.464 61 43 20 0 0
0.0102 0.1692 -1.3080 -0.257 0.956 -0.143 79 58 34 0 0
0.0098 0.1701 -1.3128 -0.386 0.908 -0.165 66 45 21 0 0
0.0171 0.1587 -1.3239 0.005 0.838 -0.546 53 36 16 0 0
-0.0484 0.2747 -1.4884 -0.442 0.599 0.668 143 111 71 0 0
-0.0497 0.2770 -1.4923 -0.352 0.717 0.602 158 126 79 0 0
-0.0547 0.2858 -1.5031 -0.507 0.698 0.507 168 137 96 0 0
-0.0906 0.3498 -1.6028 -0.352 0.455 0.818 157 129 88 0 0
-0.1065 0.3767 -1.6172 -0.489 0.405 0.772 182 154 112 0 0
-0.1124 0.3868 -1.6265 -0.784 0.500 0.367 71 47 22 0 0
-0.1138 0.3892 -1.6303 -0.492 0.717 0.494 86 65 36 0 0
-0.0905 0.3535 -1.6773 -0.543 0.648 -0.534 98 75 43 0 0
-0.0784 0.3360 -1.7234 -0.421 0.861 0.284 76 52 27 0 0
-0.0790 0.3372 -1.7282 -0.421 0.861 0.284 96 73 41 0 0
-0.0818 0.3455 -1.7962 -0.411 0.864 0.290 95 73 36 0 0
-0.0853 0.3550 -1.8702 -0.430 0.784 0.448 90 67 35 0 0
-0.0865 0.3572 -1.8743 -0.489 0.792 0.366 93 70 38 0 0
-0.0930 0.3700 -1.9170 -0.353 0.855 0.381 87 64 33 0 0
-0.0964 0.3786 -1.9753 -0.607 0.646 0.463 84 60 32 0 0
-0.0977 0.3809 -1.9794 -0.631 0.590 0.504 83 59 31 0 0
-0.0990 0.3833 -1.9834 -0.571 0.697 0.434 84 60 32 0 0
-0.1011 0.3875 -1.9979 -0.398 0.893 0.211 78 54 26 0 0
-0.1503 0.4785 -2.1963 -0.394 0.803 0.447 82 62 27 0 0
-0.1560 0.4893 -2.2232 -0.518 0.773 0.365 83 64 23 0 0
-0.1573 0.4916 -2.2272 -0.650 0.559 0.514 85 66 25 0 0
-0.1622 0.5011 -2.2554 -0.618 0.770 0.161 95 79 38 0 0
-0.1631 0.5032 -2.2659 -0.279 0.917 0.284 90 76 44 0 0
0.0318 0.1255 -0.9748 -0.532 0.841 -0.098 82 61 33 0 0
0.0348 0.1317 -1.1869 -0.215 0.732 0.646 92 75 35 0 0
0.0332 0.1346 -1.1907 -0.215 0.732 0.646 93 71 31 0 0
0.0224 0.1571 -1.2837 -0.586 0.669 0.457 46 40 20 0 0
0.0197 0.1617 -1.2867 -0.588 0.689 0.423 45 36 19 0 0
0.0158 0.1688 -1.2988 -0.553 0.623 0.553 56 41 18 0 0
0.0175 0.1663 -1.3053 0.075 0.996 0.036 73 55 33 0 0
0.0175 0.1665 -1.3105 0.169 0.983 -0.064 76 55 33 0 0
0.0176 0.1666 -1.3157 -0.016 0.959 -0.282 71 50 24 0 0
0.0183 0.1675 -1.3523 -0.305 0.836 0.456 136 108 68 0 0
-0.0611 0.3092 -1.5766 -0.251 0.846 0.470 87 65 33 0 0
-0.0852 0.3498 -1.5989 -0.594 0.458 0.661 152 126 82 0 0
-0.0867 0.3524 -1.6025 -0.352 0.455 0.818 163 134 88 0 0
-0.1003 0.3752 -1.6143 -0.052 0.399 0.916 180 153 109 0 0
-0.1044 0.3824 -1.6203 -0.263 0.478 0.838 159 132 93 0 0
-0.1121 0.3951 -1.6223 -0.081 0.996 -0.031 74 51 24 0 0
-0.0901 0.3614 -1.6678 -0.507 0.660 -0.555 90 67 35 0 0
-0.0875 0.3577 -1.6759 -0.564 0.639 -0.524 96 73 41 0 0
-0.0740 0.3381 -1.7235 -0.421 0.861 0.284 68 44 23 0 0
-0.0761 0.3428 -1.7484 -0.429 0.893 0.137 101 80 47 0 0
-0.0756 0.3453 -1.8097 -0.025 0.859 0.511 73 53 26 0 0
-0.0764 0.3468 -1.8143 -0.138 0.894 0.427 66 46 19 0 0
-0.0795 0.3526 -1.8272 -0.484 0.819 0.306 89 66 34 0 0
-0.0873 0.3687 -1.8904 -0.314 0.732 0.604 92 69 37 0 0
-0.0959 0.3882 -1.9933 -0.444 0.869 0.219 78 54 26 0 0
-0.1511 0.4907 -2.2242 -0.481 0.710 0.515 83 64 22 0 0
-0.1595 0.5066 -2.2648 -0.586 0.751 0.302 90 77 46 0 0
-0.1595 0.5069 -2.2708 0.001 0.992 0.128 128 121 106 0 0
0.0357 0.1280 -0.9747 -0.532 0.841 -0.098 83 62 36 0 0
0.0711 0.0740 -1.0447 -0.771 0.616 -0.159 180 182 182 0 0
0.0241 0.1635 -1.2816 -0.386 0.895 0.225 45 40 21 0 0
0.0233 0.1650 -1.2861 -0.186 0.918 0.349 36 29 10 0 0
0.0199 0.1713 -1.2987 -0.159 0.885 0.438 67 52 31 0 0
0.0349 0.1489 -1.3366 -0.075 0.917 0.391 105 81 43 0 0
0.0232 0.1688 -1.3528 -0.493 0.730 0.474 125 99 62 0 0
-0.0556 0.3094 -1.5779 -0.267 0.577 0.772 87 66 36 0 0
-0.0618 0.3203 -1.5926 -0.383 0.727 0.570 92 73 42 0 0
-0.0896 0.3667 -1.6107 0.048 0.566 0.823 135 109 65 0 0
-0.0946 0.3750 -1.6159 -0.119 0.437 0.892 184 159 115 0 0
-0.0986 0.3816 -1.6169 -0.085 0.678 0.730 199 173 131 0 0
-0.0682 0.3370 -1.7090 -0.388 0.915 0.105 76 57 33 0 0
-0.0673 0.3382 -1.7592 -0.351 0.907 -0.233 114 91 53 0 0
-0.0682 0.3415 -1.7912 -0.225 0.650 0.725 84 63 32 0 0
-0.0682 0.3418 -1.7968 -0.526 0.770 0.361 83 62 31 0 0
-0.0760 0.3563 -1.8320 -0.353 0.906 0.234 90 67 35 0 0
-0.0858 0.3793 -1.9608 -0.316 0.910 0.270 91 67 41 0 0
-0.0865 0.3807 -1.9655 -0.444 0.795 0.413 91 67 41 0 0
-0.0915 0.3900 -1.9877 -0.438 0.815 0.381 81 57 29 0 0
-0.0919 0.3911 -1.9928 -0.435 0.900 0.022 78 54 26 0 0
-0.1069 0.4210 -2.0941 -0.461 0.842 0.281 83 60 35 0 0
-0.1112 0.4292 -2.1174 -0.495 0.650 0.577 86 63 31 0 0
-0.1410 0.4834 -2.2212 -0.426 0.722 0.545 82 62 24 0 0
0.0756 0.0763 -1.0547 -0.804 0.592 -0.056 179 181 182 0 0
0.0814 0.0687 -1.0881 -0.982 0.146 -0.117 181 182 184 0 0
0.0817 0.0686 -1.0933 -0.975 0.176 -0.133 182 183 185 0 0
0.0276 0.1630 -1.2104 -0.387 0.670 0.634 146 114 69 0 0
0.0256 0.1664 -1.2140 -0.320 0.572 0.755 165 134 89 0 0
0.0320 0.1636 -1.3514 -0.630 0.251 0.735 129 102 61 0 0
0.0204 0.1827 -1.3573 -0.108 0.822 0.560 127 103 69 0 0
-0.0412 0.2931 -1.5407 -0.302 0.753 0.585 76 51 17 0 0
-0.0635 0.3387 -1.7095 -0.448 0.869 0.208 73 56 33 0 0
-0.0638 0.3394 -1.7146 -0.320 0.894 0.315 58 39 16 0 0
-0.0662 0.3440 -1.7282 -0.371 0.832 0.412 73 52 25 0 0
-0.0645 0.3425 -1.7520 -0.150 0.914 0.377 103 82 47 0 0
-0.0616 0.3399 -1.7884 -0.335 0.716 0.613 83 62 33 0 0
-0.0820 0.3828 -1.9657 -0.355 0.839 0.413 89 66 39 0 0
-0.0830 0.3846 -1.9702 -0.355 0.839 0.413 86 62 34 0 0
-0.0840 0.3866 -1.9746 -0.324 0.757 0.567 84 60 32 0 0
-0.0871 0.3923 -1.9877 -0.439 0.821 0.364 82 58 30 0 0
-0.1221 0.4596 -2.1778 -0.228 0.811 0.538 84 61 29 0 0
0.0783 0.0811 -1.0537 -0.775 0.627 -0.078 181 182 183 0 0
0.0797 0.0810 -1.0942 -0.612 0.791 0.005 183 184 186 0 0
0.0844 0.0739 -1.1022 -0.996 -0.069 0.062 183 184 186 0 0
0.0314 0.1659 -1.2101 -0.260 0.776 0.575 163 137 90 0 0
0.0301 0.1682 -1.2141 -0.344 0.674 0.654 153 126 76 0 0
0.0284 0.1711 -1.2179 -0.155 0.719 0.677 149 125 79 0 0
0.0237 0.1868 -1.3617 -0.285 0.708 0.646 117 94 64 0 0
-0.0116 0.2470 -1.4137 -0.362 0.575 0.734 131 105 65 0 0
-0.0591 0.3409 -1.7152 -0.247 0.807 0.536 80 60 35 0 0
-0.0611 0.3450 -1.7292 -0.237 0.885 0.401 66 45 19 0 0
-0.0625 0.3477 -1.7386 -0.383 0.912 0.150 75 53 27 0 0
-0.0595 0.3437 -1.7529 -0.150 0.914 0.377 104 83 46 0 0
-0.0590 0.3451 -1.7920 -0.177 0.741 0.648 84 64 31 0 0
-0.0754 0.3810 -1.9573 -0.189 0.943 0.275 87 66 37 0 0
-0.0799 0.3895 -1.9801 -0.088 0.861 0.501 86 60 33 0 0
-0.0828 0.3953 -1.9992 -0.401 0.884 0.242 79 55 27 0 0
-0.0865 0.4023 -2.0173 -0.958 0.283 0.050 74 50 24 0 0
-0.0970 0.4240 -2.1018 -0.298 0.804 0.515 93 70 38 0 0
-0.1466 0.5136 -2.2649 -0.843 0.532 0.078 95 87 67 0 0
0.0453 0.1342 -0.8932 -0.482 0.810 0.334 182 151 118 0 0
0.0511 0.1274 -0.9386 -0.561 0.792 0.240 77 56 32 0 0
0.0507 0.1285 -0.9430 -0.561 0.792 0.240 76 58 34 0 0
0.0813 0.0853 -1.0529 -0.786 0.604 -0.129 165 162 162 0 0
0.0835 0.0840 -1.0939 -0.612 0.791 0.005 181 181 183 0 0
0.0797 0.0912 -1.1113 0.072 0.996 0.044 160 160 159 0 0
-0.0094 0.2526 -1.4170 -0.362 0.575 0.734 117 92 51 0 0
-0.0434 0.3174 -1.5881 -0.426 0.763 0.486 62 44 24 0 0
-0.0532 0.3402 -1.7116 -0.197 0.689 0.698 69 51 26 0 0
-0.0538 0.3447 -1.7710 -0.179 0.974 0.141 60 39 15 0 0
-0.0529 0.3442 -1.7887 -0.544 0.765 0.345 86 66 34 0 0
-0.0710 0.3838 -1.9688 -0.322 0.861 0.394 86 65 36 0 0
-0.0773 0.3958 -2.0008 -0.189 0.943 0.275 79 55 27 0 0
-0.0806 0.4013 -2.0022 -0.597 0.792 0.125 78 55 25 0 0
-0.0988 0.4382 -2.1342 -0.402 0.862 0.309 78 55 23 0 0
-0.1004 0.4411 -2.1377 -0.535 0.837 0.115 78 55 23 0 0
-0.1079 0.4544 -2.1624 -0.385 0.845 0.370 83 60 28 0 0
-0.1087 0.4561 -2.1671 -0.385 0.845 0.370 83 60 28 0 0
-0.1168 0.4702 -2.1847 0.018 0.881 0.474 80 57 25 0 0
-0.1183 0.4728 -2.1884 -0.190 0.866 0.462 80 57 25 0 0
-0.1381 0.5097 -2.2714 -0.401 0.913 -0.071 101 93 74 0 0
0.0562 0.1271 -0.9203 -0.489 0.838 0.242 76 56 29 0 0
0.0593 0.1371 -1.1792 -0.438 0.645 0.626 142 116 74 0 0
-0.0102 0.2645 -1.4435 -0.407 0.874 0.266 101 79 42 0 0
-0.0741 0.3775 -1.6149 -0.309 0.514 0.801 163 137 94 0 0
-0.0497 0.3475 -1.7764 -0.322 0.928 0.187 72 51 26 0 0
-0.0488 0.3468 -1.7884 -0.278 0.893 0.355 92 71 40 0 0
-0.0501 0.3492 -1.7924 0.111 0.900 0.421 88 67 35 0 0
-0.0526 0.3566 -1.8506 -0.474 0.795 0.378 78 57 25 0 0
-0.0583 0.3684 -1.8942 -0.442 0.873 0.206 84 60 32 0 0
-0.0591 0.3699 -1.8989 -0.544 0.788 0.288 85 61 33 0 0
-0.0596 0.3709 -1.9040 -0.278 0.926 0.254 85 62 31 0 0
-0.0653 0.3821 -1.9364 -0.284 0.892 0.353 72 48 23 0 0
-0.0669 0.3855 -1.9514 -0.383 0.840 0.386 78 54 26 0 0
-0.0732 0.3985 -2.0006 -0.063 0.865 0.497 79 55 27 0 0
-0.0762 0.4035 -2.0023 -0.501 0.815 0.290 78 55 25 0 0
-0.0792 0.4088 -2.0098 -0.702 0.705 -0.103 78 54 26 0 0
-0.0876 0.4253 -2.0620 -0.393 0.890 0.231 78 55 24 0 0
-0.1039 0.4574 -2.1619 -0.734 0.516 0.442 83 60 28 0 0
0.0621 0.1266 -0.9260 -0.456 0.804 0.382 76 54 27 0 0
0.0613 0.1281 -0.9302 -0.456 0.804 0.382 85 64 40 0 0
0.0584 0.1357 -0.9807 -0.490 0.857 0.159 82 61 33 0 0
0.0633 0.1397 -1.1791 -0.438 0.645 0.626 137 110 65 0 0
-0.0076 0.2695 -1.4472 -0.310 0.886 0.346 92 69 35 0 0
-0.0259 0.3038 -1.5288 -0.367 0.862 -0.350 69 47 22 0 0
-0.0734 0.3857 -1.6217 -0.238 0.776 0.585 152 129 79 0 0
-0.0569 0.3627 -1.6820 -0.088 0.823 -0.561 100 79 49 0 0
-0.0431 0.3443 -1.7461 -0.534 0.806 0.255 90 69 37 0 0
-0.0457 0.3502 -1.7761 -0.447 0.884 0.136 73 52 27 0 0
-0.0445 0.3488 -1.7829 -0.363 0.902 0.233 82 61 34 0 0
-0.0497 0.3628 -1.8769 -0.175 0.796 0.580 87 66 34 0 0
-0.0555 0.3736 -1.9037 -0.501 0.788 0.358 83 60 29 0 0
-0.0600 0.3815 -1.9150 -0.496 0.793 0.355 83 60 30 0 0
-0.0606 0.3838 -1.9369 -0.284 0.892 0.353 72 48 24 0 0
-0.0611 0.3848 -1.9420 -0.502 0.823 0.266 71 49 25 0 0
-0.0937 0.4487 -2.1350 -0.187 0.929 0.319 78 55 24 0 0
-0.1193 0.4958 -2.2333 -0.303 0.857 0.418 91 72 31 0 0
0.0662 0.1288 -0.9259 -0.456 0.804 0.382 83 64 34 0 0
0.0672 0.1321 -1.0073 -0.772 0.241 -0.589 97 74 42 0 0
0.0865 0.1055 -1.0777 -0.654 0.755 -0.039 44 36 24 0 0
0.0867 0.1054 -1.0827 -0.654 0.755 -0.039 43 35 24 0 0
0.0673 0.1423 -1.1789 -0.438 0.645 0.626 125 98 56 0 0
0.0656 0.1452 -1.1827 -0.402 0.711 0.577 162 132 88 0 0
-0.0030 0.2712 -1.4476 -0.328 0.876 0.355 88 66 29 0 0
-0.0038 0.2727 -1.4520 -0.214 0.782 0.586 91 69 33 0 0
-0.0237 0.3119 -1.5741 -0.446 0.309 0.840 112 86 53 0 0
-0.0260 0.3159 -1.5770 -0.032 0.853 0.521 101 77 44 0 0
-0.0276 0.3186 -1.5808 -0.159 0.787 0.596 69 48 24 0 0
-0.0381 0.3367 -1.6018 0.007 0.507 0.862 125 100 68 0 0
-0.0371 0.3416 -1.7099 -0.047 0.906 0.420 93 74 44 0 0
-0.0391 0.3470 -1.7458 -0.471 0.843 0.260 85 64 34 0 0
-0.0398 0.3531 -1.8277 -0.360 0.813 0.459 88 66 34 0 0
-0.0541 0.3828 -1.9397 -0.322 0.860 0.395 70 47 23 0 0
-0.0550 0.3845 -1.9442 -0.322 0.860 0.395 68 46 22 0 0
-0.0562 0.3870 -1.9541 -0.144 0.795 0.589 79 58 30 0 0
-0.0608 0.3971 -1.9997 0.110 0.960 0.257 79 57 30 0 0
-0.0881 0.4492 -2.1367 -0.722 0.512 0.465 74 51 19 0 0
-0.0932 0.4591 -2.1648 -0.476 0.716 0.511 82 59 27 0 0
-0.0944 0.4613 -2.1689 -0.476 0.716 0.511 80 57 25 0 0
0.0718 0.1284 -0.9221 -0.341 0.752 0.564 84 63 34 0 0
0.0668 0.1381 -0.9523 -0.284 0.933 0.222 27 19 8 0 0
0.0683 0.1378 -0.9864 -0.241 0.919 0.312 70 48 25 0 0
0.0685 0.1378 -0.9913 -0.396 0.918 0.027 76 55 31 0 0
0.0698 0.1475 -1.1827 -0.402 0.711 0.577 148 124 82 0 0
0.0805 0.1404 -1.3439 0.317 0.868 0.383 136 108 68 0 0
0.0043 0.2680 -1.4400 -0.383 0.700 0.603 96 72 36 0 0
0.0010 0.2737 -1.4474 -0.396 0.851 0.346 95 73 36 0 0
-0.0193 0.3140 -1.5743 -0.440 0.568 0.696 95 70 36 0 0
-0.0209 0.3167 -1.5780 -0.032 0.853 0.521 103 79 46 0 0
-0.0520 0.3722 -1.6729 -0.191 0.730 -0.656 94 75 45 0 0
-0.0323 0.3430 -1.7106 -0.116 0.893 0.436 94 73 47 0 0
-0.0346 0.3479 -1.7297 -0.477 0.794 0.376 65 47 24 0 0
-0.0353 0.3527 -1.7892 -0.625 0.617 0.478 85 63 34 0 0
-0.0555 0.3984 -2.0067 0.179 0.835 0.521 77 56 29 0 0
-0.0839 0.4514 -2.1307 -0.696 0.585 0.416 74 51 20 0 0
-0.0847 0.4530 -2.1354 -0.721 0.566 0.399 69 46 14 0 0
-0.1105 0.5002 -2.2336 -0.521 0.598 0.610 88 69 29 0 0
0.0760 0.1303 -0.9221 -0.341 0.752 0.564 75 54 25 0 0
0.0719 0.1417 -1.0004 -0.478 0.869 -0.126 93 72 41 0 0
0.0920 0.1163 -1.1054 -0.723 0.689 0.051 29 24 16 0 0
0.0906 0.1188 -1.1094 -0.545 0.763 0.348 26 22 16 0 0
0.0822 0.1352 -1.1584 -0.462 0.878 0.125 106 82 40 0 0
-0.0027 0.2913 -1.4920 0.069 0.907 0.416 154 125 81 0 0
-0.0270 0.3437 -1.7117 -0.326 0.897 0.300 95 75 50 0 0
-0.0311 0.3552 -1.7891 -0.551 0.608 0.572 85 63 33 0 0
-0.0495 0.3975 -1.9974 -0.063 0.960 0.273 74 55 27 0 0
-0.0801 0.4545 -2.1300 -0.722 0.512 0.465 68 45 14 0 0
-0.1078 0.5050 -2.2311 -0.471 0.788 0.397 94 75 35 0 0
0.1315 0.0493 -0.8973 0.216 0.122 0.969 177 177 179 0 0
0.0785 0.1396 -0.9923 -0.221 0.855 0.469 77 55 32 0 0
0.0763 0.1438 -1.0053 -0.492 0.867 -0.075 82 61 32 0 0
0.0866 0.1379 -1.1685 -0.569 0.671 0.476 116 91 50 0 0
0.0759 0.1569 -1.2010 -0.274 0.823 0.497 82 64 37 0 0
0.0747 0.1590 -1.2052 -0.274 0.823 0.497 75 56 26 0 0
0.0936 0.1378 -1.3423 0.401 0.872 0.281 111 91 56 0 0
0.0904 0.1434 -1.3501 0.018 0.428 0.904 118 97 63 0 0
0.0916 0.1420 -1.3563 -0.288 0.538 0.792 111 91 55 0 0
0.0260 0.2495 -1.4105 -0.494 0.753 0.435 131 106 74 0 0
0.0217 0.2575 -1.4273 -0.657 0.666 0.354 103 79 44 0 0
0.0064 0.2854 -1.4861 0.070 0.878 0.474 140 111 66 0 0
0.0052 0.2877 -1.4902 0.070 0.878 0.474 150 120 75 0 0
-0.0242 0.3486 -1.7156 -0.372 0.920 0.125 59 40 19 0 0
-0.0278 0.3562 -1.7441 -0.579 0.807 0.121 90 70 41 0 0
-0.0282 0.3660 -1.8878 -0.471 0.871 -0.138 91 70 39 0 0
-0.0441 0.3982 -1.9988 -0.063 0.960 0.273 73 54 24 0 0
-0.0502 0.4093 -2.0195 -0.163 0.932 0.323 74 53 26 0 0
-0.0770 0.4591 -2.1341 -0.622 0.682 0.384 68 45 14 0 0
-0.0983 0.4984 -2.2212 -0.436 0.858 0.270 84 66 28 0 0
-0.1075 0.5149 -2.2488 -0.297 0.809 0.507 88 70 30 0 0
0.0818 0.1399 -0.9443 -0.243 0.947 0.211 76 53 27 0 0
0.0815 0.1408 -0.9488 -0.243 0.947 0.211 76 59 32 0 0
0.0844 0.1387 -0.9885 -0.270 0.771 0.577 67 49 28 0 0
0.0832 0.1409 -0.9926 -0.392 0.813 0.431 76 55 31 0 0
0.0904 0.1401 -1.1582 -0.523 0.822 0.224 137 113 74 0 0
0.0903 0.1409 -1.1681 -0.569 0.671 0.476 78 54 18 0 0
0.0304 0.2522 -1.4210 -0.291 0.862 0.414 116 92 58 0 0
-0.0109 0.3285 -1.5912 -0.210 0.883 0.421 70 54 36 0 0
-0.0551 0.4010 -1.6298 -0.255 0.896 0.364 72 52 25 0 0
-0.0480 0.3917 -1.6583 -0.376 0.715 -0.589 86 66 36 0 0
-0.0238 0.3589 -1.7439 -0.328 0.940 0.090 97 77 45 0 0
-0.0212 0.3577 -1.7907 0.065 0.974 0.216 87 64 33 0 0
-0.0230 0.3641 -1.8440 -0.515 0.843 0.153 78 57 26 0 0
-0.0235 0.3656 -1.8545 -0.531 0.804 0.266 84 64 32 0 0
-0.0253 0.3697 -1.8748 -0.477 0.796 0.372 94 73 42 0 0
-0.0338 0.3877 -1.9434 -0.441 0.809 0.389 68 46 23 0 0
-0.0343 0.3886 -1.9486 -0.417 0.861 0.291 70 48 24 0 0
-0.0357 0.3912 -1.9525 -0.475 0.786 0.396 75 54 27 0 0
-0.0354 0.3911 -1.9586 -0.538 0.836 0.110 78 57 28 0 0
-0.0360 0.3923 -1.9636 -0.345 0.861 0.374 76 55 26 0 0
-0.0366 0.3937 -1.9684 -0.304 0.931 0.202 75 54 25 0 0
-0.0384 0.3978 -1.9890 -0.526 0.840 -0.134 74 55 25 0 0
-0.0388 0.3991 -2.0000 -0.391 0.904 0.173 72 53 23 0 0
-0.0392 0.4002 -2.0052 -0.052 0.863 0.502 72 53 23 0 0
-0.0452 0.4106 -2.0205 -0.163 0.932 0.323 73 52 25 0 0
-0.0526 0.4251 -2.0627 -0.329 0.601 0.728 73 52 26 0 0
-0.0548 0.4299 -2.0829 -0.497 0.820 0.285 77 56 28 0 0
-0.0755 0.4668 -2.1478 -0.171 0.886 0.432 80 57 24 0 0
-0.0767 0.4690 -2.1519 -0.347 0.735 0.582 80 57 24 0 0
-0.0992 0.5105 -2.2430 -0.237 0.909 0.342 92 74 34 0 0
-0.1015 0.5143 -2.2455 -0.294 0.790 0.539 89 71 31 0 0
-0.1069 0.5246 -2.2731 -0.178 0.949 -0.260 164 161 157 0 0
0.0885 0.1410 -0.9885 -0.646 0.617 0.450 71 53 32 0 0
0.0921 0.1367 -1.0097 -0.083 0.889 0.450 71 53 31 0 0
0.0942 0.1437 -1.1679 -0.669 0.655 0.353 69 47 21 0 0
0.0971 0.1518 -1.3590 -0.225 0.381 0.897 89 72 45 0 0
0.0202 0.2805 -1.4702 -0.166 0.977 0.137 74 51 21 0 0
0.0197 0.2826 -1.4906 -0.673 0.708 0.211 141 114 70 0 0
0.0165 0.2878 -1.4928 -0.699 0.714 -0.036 156 127 82 0 0
-0.0058 0.3298 -1.5974 -0.283 0.935 0.213 97 75 50 0 0
-0.0169 0.3641 -1.8517 -0.379 0.916 0.132 83 62 31 0 0
-0.0207 0.3712 -1.8696 -0.601 0.798 -0.052 91 70 39 0 0
-0.0288 0.3879 -1.9273 -0.433 0.774 0.462 70 48 24 0 0
-0.0315 0.3937 -1.9524 -0.475 0.786 0.396 76 55 26 0 0
-0.0319 0.3950 -1.9633 -0.425 0.887 0.182 78 57 28 0 0
-0.0322 0.3959 -1.9685 -0.425 0.887 0.182 74 53 24 0 0
-0.0319 0.3958 -1.9746 -0.397 0.917 -0.037 76 55 26 0 0
-0.0331 0.3995 -2.0017 -0.516 0.827 0.223 72 53 23 0 0
-0.0330 0.3997 -2.0077 -0.216 0.789 0.575 72 53 23 0 0
-0.0930 0.5097 -2.2399 -0.273 0.910 0.313 94 75 35 0 0
-0.1013 0.5251 -2.2750 -0.178 0.949 -0.260 168 167 164 0 0
0.0954 0.1402 -1.0092 -0.711 0.698 0.089 68 51 30 0 0
0.0949 0.1449 -1.0669 -0.087 0.992 0.088 29 18 5 0 0
0.0972 0.1420 -1.0781 -0.424 0.905 -0.033 36 24 13 0 0
0.0980 0.1411 -1.0835 -0.572 0.818 0.058 26 17 6 0 0
0.0876 0.1764 -1.3687 -0.096 0.783 0.615 89 72 46 0 0
0.0417 0.2514 -1.4079 -0.182 0.927 0.328 139 116 82 0 0
0.0397 0.2554 -1.4217 -0.281 0.878 0.386 120 94 66 0 0
0.0387 0.2573 -1.4260 -0.278 0.874 0.399 116 92 62 0 0
0.0256 0.2819 -1.4869 -0.384 0.898 0.216 135 105 61 0 0
0.0254 0.2826 -1.4920 -0.501 0.838 0.216 142 115 74 0 0
0.0253 0.2830 -1.4971 -0.650 0.718 0.249 155 126 83 0 0
-0.0118 0.3652 -1.8526 -0.319 0.907 0.276 82 61 32 0 0
-0.0130 0.3677 -1.8624 -0.319 0.907 0.276 87 66 36 0 0
-0.0132 0.3692 -1.8790 -0.045 0.975 0.219 91 70 39 0 0
-0.0160 0.3745 -1.8925 -0.563 0.812 0.153 85 64 34 0 0
-0.0155 0.3741 -1.8987 -0.273 0.891 0.364 83 62 33 0 0
-0.0289 0.4020 -2.0016 -0.510 0.849 0.141 72 53 23 0 0
-0.0296 0.4035 -2.0064 -0.368 0.888 0.275 73 54 24 0 0
-0.0892 0.5133 -2.2450 -0.301 0.934 0.191 86 68 28 0 0
-0.0990 0.5288 -2.2482 -0.167 0.750 0.640 85 67 30 0 0
-0.0962 0.5263 -2.2762 -0.009 0.999 0.046 175 174 173 0 0
0.0928 0.1473 -0.9247 -0.336 0.910 0.243 76 53 30 0 0
0.0952 0.1475 -0.9828 -0.340 0.895 0.290 66 48 26 0 0
0.1549 0.0776 -1.3342 -0.159 0.986 0.047 195 197 195 0 0
0.0927 0.1776 -1.3693 -0.071 0.891 0.448 83 66 40 0 0
0.0909 0.1807 -1.3730 -0.067 0.912 0.405 100 83 53 0 0
0.0894 0.1833 -1.3770 -0.116 0.837 0.535 106 88 58 0 0
0.0682 0.2178 -1.3959 -0.281 0.738 0.613 150 123 83 0 0
0.0323 0.2804 -1.4892 -0.409 0.709 0.574 136 108 64 0 0
0.0310 0.2829 -1.4932 -0.409 0.709 0.574 149 120 79 0 0
0.0255 0.2917 -1.4986 -0.249 0.946 0.206 103 81 43 0 0
0.0398 0.2738 -1.5648 -0.212 0.550 0.808 157 124 74 0 0
-0.0002 0.3390 -1.5998 -0.130 0.498 0.857 125 102 65 0 0
-0.0913 0.5263 -2.2532 -0.115 0.919 0.376 85 67 30 0 0
-0.0948 0.5322 -2.2598 0.109 0.782 0.613 98 86 64 0 0
-0.1006 0.5431 -2.2867 0.141 0.944 0.300 206 206 209 0 0
0.1421 0.1078 -1.3474 0.455 0.605 0.654 85 73 57 0 0
0.0362 0.2836 -1.4941 -0.489 0.516 0.703 151 122 81 0 0
0.0338 0.2875 -1.4972 -0.467 0.723 0.509 144 118 78 0 0
-0.0000 0.3640 -1.8396 -0.334 0.881 0.336 75 56 25 0 0
-0.0023 0.3682 -1.8481 -0.290 0.816 0.499 71 50 21 0 0
-0.0028 0.3693 -1.8531 -0.322 0.941 0.103 82 61 32 0 0
-0.0152 0.4009 -2.0311 0.153 0.923 0.352 75 54 26 0 0
-0.0851 0.5255 -2.2501 -0.436 0.664 0.607 84 66 27 0 0
0.1055 0.1497 -0.9983 -0.381 0.903 0.198 67 49 29 0 0
0.1058 0.1495 -1.0032 -0.312 0.847 0.431 65 48 28 0 0
0.1056 0.1503 -1.0078 -0.558 0.629 0.542 56 39 19 0 0
0.1094 0.1541 -1.1467 -0.258 0.885 0.389 58 40 18 0 0
0.0846 0.2109 -1.4076 -0.435 0.538 0.722 134 109 73 0 0
0.0510 0.2738 -1.5566 0.212 0.969 0.124 152 127 84 0 0
0.0051 0.3687 -1.8909 -0.393 0.868 0.305 86 65 34 0 0
-0.0762 0.5212 -2.2569 -0.058 0.852 0.521 83 65 26 0 0
-0.0830 0.5323 -2.2646 -0.147 0.916 -0.374 124 118 102 0 0
0.1157 0.1542 -1.1631 -0.389 0.710 0.587 50 31 8 0 0
0.1144 0.1565 -1.1672 -0.258 0.840 0.477 56 36 13 0 0
0.0119 0.3565 -1.7386 -0.169 0.852 0.495 81 63 37 0 0
-0.0082 0.4087 -2.0346 -0.033 0.929 0.369 75 56 25 0 0
-0.0064 0.4065 -2.0427 -0.144 0.954 0.262 96 78 43 0 0
-0.0067 0.4073 -2.0481 -0.098 0.911 0.401 98 77 41 0 0
-0.0077 0.4092 -2.0526 -0.098 0.911 0.401 116 90 58 0 0
-0.0089 0.4114 -2.0568 -0.253 0.929 0.272 105 80 50 0 0
-0.0770 0.5323 -2.2671 -0.147 0.916 -0.374 138 132 119 0 0
0.1138 0.1548 -1.0078 -0.329 0.891 0.313 62 43 25 0 0
0.1157 0.1523 -1.0137 -0.247 0.922 0.299 62 45 25 0 0
0.1158 0.1525 -1.0185 -0.446 0.825 0.347 65 48 28 0 0
0.1229 0.1459 -1.0811 -0.233 0.857 0.459 58 40 20 0 0
0.1218 0.1479 -1.0853 -0.233 0.857 0.459 60 44 20 0 0
0.1201 0.1555 -1.1532 -0.504 0.784 0.362 54 36 13 0 0
0.0614 0.2703 -1.4845 -0.220 0.837 0.501 101 79 45 0 0
0.0200 0.3524 -1.7318 -0.490 0.859 0.148 55 42 25 0 0
-0.0122 0.4233 -2.0239 -0.829 0.547 0.119 85 64 34 0 0
-0.0639 0.5206 -2.2624 0.101 0.799 0.593 84 67 31 0 0
-0.0664 0.5247 -2.2646 0.055 0.729 0.683 88 72 44 0 0
0.1204 0.1536 -1.0140 -0.247 0.922 0.299 69 51 32 0 0
0.1199 0.1547 -1.0185 -0.446 0.825 0.347 67 50 30 0 0
0.1213 0.1641 -1.1760 -0.569 0.820 0.062 67 49 25 0 0
0.0660 0.2721 -1.4848 -0.364 0.854 0.371 109 87 52 0 0
-0.0100 0.4288 -2.0212 -0.906 0.401 0.133 93 69 40 0 0
-0.0392 0.4847 -2.1676 -0.587 0.809 0.038 80 57 23 0 0
-0.0638 0.5308 -2.2799 -0.153 0.987 -0.040 187 187 186 0 0
-0.0618 0.5284 -2.2889 -0.299 0.912 0.282 196 197 197 0 0
0.1307 0.1514 -1.0807 -0.436 0.883 0.174 58 41 21 0 0
0.1272 0.1643 -1.1821 -0.140 0.984 -0.110 72 56 33 0 0
0.1929 0.0768 -1.3694 0.567 0.449 0.690 197 198 199 0 0
0.0612 0.2909 -1.5185 -0.039 0.782 0.622 93 72 37 0 0
0.0115 0.4017 -1.9797 -0.481 0.859 0.178 86 65 34 0 0
0.0006 0.4199 -2.0005 -0.278 0.957 0.085 86 65 34 0 0
-0.0230 0.4669 -2.1429 0.365 0.927 0.085 80 57 25 0 0
-0.0603 0.5339 -2.2727 -0.034 0.994 0.105 172 172 164 0 0
-0.0581 0.5313 -2.2819 -0.162 0.977 0.140 189 190 188 0 0
0.1349 0.1558 -1.1101 -0.564 0.717 0.409 60 42 22 0 0
0.1310 0.1667 -1.1769 -0.113 0.993 -0.046 67 51 26 0 0
0.0980 0.2350 -1.4113 -0.232 0.558 0.796 116 93 60 0 0
0.0960 0.2384 -1.4149 -0.100 0.711 0.696 123 99 63 0 0
0.0824 0.2699 -1.5552 -0.169 0.965 0.199 178 146 93 0 0
-0.0160 0.4660 -2.1524 0.356 0.905 0.234 81 58 26 0 0
-0.0228 0.4769 -2.1608 -0.244 0.882 0.404 82 59 27 0 0
-0.0398 0.5071 -2.2133 -0.797 0.564 0.216 85 62 27 0 0
-0.0422 0.5122 -2.2336 -0.737 0.512 0.441 88 68 31 0 0
-0.0547 0.5341 -2.2686 0.046 0.971 0.236 148 142 132 0 0
-0.0545 0.5343 -2.2749 -0.030 0.955 0.295 179 180 175 0 0
-0.0529 0.5324 -2.2832 -0.162 0.977 0.140 193 194 194 0 0
0.1357 0.1521 -0.9631 0.219 0.829 0.515 66 46 25 0 0
0.1386 0.1570 -1.0852 -0.396 0.817 0.419 55 39 18 0 0
0.1378 0.1589 -1.0945 -0.538 0.786 0.304 61 44 24 0 0
0.1389 0.1583 -1.1100 -0.408 0.912 0.050 60 42 22 0 0
0.1396 0.1589 -1.1301 -0.210 0.957 0.201 60 42 22 0 0
0.1039 0.2351 -1.4126 -0.538 0.532 0.654 134 110 79 0 0
0.1021 0.2380 -1.4164 -0.538 0.532 0.654 131 108 73 0 0
0.0796 0.2801 -1.5170 -0.103 0.951 0.293 98 77 39 0 0
0.0773 0.2840 -1.5202 -0.375 0.749 0.546 98 76 37 0 0
0.0897 0.2674 -1.5527 -0.911 0.266 0.315 144 117 67 0 0
0.0865 0.2729 -1.5604 -0.601 0.592 0.538 157 126 78 0 0
-0.0105 0.4640 -2.1190 -0.086 0.774 0.627 82 59 28 0 0
-0.0490 0.5350 -2.2766 -0.030 0.955 0.295 184 185 185 0 0
0.0908 0.2707 -1.5022 -0.262 0.723 0.640 122 103 77 0 0
0.0851 0.2807 -1.5181 -0.513 0.851 0.107 98 76 37 0 0
0.0870 0.2784 -1.5251 -0.548 0.833 0.076 97 75 37 0 0
0.0918 0.2718 -1.5347 -0.286 0.933 -0.219 99 75 36 0 0
0.0928 0.2724 -1.5622 -0.509 0.711 0.486 141 113 72 0 0
0.0511 0.3486 -1.7258 -0.343 0.879 0.331 77 60 37 0 0
0.0569 0.3445 -1.7868 0.256 0.843 0.473 91 71 43 0 0
0.0573 0.3443 -1.7928 -0.110 0.612 0.783 89 69 42 0 0
0.0471 0.3671 -1.8876 -0.384 0.875 0.295 84 63 34 0 0
0.0202 0.4172 -2.0029 -0.221 0.967 0.124 84 63 32 0 0
-0.0310 0.5131 -2.2311 -0.504 0.793 0.343 93 73 36 0 0
-0.0488 0.5433 -2.2704 0.039 0.460 0.887 190 191 192 0 0
-0.0469 0.5410 -2.2792 -0.187 0.800 0.570 197 197 200 0 0
0.0915 0.2799 -1.5200 -0.274 0.593 0.757 103 80 45 0 0
0.0984 0.2715 -1.5475 -0.250 0.911 0.327 147 122 74 0 0
0.0654 0.3400 -1.7802 -0.055 0.910 0.412 107 84 51 0 0
0.0524 0.3682 -1.8886 -0.599 0.735 0.317 86 65 36 0 0
0.0499 0.3723 -1.8913 -0.302 0.799 0.521 85 64 35 0 0
-0.0205 0.5049 -2.2163 -0.075 0.626 0.776 83 60 26 0 0
-0.0247 0.5117 -2.2221 -0.501 0.776 0.383 82 62 27 0 0
0.0971 0.2803 -1.5212 -0.319 0.922 0.220 98 75 40 0 0
0.1060 0.2690 -1.5505 -0.426 0.539 0.727 179 152 103 0 0
0.0939 0.2887 -1.5659 0.038 0.795 0.605 100 76 38 0 0
0.0476 0.3622 -1.6065 0.134 0.661 0.738 112 92 63 0 0
0.0698 0.3427 -1.7858 0.009 0.923 0.385 99 78 47 0 0
0.1259 0.2404 -1.4585 -0.818 0.486 0.307 97 78 50 0 0
0.1247 0.2426 -1.4626 -0.509 0.848 0.147 94 74 47 0 0
0.1222 0.2466 -1.4658 -0.232 0.777 0.586 105 85 59 0 0
0.1199 0.2504 -1.4691 -0.039 0.703 0.710 85 65 40 0 0
0.1025 0.2806 -1.5169 0.144 0.750 0.645 96 76 42 0 0
0.1026 0.2809 -1.5223 0.138 0.988 0.072 99 77 41 0 0
0.0936 0.2997 -1.5883 0.178 0.980 0.094 106 83 41 0 0
0.0901 0.3053 -1.5903 0.238 0.940 0.245 117 94 51 0 0
0.0530 0.3628 -1.6077 0.004 0.519 0.855 109 89 62 0 0
0.0762 0.3417 -1.7825 -0.028 0.945 0.327 108 84 54 0 0
0.0749 0.3440 -1.7866 -0.373 0.858 0.354 103 81 53 0 0
0.0761 0.3454 -1.8268 0.048 0.919 0.392 100 79 47 0 0
0.0602 0.3738 -1.8819 -0.428 0.843 0.324 91 70 41 0 0
0.0212 0.4520 -2.1204 -0.421 0.774 0.473 77 55 24 0 0
0.0201 0.4540 -2.1247 -0.421 0.774 0.473 78 56 25 0 0
-0.0250 0.5316 -2.2388 -0.175 0.801 0.572 84 64 28 0 0
0.1333 0.2366 -1.4401 -0.291 0.903 0.314 99 81 58 0 0
0.1271 0.2472 -1.4558 -0.015 0.906 0.423 102 82 57 0 0
0.1171 0.2698 -1.5473 -0.099 0.989 0.109 156 131 85 0 0
0.0997 0.2995 -1.5900 -0.340 0.937 -0.076 111 87 45 0 0
0.1004 0.2990 -1.5959 0.405 0.897 0.175 126 102 60 0 0
0.0808 0.3288 -1.5987 -0.130 0.382 0.915 142 115 77 0 0
0.0811 0.3432 -1.7831 -0.059 0.940 0.336 106 83 53 0 0
0.0803 0.3448 -1.7878 -0.119 0.932 0.342 104 81 53 0 0
0.0724 0.3624 -1.8570 -0.750 0.630 0.205 94 75 43 0 0
0.0707 0.3652 -1.8608 -0.391 0.616 0.684 91 72 40 0 0
0.0656 0.3748 -1.8830 -0.109 0.907 0.407 90 70 41 0 0
0.0370 0.4253 -1.9737 -0.009 0.884 0.468 90 69 38 0 0
0.0411 0.4250 -2.0474 -0.110 0.985 0.133 98 75 45 0 0
-0.0202 0.5337 -2.2454 -0.254 0.879 0.403 78 63 27 0 0
-0.0214 0.5364 -2.2554 -0.334 0.940 0.072 75 65 43 0 0
0.1722 0.1550 -1.0512 0.531 0.805 0.265 90 83 71 0 0
0.1118 0.2880 -1.5652 0.264 0.876 0.403 98 76 40 0 0
0.0987 0.3095 -1.5849 0.113 0.603 0.790 121 96 56 0 0
0.1086 0.2957 -1.5996 0.024 0.706 0.708 139 114 76 0 0
0.1066 0.2990 -1.6030 0.056 0.707 0.705 122 96 59 0 0
0.0918 0.3205 -1.5945 -0.113 0.688 0.717 143 118 79 0 0
0.0889 0.3252 -1.5970 -0.113 0.471 0.875 138 113 74 0 0
0.0863 0.3294 -1.5998 -0.119 0.366 0.923 135 109 74 0 0
0.0414 0.4281 -1.9794 -0.320 0.626 0.711 90 69 38 0 0
0.0501 0.4200 -2.0417 0.259 0.949 0.181 131 106 66 0 0
0.0448 0.4293 -2.0581 -0.395 0.778 0.488 79 58 29 0 0
0.1107 0.2995 -1.5761 0.268 0.925 0.270 107 83 42 0 0
0.1099 0.3011 -1.5807 0.268 0.925 0.270 113 88 50 0 0
0.1068 0.3059 -1.5832 0.338 0.855 0.394 122 97 57 0 0
0.1042 0.3100 -1.5861 0.113 0.603 0.790 127 102 62 0 0
0.1016 0.3142 -1.5890 0.113 0.603 0.790 132 106 69 0 0
0.0987 0.3188 -1.5915 0.102 0.628 0.771 128 101 64 0 0
0.0936 0.3268 -1.5974 0.102 0.628 0.771 139 115 77 0 0
0.0911 0.3308 -1.6003 0.102 0.628 0.771 121 97 65 0 0
0.1677 0.2115 -1.4420 -0.318 0.460 0.829 95 81 63 0 0
0.1650 0.2159 -1.4450 -0.131 0.517 0.846 88 73 54 0 0
0.0946 0.3342 -1.5996 0.248 0.611 0.752 126 103 72 0 0
0.0551 0.3952 -1.6195 -0.274 0.882 0.383 109 92 64 0 0
0.1095 0.3259 -1.7660 -0.281 0.960 0.005 113 93 59 0 0
0.1087 0.3275 -1.7707 -0.524 0.822 -0.223 97 75 42 0 0
0.0602 0.4240 -2.0548 -0.023 0.949 0.314 80 62 30 0 0
0.0315 0.4755 -2.1575 -0.259 0.791 0.555 82 58 29 0 0
0.0305 0.4774 -2.1620 -0.741 0.574 0.349 84 61 30 0 0
0.0105 0.5125 -2.2230 -0.448 0.736 0.508 82 62 27 0 0
0.0051 0.5215 -2.2331 -0.664 0.620 0.417 83 63 29 0 0
0.0043 0.5231 -2.2380 -0.239 0.659 0.713 86 66 33 0 0
0.0045 0.5233 -2.2441 -0.776 0.494 0.392 83 64 31 0 0
0.1396 0.2721 -1.5573 0.068 0.982 0.175 97 73 39 0 0
0.1386 0.2740 -1.5618 0.131 0.799 0.587 101 79 43 0 0
0.1057 0.3260 -1.5954 -0.115 0.586 0.802 139 111 74 0 0
0.0602 0.3957 -1.6151 -0.022 0.901 0.433 103 83 54 0 0
0.1148 0.3269 -1.7670 -0.282 0.944 0.172 107 84 51 0 0
0.1077 0.3416 -1.8150 -0.045 0.995 -0.086 55 44 28 0 0
0.0982 0.3611 -1.8775 -0.099 0.672 0.734 101 81 56 0 0
0.0962 0.3645 -1.8809 -0.099 0.672 0.734 99 79 52 0 0
0.0951 0.3664 -1.8854 -0.283 0.708 0.647 95 76 46 0 0
0.0949 0.3672 -1.8907 -0.382 0.885 0.266 91 71 43 0 0
0.0861 0.3853 -1.9487 -0.642 0.516 0.568 86 65 34 0 0
0.0857 0.3863 -1.9539 -0.308 0.641 0.703 85 64 33 0 0
0.0871 0.3848 -1.9612 0.087 0.793 0.603 84 63 32 0 0
0.1608 0.2452 -1.5082 -0.099 0.995 0.002 96 79 57 0 0
0.1606 0.2473 -1.5293 0.310 0.875 0.371 94 76 47 0 0
0.1526 0.2613 -1.5544 0.067 0.947 0.314 114 91 58 0 0
0.1462 0.2713 -1.5594 -0.279 0.958 0.072 102 80 44 0 0
0.1364 0.2883 -1.5879 -0.650 0.627 0.429 119 96 54 0 0
0.1363 0.2890 -1.5931 -0.746 0.659 0.099 101 78 40 0 0
0.1350 0.2912 -1.5973 -0.743 0.614 0.267 112 88 53 0 0
0.1142 0.3220 -1.5940 -0.184 0.185 0.965 136 112 74 0 0
0.1081 0.3315 -1.5989 -0.422 0.406 0.811 125 100 70 0 0
0.1211 0.3262 -1.7634 -0.004 0.968 -0.252 115 94 61 0 0
0.0775 0.4160 -2.0537 0.178 0.935 0.306 93 73 39 0 0
0.0724 0.4276 -2.0996 -0.289 0.937 0.196 96 76 44 0 0
0.0197 0.5172 -2.2296 -0.301 0.802 0.515 89 70 37 0 0
0.0145 0.5253 -2.2341 -0.239 0.915 0.324 83 66 33 0 0
0.1440 0.2842 -1.5695 -0.343 0.321 0.883 107 84 50 0 0
0.1381 0.2930 -1.5695 -0.567 0.633 0.527 105 82 46 0 0
0.1381 0.2934 -1.5748 -0.735 0.590 0.333 113 91 53 0 0
0.1399 0.2919 -1.5871 -0.574 0.758 0.308 114 92 54 0 0
0.1364 0.2976 -1.5946 -0.752 0.615 0.238 117 94 57 0 0
0.1328 0.3037 -1.6019 -0.628 0.143 0.765 137 109 74 0 0
0.0748 0.3942 -1.6529 -0.802 0.147 0.579 98 79 46 0 0
0.1292 0.3233 -1.7673 0.050 0.973 -0.225 115 93 59 0 0
0.1270 0.3337 -1.8486 -0.176 0.939 0.296 104 84 57 0 0
0.1163 0.3516 -1.8708 -0.037 0.922 0.385 97 78 49 0 0
0.0986 0.3868 -1.9759 -0.658 0.724 0.208 92 71 40 0 0
0.0506 0.4761 -2.1830 -0.403 0.891 0.209 77 55 24 0 0
0.1443 0.2927 -1.5712 0.098 0.775 0.625 110 88 53 0 0
0.1427 0.2954 -1.5750 -0.436 0.664 0.608 115 94 58 0 0
0.1415 0.2985 -1.5899 -0.545 0.796 -0.263 118 94 62 0 0
0.0769 0.3972 -1.6244 -0.245 0.785 0.570 88 68 40 0 0
0.0777 0.3975 -1.6409 -0.357 0.828 0.432 101 82 50 0 0
0.1315 0.3320 -1.8040 0.114 0.975 0.193 95 79 55 0 0
0.1314 0.3326 -1.8094 0.264 0.830 0.491 80 65 39 0 0
0.1332 0.3321 -1.8337 -0.026 0.996 0.082 105 85 57 0 0
0.1325 0.3340 -1.8442 -0.521 0.853 -0.013 106 87 61 0 0
0.1274 0.3422 -1.8499 0.032 0.741 0.671 101 82 56 0 0
0.1249 0.3461 -1.8529 -0.052 0.663 0.747 102 83 56 0 0
0.1236 0.3484 -1.8571 -0.486 0.590 0.645 102 83 56 0 0
0.1208 0.3528 -1.8597 -0.693 0.682 0.234 101 82 56 0 0
0.1218 0.3518 -1.8664 -0.278 0.887 0.370 98 79 51 0 0
0.1216 0.3527 -1.8718 -0.525 0.831 0.183 98 78 51 0 0
0.1209 0.3547 -1.8823 -0.641 0.760 -0.113 104 84 58 0 0
0.1197 0.3568 -1.8866 -0.888 0.454 0.080 102 82 57 0 0
0.1202 0.3585 -1.9156 -0.866 0.331 0.374 93 73 46 0 0
0.1138 0.3685 -1.9197 0.117 0.868 0.483 96 76 49 0 0
0.1111 0.3746 -1.9452 -0.295 0.807 0.512 89 69 40 0 0
0.0837 0.4311 -2.1261 -0.501 0.853 0.145 100 78 46 0 0
0.0628 0.4617 -2.1229 -0.549 0.748 0.374 83 63 31 0 0
0.0587 0.4679 -2.1235 -0.644 0.688 0.334 83 62 29 0 0
0.0585 0.4687 -2.1290 -0.518 0.826 0.223 81 59 27 0 0
0.1506 0.2928 -1.5783 -0.076 0.664 0.744 113 93 59 0 0
0.1505 0.2934 -1.5835 -0.517 0.736 0.438 111 90 54 0 0
0.1237 0.3346 -1.6015 0.246 0.736 0.631 113 93 69 0 0
0.0839 0.3948 -1.6165 -0.386 0.861 0.332 121 100 69 0 0
0.0816 0.3989 -1.6248 -0.487 0.749 0.449 77 57 27 0 0
0.1410 0.3264 -1.7981 -0.148 0.909 0.389 112 92 66 0 0
0.1400 0.3283 -1.8026 -0.355 0.921 -0.158 108 89 64 0 0
0.1386 0.3317 -1.8179 -0.215 0.770 0.601 112 91 63 0 0
0.1317 0.3472 -1.8780 -0.421 0.612 0.669 100 80 53 0 0
0.1308 0.3490 -1.8827 -0.194 0.906 0.375 101 81 54 0 0
0.1281 0.3532 -1.8854 -0.497 0.868 -0.004 102 82 55 0 0
0.1272 0.3550 -1.8900 -0.425 0.905 0.032 101 81 56 0 0
0.1286 0.3540 -1.9030 0.077 0.977 0.198 98 78 50 0 0
0.1263 0.3577 -1.9061 0.166 0.903 0.396 97 77 49 0 0
0.1227 0.3637 -1.9134 0.056 0.833 0.550 91 71 44 0 0
0.1211 0.3664 -1.9173 0.056 0.833 0.550 90 70 43 0 0
0.1198 0.3687 -1.9215 0.002 0.937 0.350 92 72 45 0 0
0.0549 0.4886 -2.1947 -0.263 0.707 0.656 80 56 25 0 0
0.0515 0.4939 -2.1959 0.046 0.878 0.477 80 55 25 0 0
0.0237 0.5394 -2.2463 -0.486 0.743 0.460 81 65 33 0 0
0.1560 0.2941 -1.5846 0.143 0.955 0.259 114 91 57 0 0
0.1550 0.2960 -1.5890 0.011 0.893 0.449 128 103 68 0 0
0.1317 0.3312 -1.5997 0.185 0.769 0.612 123 102 75 0 0
0.1289 0.3356 -1.6024 0.172 0.844 0.509 117 97 73 0 0
0.1491 0.3242 -1.8075 -0.568 0.549 0.613 104 87 59 0 0
0.1430 0.3341 -1.8179 -0.516 0.586 0.625 108 89 61 0 0
0.1374 0.3468 -1.8681 -0.703 0.685 0.190 100 82 57 0 0
0.1376 0.3470 -1.8740 -0.340 0.930 0.137 101 82 57 0 0
0.1373 0.3480 -1.8793 -0.271 0.928 0.255 101 81 57 0 0
0.1368 0.3492 -1.8844 -0.419 0.854 0.310 97 77 52 0 0
0.0942 0.4337 -2.1283 -0.614 0.531 0.584 83 64 35 0 0
0.1382 0.3305 -1.6017 -0.456 0.588 0.668 114 93 65 0 0
0.1341 0.3366 -1.6032 -0.068 0.826 0.559 130 110 83 0 0
0.1495 0.3322 -1.8033 -0.540 0.837 -0.085 99 83 57 0 0
0.1503 0.3315 -1.8098 -0.389 0.918 0.079 105 88 61 0 0
0.1487 0.3383 -1.8585 -0.088 0.976 0.201 100 83 57 0 0
0.1435 0.3479 -1.8812 -0.208 0.878 0.431 104 84 60 0 0
0.1016 0.4264 -2.0677 -0.203 0.801 0.564 81 60 31 0 0
0.0778 0.4698 -2.1602 -0.420 0.845 0.331 79 59 28 0 0
0.0457 0.5226 -2.2234 -0.395 0.895 0.207 79 58 29 0 0
0.1331 0.3473 -1.6088 -0.039 0.504 0.863 120 102 73 0 0
0.1304 0.3911 -2.0447 0.113 0.881 0.459 85 65 35 0 0
0.1619 0.3356 -1.8462 -0.586 0.678 0.443 99 82 56 0 0
