ply
format ascii 1.0
element vertex 670
property float x
property float y
property float z
property uchar diffuse_red
property uchar diffuse_green
property uchar diffuse_blue
end_header
0.8626106396426452 -0.4383515500347346 -1.423743740830666 202 202 204
0.9049875084314054 -0.41514535716451295 -1.4496197019171848 202 202 204
0.3980235261826876 -0.73698818186016 -1.537620208569866 208 208 210
0.40748594731908233 -0.7323682777596541 -1.5484492591472574 208 208 210
0.471482671088055 -0.6979319421363169 -1.5930034657366143 209 209 211
0.46843783819597656 -0.7001704901055184 -1.5962789770081713 211 211 212
0.48923540344860605 -0.6893810937941811 -1.6143692513648569 214 214 215
0.44772869263275844 -0.712630165752858 -1.5936940022392398 216 216 217
0.44356157148180303 -0.7154760570977883 -1.5962191560067847 217 217 218
0.4826534594808461 -0.6947134295153168 -1.6258848433649338 217 217 217
-0.20528557230831673 -1.2026307991049554 -2.38524945691887 216 216 216
-0.20958328618581146 -1.2052676554391437 -2.385172695679211 216 216 216
-0.21790280045889704 -1.209815033117763 -2.380016168062897 216 216 216
0.3935297855313033 -0.6911627808151127 -1.1451830686519267 194 194 196
0.6538525823591517 -0.544786655669908 -1.2744744288892584 196 196 198
0.6416007684605352 -0.552279449639228 -1.2738463790401449 196 196 198
0.640803357554921 -0.5532874090616003 -1.2785080057594107 197 197 199
0.644466715758256 -0.5517728180681435 -1.285255699688566 198 198 200
0.6484579755366768 -0.5500749429877714 -1.2921761065750925 198 198 200
0.8340595501107914 -0.4469387185901694 -1.3954295873889095 200 200 202
0.863828655705233 -0.43133887498320433 -1.4205086338454702 201 201 203
0.8852717292353158 -0.4198491618304063 -1.4362872371572157 202 202 204
0.9034386443291231 -0.4102164153054684 -1.4505727054162694 202 202 204
0.42370985983966303 -0.7179110712033525 -1.5553072380787685 207 207 209
0.422448670657059 -0.7191636642794735 -1.5595926228451396 208 208 210
0.46507306571416057 -0.6963311175119309 -1.5910171149023398 210 210 212
0.46546474780605845 -0.6966868454863957 -1.5964173611086685 213 213 213
0.48827224092140675 -0.68475113172827 -1.6157766485078862 215 215 215
0.484208397539222 -0.6875558074765694 -1.6184548423239407 217 217 217
0.43376354794977884 -0.7157729026409387 -1.5920688833113195 217 217 217
0.4799116859417703 -0.6910634681040155 -1.6261876681236622 217 217 217
-0.21830633387962306 -1.2046043055243545 -2.372513839506283 216 216 216
-0.22276011382732055 -1.2073193809063174 -2.372206849120493 216 216 216
-0.23098652294772193 -1.211834839453069 -2.367125627548502 216 216 216
0.4119605540669472 -0.6758810884262189 -1.1549621406891784 195 195 197
0.6306072556871303 -0.5537882219425188 -1.2752481031984753 197 197 199
0.6462300638743085 -0.5454755215692366 -1.2875786036287018 198 198 200
0.6502694791354486 -0.5437407996408732 -1.294534227894121 199 199 201
0.634985207357962 -0.5529664066568172 -1.29240333200863 200 200 202
0.6424229654859378 -0.5493058226152752 -1.3009720905534492 200 200 202
0.6474019533648128 -0.5470421896841215 -1.3084059784165731 200 200 202
0.8432777002264991 -0.43724337113976175 -1.4123363246247507 201 201 203
0.8207763370697628 -0.4505811528964202 -1.4069813683206842 202 202 204
0.86098930912566 -0.4284227782744108 -1.431799722123225 202 202 204
0.4377276888145557 -0.7051510476812273 -1.5658605414035516 208 208 210
0.43173491110067097 -0.7090143233026088 -1.567260684580447 209 209 211
0.4245963547602927 -0.7135067026470361 -1.5679332425883048 212 212 214
0.4684872405335496 -0.6899004569788348 -1.600280624535461 213 213 214
0.4553550479903966 -0.6976977844583586 -1.5972749869209737 216 216 216
0.45427560116626503 -0.6988592085684608 -1.6017576581340138 217 217 217
0.42663167085187687 -0.714629213071634 -1.5895807622109797 217 217 217
-0.23161298321846663 -1.2067603324542027 -2.35938058589546 216 216 216
-0.2357390959227335 -1.2093219447081933 -2.3594512819170843 216 216 216
-0.2441027736759409 -1.2139157745302973 -2.354155230519422 216 216 216
0.41616183368378257 -0.6686330971504458 -1.1582329791138428 195 195 197
0.42357726477439217 -0.6649101637880056 -1.1662682456548263 196 196 198
0.6353452445155996 -0.546360085010808 -1.283985916283906 198 198 200
0.6272215559023064 -0.5515365419671996 -1.285214378604502 199 199 201
0.6310862721878285 -0.5498888079661568 -1.292075025951306 200 200 202
0.6175541997532985 -0.5581386825871569 -1.2907150076452154 200 200 202
0.6354725600735032 -0.548500776402473 -1.3042659888168295 200 200 202
0.7698851855124158 -0.4732374914569641 -1.3788225617368943 201 201 203
0.7829097195234408 -0.5084746191823524 -1.7746174901500071 208 208 210
0.4381279944174507 -0.6998556682524462 -1.5680531168942302 208 208 210
0.4257131024979102 -0.7072803635855971 -1.5654889543014252 210 210 212
0.40792511327677966 -0.7176705002875863 -1.559549893558505 212 212 214
0.435345008205564 -0.7030724294619934 -1.581661635760728 215 215 215
0.4486836302161539 -0.6962650163983319 -1.595103538478339 216 216 216
0.4438423464866684 -0.6995019910764233 -1.5972251242274358 217 217 217
0.41863455305964314 -0.7139781571304129 -1.5865433748493483 217 217 217
-0.24026915015714448 -1.206717467900168 -2.3520626614838736 216 216 216
-0.24860299686279816 -1.211314164044813 -2.3468025152350678 216 216 216
-0.2568740103775481 -1.2158762057237253 -2.3415820499709414 216 216 216
0.40974835706096213 -0.6669303765114569 -1.152026095244956 195 195 197
0.40606074798392455 -0.6695425565167291 -1.154939393932457 195 195 197
0.4021058106084599 -0.6723067680265001 -1.157720914426714 196 196 198
0.7305019975307713 -0.48668685423980645 -1.330086961263792 198 198 200
0.6001607608610072 -0.5616999066467641 -1.2739847964208542 199 199 201
0.6285815053053192 -0.5460169024564598 -1.292404824456184 200 200 202
0.6297312370291221 -0.5459106889375125 -1.2980024794094862 200 200 202
0.6317578945354541 -0.5453052207117068 -1.3040274428943865 200 200 202
0.779442690737176 -0.5033668828249481 -1.7631253895266128 207 207 209
0.7900794673625048 -0.4980855505213597 -1.7754227666035 207 207 209
0.7893003247241732 -0.49915062111043274 -1.7807523206117326 208 208 210
0.4195945041691516 -0.7056108166699446 -1.5636532255095965 210 210 212
0.42232631154625877 -0.7046486085419825 -1.5704325979219549 213 213 215
0.41473422223509665 -0.7094136728730885 -1.5708000057732243 215 215 216
0.42743245730476515 -0.7029278655093539 -1.5838186031684458 216 216 216
0.41246918467465266 -0.711776681486844 -1.5795576024648703 216 216 216
-0.2573198940909823 -1.2107727606560665 -2.334138176031399 216 216 216
-0.2613309384740053 -1.2132853499262395 -2.3342874150517785 216 216 216
-0.26951072035762286 -1.2178159918112972 -2.3291413054454964 216 216 216
0.5695786151629527 -0.5697111317015305 -1.221704562182158 194 194 196
0.560374623906887 -0.5755292825315206 -1.2223888325534855 195 195 197
0.40372076189707606 -0.6660217543678482 -1.1552089714178555 195 195 197
0.4008488875572015 -0.6681693459392855 -1.158490889874925 196 196 198
0.6610109873370082 -0.5210213276598279 -1.2990352311096578 198 198 200
0.6581204483408396 -0.5232308726223702 -1.3027818216702556 199 199 201
0.623692462555447 -0.5435071969079717 -1.2916080643776693 200 200 202
0.6334974566590621 -0.5384388028427873 -1.3013139770837239 200 200 202
0.8048395865769569 -0.4834205318079623 -1.7808458655534205 207 207 209
0.8062700995521529 -0.48325503841583795 -1.7875637034672391 207 207 209
0.8176994922811106 -0.47751694031082803 -1.8004477151517402 208 208 210
0.8146989336564774 -0.47982549327199187 -1.8044746180409916 210 210 212
0.8196727037884486 -0.4776915913432951 -1.8134360039013855 212 212 214
0.4071499114757002 -0.7085737455453265 -1.5680334231800117 216 216 216
0.4224876810923713 -0.7005900675883776 -1.5827055428608778 216 216 216
0.4001321555553943 -0.713576830166961 -1.573791904187822 217 217 217
-0.26996998070113093 -1.2127472565011326 -2.321716644637408 216 216 216
-0.2739250219303832 -1.2152358132461432 -2.3219039276684468 216 216 216
-0.28201499839896366 -1.2197354477431341 -2.3168309402756253 216 216 216
0.5989212674002333 -0.5470685203761458 -1.2315782878690846 194 194 196
0.6028704353069299 -0.5453250620884499 -1.2383398677454844 194 194 196
0.5956657281510461 -0.5500130164528805 -1.2400043984046767 195 195 197
0.6114111891037886 -0.5414744119992019 -1.2522187345927898 195 195 197
0.6050997017888661 -0.5456478735061442 -1.2542965050642982 196 196 198
0.641141220697276 -0.5270684041627294 -1.2912230829252513 199 199 201
0.627640841958236 -0.5353783068688742 -1.2899346122578843 199 199 201
0.5187800869084896 -0.5984993938223758 -1.243449204193798 200 200 202
0.8180956973777446 -0.42761114246404186 -1.3960148663235625 201 201 203
0.8283309950680291 -0.4223182759353047 -1.4063477686577421 202 202 204
0.8143786874009026 -0.47223579395189497 -1.788902787441931 208 208 210
0.833735065589517 -0.46203419225689035 -1.8066598882145346 207 207 209
0.8417694527967986 -0.45817595101719477 -1.8175248514014883 209 209 211
0.8177779269378623 -0.47223236281052194 -1.808629922311005 211 211 213
0.8261910334570888 -0.4681638968123607 -1.8197436314199602 213 213 215
0.39418173099925297 -0.7107583129443784 -1.5618992357195116 216 216 216
0.4009596335296367 -0.7075184215747443 -1.5712040545321044 217 217 217
0.393007088551872 -0.7125040827591502 -1.5712868106432047 217 217 217
-0.2783260321724853 -1.2126634934914446 -2.3146883728130074 216 216 216
-0.286387338323367 -1.2171658745806642 -2.309649999743372 216 216 216
-0.2943889292017743 -1.2216348981518277 -2.3046488981509348 216 216 216
0.5985970016319336 -0.5414679108620186 -1.2279079108838076 193 193 195
0.6121695003380543 -0.5341436251435725 -1.239050028523768 194 194 196
0.6047207316970198 -0.5389872112386815 -1.240630924353321 194 194 196
0.6188868739454092 -0.5313272894408207 -1.2521176486672818 195 195 197
0.6154484091094236 -0.5338518407880712 -1.2555438187878896 195 195 197
0.6098199473494041 -0.5376413712978609 -1.2579489566619513 196 196 198
0.6360203424759718 -0.5246665412539775 -1.2903300452999433 198 198 200
0.6543532875465938 -0.5146323674902878 -1.304063600059661 199 199 201
0.6573985131175702 -0.5134236987548211 -1.3106234927394074 200 200 202
0.543550797559381 -0.5796150500904673 -1.2615704665004226 200 200 202
0.8433917088400457 -0.4073191082021106 -1.4097444748803454 201 201 203
0.8290906598806955 -0.4161462997957902 -1.4083699002084071 202 202 204
0.813354771784508 -0.42579489256531045 -1.4062573769694424 202 202 204
0.7307633353234181 -0.5127309302273314 -1.7341779548873177 207 207 209
0.8258882491011361 -0.4598900190066162 -1.7981879292874905 208 208 210
0.8343576557198934 -0.45576453974551623 -1.8092969537152064 207 207 209
0.8254626124083454 -0.4613931851261308 -1.8097334200519168 209 209 210
0.8316634129240326 -0.45854600638448173 -1.81948507567465 212 212 213
0.8352869195950235 -0.4571482168002182 -1.8276680562648033 214 214 216
0.8319393956375032 -0.4596622874351043 -1.8315293778398865 215 215 217
0.38288416515010526 -0.7120451684521982 -1.5567942029028579 216 216 217
0.37946802629083615 -0.7144996656346423 -1.5596968939914004 217 217 217
-0.29484067369843925 -1.2166180587164028 -2.2973047589855016 216 216 216
-0.2987199686617963 -1.2190758641884143 -2.29752357829192 216 216 216
-0.3066344271084454 -1.2235145986069722 -2.2925933270423573 216 216 216
0.6395599990151433 -0.5134786571925343 -1.25803644049889 194 194 196
0.6340052897514741 -0.5172398565053061 -1.2605335759900558 195 195 197
0.6252062026825427 -0.5228815714870758 -1.2615180029568194 195 195 197
0.6145690799011156 -0.5295863328456104 -1.26162363214585 196 196 198
0.3879413642749038 -0.6619919095088265 -1.165791662228801 197 197 199
0.37026135294298723 -0.672725626543843 -1.1621131852006945 198 198 200
0.6229063375778365 -0.5269001138648486 -1.2856712135634605 198 198 200
0.6190506959793383 -0.5296709204913126 -1.2889081888101543 199 199 201
0.5323908638538536 -0.5803623688007321 -1.2528368731849167 200 200 202
0.5386489459663102 -0.5772638082245555 -1.260721594161104 200 200 202
0.8243633998257742 -0.4125480103487432 -1.4023054164797615 201 201 203
0.813139533661112 -0.4196179221178299 -1.402372873765607 201 201 203
0.841716487325002 -0.40368146692683815 -1.4215903886328887 202 202 204
0.7274161831865968 -0.5088962203633188 -1.7342939451410446 207 207 209
0.8349919888257146 -0.4488389671140782 -1.8060200889445 208 208 210
0.8070485706052349 -0.46647443074226935 -1.8065065435472207 213 213 213
0.3637996267356457 -0.7177454993030932 -1.5468033110662167 216 216 216
0.35940708929338383 -0.7207497305474013 -1.5490594169480114 217 217 217
-0.3070375036557956 -1.2185010711071382 -2.285345876182356 216 216 216
-0.3109795892048961 -1.220993091773792 -2.285453183182431 216 216 216
-0.31885517211325465 -1.2254250494617247 -2.2805326850897574 216 216 216
0.6469600585520017 -0.5038027805636737 -1.262901185470819 194 194 196
0.6350870302068913 -0.5112528888354168 -1.2625073892764034 195 195 197
0.6300680387516655 -0.5147094687501526 -1.2652434826186179 195 195 197
0.6193093690166793 -0.5215044219376959 -1.2653031030920117 196 196 198
0.3793447626741334 -0.6616188146750288 -1.15854035222486 197 197 199
0.36191968444389755 -0.6722380540571621 -1.1549897152511277 197 197 199
0.35110743817647366 -0.679007085070998 -1.1544850942102354 197 197 199
0.33578974281244467 -0.6883904649935702 -1.1518213543008875 198 198 200
0.602357553174794 -0.534023989637765 -1.2825254517286926 199 199 201
0.6017549062812938 -0.5349068758261288 -1.287273586121579 200 200 202
0.533000084543414 -0.5753522057169214 -1.2595146576784413 200 200 202
0.5403967449235764 -0.5715803834707271 -1.2679734416410668 200 200 202
0.7647939426588413 -0.4424969425798928 -1.3861481695564886 202 202 204
0.3356337308290578 -0.7286376682143916 -1.531097068077312 216 216 216
-0.3151781217143894 -1.218413024849052 -2.278504267724907 216 216 216
-0.32302698800095764 -1.2228481835214247 -2.2736163383549957 216 216 216
-0.3308178757395801 -1.2272505972970702 -2.2687646764512546 216 216 216
0.6831916346183854 -0.4772348676495948 -1.2810132458671124 194 194 196
0.6419762961674766 -0.5018552308651254 -1.2671628700800048 195 195 197
0.6379556298450155 -0.5047376421607005 -1.27037817422495 195 195 197
0.3465023157048428 -0.6759084088544989 -1.1445828521682602 197 197 199
0.33415852416491587 -0.6835887179331386 -1.1433480275861967 197 197 199
0.33396564583492616 -0.6841777938022048 -1.1477853261022395 198 198 200
0.31375811185437497 -0.6964368444188209 -1.1427797746849107 198 198 200
0.609266351927588 -0.5252045392209357 -1.2923667877999243 200 200 202
0.49803293324077647 -0.5905263468653873 -1.2443030297605044 200 200 202
0.6230056082509516 -0.5182704339452187 -1.3090801744573457 201 201 203
0.5358136637897628 -0.5695586641127515 -1.2722101339933336 201 201 203
0.7587235041166995 -0.4790216656937758 -1.7520527485338167 207 207 209
0.3214936011564414 -0.7316826465538793 -1.5241514982744369 216 216 216
-0.3325144657670615 -1.222936166857483 -2.259940480159576 216 216 216
-0.33495114372817414 -1.224684235162576 -2.2619006360371454 216 216 216
-0.34265905099765476 -1.229057675102231 -2.257116153870355 216 216 216
0.6138589407173816 -0.5124111341205612 -1.250650030897045 194 194 196
0.6539293299095288 -0.4894485935573158 -1.2741662493601913 195 195 197
0.380282751133043 -0.6508179543088664 -1.157095879092302 196 196 198
0.30363425216072637 -0.6961856691115637 -1.1259108055427747 197 197 199
0.3156231264886634 -0.6896353925220665 -1.1360047340393644 197 197 199
0.29626594940297646 -0.701434349164535 -1.1313932034467418 198 198 200
0.2930049117068848 -0.7038097920294669 -1.1343212743564048 198 198 200
0.27794243034951593 -0.7130862293853183 -1.1316432384168125 199 199 201
0.4993593848709356 -0.5841050129057891 -1.241547020843265 200 200 202
0.5037824530139923 -0.5820288912506932 -1.2485245793936652 200 200 202
0.6050674738687334 -0.5233647455371025 -1.302019824719951 201 201 203
0.7595374535439139 -0.47273447642886635 -1.7547441354739781 207 207 209
0.4727754318983008 -0.6401417130826401 -1.6158530367708652 216 216 216
-0.3390725304074738 -1.2221252093279034 -2.2550563126275374 216 216 216
-0.34675441506230753 -1.2265017760447263 -2.250303617553416 216 216 216
-0.35438009283828786 -1.2308463392458453 -2.245585878456553 216 216 216
0.5953979538517141 -0.5179163501670694 -1.243624244136399 194 194 196
0.5911215479401064 -0.5209515791894523 -1.2466473120496184 195 195 197
0.582177259717751 -0.52673024452456 -1.2474949271673335 196 196 198
0.2733903477030085 -0.709201982711806 -1.113097472957068 197 197 199
0.2880251847201964 -0.7010660125880852 -1.124390358178331 197 197 199
0.26784858987938936 -0.71337689846866 -1.1193371079518686 198 198 200
0.2823901108132463 -0.7053013177447015 -1.1306398011412846 199 199 201
0.2553970339505829 -0.7216042103624024 -1.1222730935381038 199 199 201
0.5479424351633553 -0.5874665651044484 -1.6219236216764867 207 207 209
0.7955696420139888 -0.446267355072713 -1.7790226954267263 207 207 209
0.494264803082535 -0.6225990476538035 -1.6313626069758431 216 216 216
-0.35606339383554847 -1.2265836586431396 -2.236840893289221 216 216 216
-0.35843803470723296 -1.228300786725085 -2.238824249604907 216 216 216
-0.3659830262223114 -1.232616971729143 -2.234171796015074 216 216 216
0.589002381934192 -0.5163583749688532 -1.2421406070704204 194 194 196
0.5800645347049398 -0.5221493316224 -1.2430006014618213 195 195 197
0.6750739032070884 -0.46661596705992253 -1.2921051291129313 195 195 197
0.2609801155106538 -0.7122676679309801 -1.1130086470413103 197 197 199
0.257185666288991 -0.7149594860680148 -1.1156297297942483 198 198 200
0.2655946001311146 -0.7104629543258177 -1.1240221595847035 199 199 201
0.2303067203979453 -0.7316977456312863 -1.1116707825959626 199 199 201
0.22283086134091945 -0.7370007192350646 -1.1168303059816906 201 201 203
0.546575672876745 -0.5828307738898219 -1.6231224191298739 207 207 209
0.7981145633547068 -0.4388761506037431 -1.7828173408631596 208 208 210
0.5477035133778084 -0.5860860237930949 -1.6615511687535864 216 216 216
0.5721410641265836 -0.5726427309478949 -1.6823080781975666 216 216 216
-0.36765097922627243 -1.2283753500883756 -2.2254770483914954 216 216 216
-0.3700041835612303 -1.2300817344052406 -2.2274602777407373 216 216 216
-0.37746986602796306 -1.2343699642358246 -2.2228718527082116 216 216 216
0.6315477400850413 -0.48634726635943404 -1.2683068684257384 195 195 197
0.6469531580400832 -0.47775161578469133 -1.2805552120678767 196 196 198
0.22404097030368608 -0.729862246858489 -1.1012938646230794 198 198 200
0.23617733252248746 -0.7231379246422197 -1.1114032671070044 199 199 201
0.22186197923475295 -0.7320453358581712 -1.1089688032422174 199 199 201
0.2784064527247741 -0.6991003359947958 -1.140355650129994 200 200 202
0.15308523018169776 -0.7735463036207568 -1.0846894502228313 201 201 203
0.20331418669646267 -0.7443381306289045 -1.113126593003435 201 201 203
0.5771497335290531 -0.5592052148923309 -1.6384466697599114 207 207 209
0.5841356140196736 -0.5557348070363817 -1.6481581055160626 207 207 209
0.6043063529068253 -0.5446662205087494 -1.6660035156110677 208 208 210
0.5476433655560724 -0.5806684272686515 -1.6636121196996922 216 216 216
-0.37912220790788115 -1.2301489570853807 -2.214227392516784 216 216 216
-0.3814545555700698 -1.2318448553097416 -2.216210058541278 216 216 216
-0.38884198300782596 -1.2361053963724578 -2.2116848105024216 216 216 216
0.6638171302872646 -0.46226871675262077 -1.2899181231924537 196 196 198
0.17374366636397212 -0.7541878074592004 -1.0702942034286063 197 197 199
0.1670776406779444 -0.759012255934304 -1.075659474634992 198 198 200
0.19483281843350045 -0.7429899146572918 -1.0930915293918952 199 199 201
0.19450994318330533 -0.7436218626909795 -1.0972479248131688 199 199 201
0.23494530802679214 -0.7201026461306707 -1.1209129157975886 200 200 202
0.12892017002594455 -0.7833573798780538 -1.0743706068967664 201 201 203
0.1606363584993457 -0.7650053286352763 -1.0938685492779372 201 201 203
0.5708235205521495 -0.5573605019886159 -1.6366407556457845 208 208 210
0.6020458101944426 -0.5398437247942541 -1.6612110289597521 208 208 210
0.6038917824200651 -0.5393377535741907 -1.6678459082852501 209 209 211
0.5479343160208907 -0.5750337594965564 -1.6658988383679145 216 216 216
-0.3904792443417693 -1.2319049649095977 -2.203089675310841 216 216 216
-0.3927909949819327 -1.233590474193761 -2.2050717453353177 216 216 216
-0.40010121664102666 -1.2378235956009802 -2.200608820019856 216 216 216
0.579116442577355 -0.5062090947576801 -1.241970325156618 195 195 197
0.6254812989533749 -0.479080155875676 -1.2684891198379138 195 195 197
0.6356166885062334 -0.47355773727526673 -1.2783017653208515 196 196 198
0.07222734715813675 -0.8096831973758284 -1.0198053684019441 196 196 198
0.06782036589460487 -0.8127209348811997 -1.021803768882782 197 197 199
0.13291912901013894 -0.7743798790837958 -1.0565714428871802 197 197 199
0.1282037358929641 -0.7776119366523245 -1.0585298871859605 198 198 200
0.129160062198303 -0.7774683917383166 -1.0631715527502594 199 199 201
0.12721169070912797 -0.779053230423246 -1.0664352264303862 200 200 202
0.14603201066982818 -0.7682897623815143 -1.0796470319774707 200 200 202
0.16694758275569838 -0.7562886182670269 -1.0939420275924978 201 201 203
0.11264408459380615 -0.7889887841333174 -1.0719986185719792 201 201 203
0.6112968953367028 -0.5283331231716729 -1.6634616766975219 208 208 210
0.6473108129485312 -0.5079747156266112 -1.691087777648191 208 208 210
0.6569293654026958 -0.5029585657070619 -1.7026112904427109 208 208 210
0.6711702964728854 -0.4952639781033251 -1.717036507475693 210 210 212
0.812050467966944 -0.41409395507420943 -1.8100313577862985 213 213 215
0.8110445955082988 -0.415282476176132 -1.8153612320138397 215 215 217
-0.4015057315034881 -1.2335318297944604 -2.192342283537273 216 216 216
-0.4040150207378213 -1.235318762473277 -2.1940438988296207 216 216 216
-0.41124923932572205 -1.239524817173529 -2.18964223604795 216 216 216
0.07227069874605296 -0.804894752968817 -1.016965087122407 196 196 198
0.06270445861452123 -0.8110233798573335 -1.0165538114481973 196 196 198
0.0533188981558487 -0.817040901570719 -1.016196325147792 197 197 199
0.14261084990744816 -0.7641144458953014 -1.0624030693972188 197 197 199
0.03875398603920803 -0.8265550718993283 -1.0173836212507292 198 198 200
0.09479341192053495 -0.7935099816655362 -1.048080455447305 199 199 201
0.13575959888209338 -0.7694813938524417 -1.0717898611666172 199 199 201
0.07787353322065917 -0.8044392031994266 -1.0482390349373458 200 200 202
0.09177963856882222 -0.7965614629864931 -1.059048456377503 201 201 203
0.10717617971224791 -0.787800921739489 -1.0706354085739025 201 201 203
0.07401702803302769 -0.8079849544111307 -1.0587189851872032 202 202 204
0.6260141126216994 -0.5141434506504978 -1.6745735387484095 208 208 210
0.6542621538192286 -0.49823823264873035 -1.6974932524950788 208 208 210
0.6554528223352657 -0.49811223832426177 -1.7038503400873966 210 210 212
0.6723695450132254 -0.4888266942306322 -1.719947843839359 212 212 214
0.6700991332491579 -0.49072167296502267 -1.7242115755392433 214 214 216
0.7837746522876419 -0.425123635299537 -1.8006764195574831 216 216 218
0.7980237699792057 -0.41742931895814894 -1.8154929635325006 216 216 217
-0.40791806959493526 -1.232820959638947 -2.1874970679697183 216 216 216
-0.4151283025852785 -1.2370299796107684 -2.1831248764615143 216 216 216
-0.42228787314856375 -1.2412094052543037 -2.1787832098247977 216 216 216
0.7060243779322605 -0.4161595057792876 -1.272354769979939 192 192 194
0.7059636667397211 -0.41671927885457594 -1.277540583037578 192 192 194
0.690394399597313 -0.4266001611718142 -1.2756604585553317 193 193 195
0.05598743390716202 -0.8107078445354001 -1.0146107529958017 196 196 198
0.043804151511644816 -0.8184182083342963 -1.012923950407207 197 197 199
0.03833354328938563 -0.822101475173423 -1.0143694951813595 197 197 199
0.03145153452280978 -0.8266287372180268 -1.0151291528330988 198 198 200
0.07906382939513182 -0.7985154031601567 -1.041834324996729 198 198 200
0.0638027747966814 -0.8080655685809199 -1.038645291371452 199 199 201
0.11272787041779103 -0.7791914315357172 -1.066229849219175 200 200 202
0.055645085027531425 -0.8137678622013791 -1.0428917082390612 201 201 203
0.0830520773742883 -0.7977832588482681 -1.0602389505310608 201 201 203
0.059819860762251535 -0.812091153244225 -1.0530875653749687 202 202 204
0.6401967736281178 -0.5001907499490993 -1.6853859074123188 208 208 210
0.6840313471497976 -0.4751094097933686 -1.7179564089793997 209 209 211
0.6994399925703214 -0.46666990940808106 -1.733162020012165 211 211 213
0.7033188526934159 -0.4649775510109504 -1.741295177698416 213 213 213
0.6963765894591711 -0.46961112581250397 -1.7427257685688033 215 215 215
0.7647267930853585 -0.4302584144217242 -1.7910814353597035 216 216 216
0.7672048717711867 -0.42940189853040267 -1.7985159066978769 216 216 216
-0.41899682077618405 -1.2345421419854432 -2.1766253075801685 216 216 216
-0.42613250220577237 -1.2387243928146894 -2.172313035953982 216 216 216
-0.43321830111184545 -1.2428773870891359 -2.16803070821412 216 216 216
0.7049240772595755 -0.410680910092217 -1.2681442966706118 191 191 193
0.6955632285830888 -0.4168489284023033 -1.2691187187173545 192 192 194
0.6703816676790157 -0.4325567700751829 -1.2628712309697938 192 192 194
0.662974299088266 -0.4375381512221005 -1.2646502045882846 193 193 195
0.037797972996017594 -0.8173109373380191 -1.0072762215134266 196 196 198
0.032299234964796045 -0.8210196532927265 -1.0087057773718946 197 197 199
0.024838324596818347 -0.8259066486197452 -1.0091904881934275 197 197 199
0.015054191953036616 -0.832187855898554 -1.0085477063663153 198 198 200
0.005493368924915684 -0.8383316465764559 -1.0079791757731902 198 198 200
0.0038721411069114753 -0.8397025497338843 -1.0111818590963773 199 199 201
0.06483649731063239 -0.8034864958109235 -1.0444765043959954 200 200 202
0.04759634997705738 -0.8142461046622491 -1.040254295608089 201 201 203
0.04514659732218351 -0.8161226347350781 -1.0431392171944487 201 201 203
0.04912239960549342 -0.8141433568155406 -1.049145513608431 201 201 203
0.6833819875712009 -0.46969962726094006 -1.7197296382325145 209 209 211
0.7094184305550957 -0.45498832254679245 -1.741524749291998 212 212 214
0.669657145102696 -0.4788893360699388 -1.7226237468565155 214 214 214
0.680289434476929 -0.4732210735825192 -1.7349250925908404 216 216 216
0.7539208157634554 -0.4306243661545055 -1.786607998686874 216 216 216
0.7927512168263995 -0.4084535379048092 -1.8168014133903005 216 216 216
-0.43479734574711204 -1.2387573528720133 -2.1596274228506225 216 216 216
-0.43702943057492316 -1.2404023587923665 -2.1616065318141358 216 216 216
-0.444042487428768 -1.2445292030161403 -2.157382679172471 216 216 216
0.6993142949542259 -0.4084457402723167 -1.2671081115761256 192 192 194
0.6861686580722374 -0.4169201742475557 -1.266358848595476 192 192 194
0.6592998598626598 -0.43369534395541176 -1.259319867264803 193 193 195
0.021113304127997792 -0.822276477889167 -0.9926524590395581 195 195 197
0.013897313505255623 -0.8270294284169689 -0.993261042123667 195 195 197
0.013309021654464945 -0.8277789934551438 -0.996962910468787 196 196 198
0.02196332316345105 -0.8229507392437747 -1.0050295639105757 197 197 199
0.009717546938185037 -0.8307357677583711 -1.003229046253347 198 198 200
0.0007935784012052666 -0.8365131539013102 -1.0029673610821022 198 198 200
-0.003095404787790121 -0.8392517800993932 -1.0050814843007956 198 198 200
-0.0010457574649466173 -0.8384097741540132 -1.0100331539082403 199 199 201
0.002973574728724976 -0.8363820810829397 -1.0159452558224626 200 200 202
-0.014126649773076733 -0.847078644390937 -1.011669871097125 201 201 203
0.011727819146664258 -0.831901617492708 -1.0281756634066888 201 201 203
0.030878746373713482 -0.8207703997201549 -1.0415185940890392 202 202 204
0.6972814680522843 -0.4562743402201115 -1.7362204233289313 213 213 215
0.7234362907771523 -0.4420207516223632 -1.764011152877342 216 216 216
0.75736911501955 -0.4226329419464473 -1.791034022458048 216 216 216
0.7644735166696002 -0.4190382999345986 -1.8013773089364942 216 216 216
-0.4408301173712286 -1.2379341118046954 -2.15519995781987 216 216 216
-0.4478202611613641 -1.2420639149855242 -2.15100433284084 216 216 216
-0.45476191523481024 -1.246165057379089 -2.1468376824381115 216 216 216
0.70540635902619 -0.3991091238374719 -1.2713591922486205 192 192 194
0.6994141564331664 -0.40326377549699266 -1.2738684699848708 192 192 194
0.6916235144077121 -0.40850880051574917 -1.2755416936520834 193 193 195
-0.004410690080699539 -0.8334565626831499 -0.9819161284926154 195 195 197
-0.016987107092611337 -0.8414653277340256 -0.97996561911275 195 195 197
-0.011585837758691778 -0.8385805015344595 -0.986434199339926 196 196 198
0.010767769006717318 -0.8254329401008198 -1.0009385771685575 197 197 199
-0.015365828622149066 -0.8428121914293581 -1.0043679311073972 200 200 202
-0.021489462973646567 -0.8469042868290543 -1.0053723008824877 200 200 202
-0.025483940868031005 -0.8497076424221245 -1.007388225180851 201 201 203
-0.003470655975852957 -0.83679528277561 -1.0220274212664333 201 201 203
0.014790819849168975 -0.8261578380635088 -1.0349248790797971 202 202 204
0.016945102178500197 -0.8252540914830915 -1.0400105665169832 202 202 204
0.7182065293030353 -0.4391971979888081 -1.7629917600034415 216 216 216
-0.45642847060906044 -1.2421446571000145 -2.1383777935161796 216 216 216
-0.4585067898168239 -1.2437094326251936 -2.140504594076807 216 216 216
-0.46537790386132327 -1.2477850791651488 -2.136394481798537 216 216 216
0.7080466881920038 -0.39132504727086487 -1.2688229585046773 191 191 193
0.7006983438788473 -0.3963169129720308 -1.270733055420175 191 191 193
0.6920436787436004 -0.40210272778426476 -1.2720280589028319 192 192 194
0.6231923792892768 -0.4445579283801768 -1.2458305888127774 193 193 195
-0.02396506236585616 -0.8410984915121442 -0.9739452041612485 195 195 197
-0.03741267932152381 -0.850037975755756 -0.9754413983301515 196 196 198
-0.01579415189601731 -0.837285186953414 -0.9895677614554801 197 197 199
0.5801105130421838 -0.4767310976783568 -1.286721852918822 199 199 201
0.014383378957320982 -0.8205197396199119 -1.0198724520550277 200 200 202
-0.03509589196385496 -0.8509286353745135 -1.0000132773724209 200 200 202
-0.03749038118292919 -0.8527653795198138 -1.002782039702824 201 201 203
-0.01348723386766576 -0.8385979029598456 -1.0183849029823833 202 202 204
-0.0010279990952854756 -0.8314362216225478 -1.0284469339677316 202 202 204
-0.05388867562362855 -0.863856010815903 -1.0065436913009203 202 202 204
-0.46702798906336246 -1.24378275278755 -2.127983631894592 216 216 216
-0.4690906467146629 -1.2453392091775508 -2.1301056743608515 216 216 216
-0.4758922360728408 -1.249389650300155 -2.126051229884402 216 216 216
0.6946587674341287 -0.39434350651536976 -1.2695024269440385 192 192 194
0.673564695920656 -0.4077486655994225 -1.26512978672692 192 192 194
0.6139669278413504 -0.44468103063544495 -1.243095278948759 193 193 195
-0.038288342759067284 -0.8456169710469094 -0.9684039050070723 195 195 197
-0.05958364188857371 -0.8593599207557256 -0.9661474430300692 196 196 198
-0.06335792219245563 -0.8620363165134629 -0.9682214912477175 197 197 199
0.5494166741956579 -0.489966722958873 -1.2735523552961996 199 199 201
-0.01254145262555989 -0.8326011580700191 -1.008139812819412 199 199 201
-0.04010307138184353 -0.8501450931611956 -1.0027214073787365 200 200 202
-0.02531745769086291 -0.8415333924793702 -1.0138507053757801 202 202 204
-0.01698355467907088 -0.8368509150152424 -1.0218867771990958 202 202 204
-0.06442418274323453 -0.8660784395727305 -1.0025877270968528 202 202 204
-0.47741591511394177 -1.2453469160088522 -2.1178319210289605 216 216 216
-0.4795728285542926 -1.246953218970182 -2.1198067466807196 216 216 216
-0.48630606059083525 -1.2509788309503387 -2.1158068947734554 216 216 216
0.6884892587185876 -0.39245967178867613 -1.2682102424325103 192 192 194
0.6018298764038716 -0.44612333085746264 -1.2339580078786216 192 192 194
-0.054811290147426514 -0.8515292178648949 -0.9618188134160619 195 195 197
-0.044310180255038245 -0.8454766301153596 -0.9706273357274725 196 196 198
-0.04291294848390553 -0.8449979855109476 -0.9751793470522812 196 196 198
-0.043068381183309426 -0.8454699019491422 -0.9790046480797832 197 197 199
0.5955876391440179 -0.4563438636417724 -1.297241776400781 199 199 201
-0.028531260560576865 -0.8381010217126025 -1.0016480547215716 199 199 201
0.01874434618008189 -0.8100023377530358 -1.0325077142344894 200 200 202
-0.035580749758821445 -0.8435496930360609 -1.0100697414481081 202 202 204
-0.03934540899461521 -0.8462283034246794 -1.0121755590175996 202 202 204
-0.08807440387111615 -0.8763324344525423 -0.9921786306527431 202 202 204
-0.48324364525701197 -1.2445233967486284 -2.1135788947891094 216 216 216
-0.4899552646015078 -1.248551937982881 -2.1096057634256296 216 216 216
-0.4966209890658322 -1.2525529347047222 -2.105659833404457 216 216 216
-0.07784018265228176 -0.8614937242098589 -0.9521658076274837 195 195 197
-0.06261095719547782 -0.8525106035316345 -0.9631696810739073 195 195 197
-0.06883547775066809 -0.8567023734298812 -0.9640889879826049 196 196 198
-0.06326528992990955 -0.8536544966304056 -0.9705896347330205 197 197 199
-0.052553095097198826 -0.8474546106757358 -0.9795670298656405 197 197 199
-0.054070594861397245 -0.8487593304327719 -0.982736028445579 198 198 200
-0.009699003147400007 -0.8230786378507913 -1.019923971443407 201 201 203
-0.09120160243219486 -0.8733726153158909 -0.9841399537126131 202 202 204
-0.08700980543816489 -0.871175972866835 -0.9900421917000266 202 202 204
-0.09934336436103638 -0.8790949058966204 -0.9878353848110419 202 202 204
-0.11696383086154646 -0.890244382158052 -0.9829748920155386 203 203 205
-0.12241703458612954 -0.8939458314763296 -0.9840833818895726 204 204 206
-0.49851489117595077 -1.248759752659117 -2.0970127573494053 216 216 216
-0.5002390948003158 -1.2501354358515868 -2.0995016945816944 216 216 216
-0.5068383136061784 -1.2541121166931435 -2.095608810528984 216 216 216
-0.10131289668409701 -0.8718148454231719 -0.9422814273054811 195 195 197
-0.10486280540303405 -0.874363479377566 -0.9443985862408619 195 195 197
-0.10064159994059649 -0.8721252323990916 -0.9501863047763817 196 196 198
-0.07258067118443287 -0.8552110120596756 -0.9673277388951895 197 197 199
-0.07234996927721962 -0.8554371396011795 -0.9712965257187935 197 197 199
-0.06633104452926693 -0.8521021034314038 -0.9780442336555677 198 198 200
0.5722239359761928 -0.45966621180485595 -1.2891275181518926 198 198 200
0.5799375284624215 -0.4554089336393705 -1.2979507570971214 199 199 201
-0.12583132832729277 -0.8901540794228789 -0.9646228945032548 201 201 203
-0.12720903560089475 -0.8913615188599578 -0.9677330030285871 201 201 203
-0.10156076634415478 -0.875968447633569 -0.9841016164752409 202 202 204
-0.11003537457673326 -0.8815385335860951 -0.9837660161156492 202 202 204
-0.1187098571297932 -0.8872286385204242 -0.9833035105235415 203 203 205
-0.13599566189120535 -0.8982006826443478 -0.9785377822194286 204 204 206
-0.5038475188162113 -1.247724345478729 -2.0933600144032023 216 216 216
-0.5104259208407473 -1.2517040373954547 -2.0894928999964417 216 216 216
-0.5169596312426367 -1.255656704544207 -2.0856521836035427 216 216 216
-0.11429808424798305 -0.8757370243279319 -0.9373057852488265 195 195 197
-0.11671530430767055 -0.8775886297007013 -0.939936778831203 195 195 197
-0.11943910000604668 -0.8796292109052611 -0.9424175467070353 196 196 198
-0.07218359101547576 -0.8507950543700968 -0.9686811010728964 197 197 199
-0.07904868756319815 -0.8554009727243365 -0.9692655717175956 198 198 200
-0.07418253996246975 -0.8527622093171416 -0.9754566495468722 198 198 200
-0.13059852846472192 -0.8890211624742499 -0.9634666671963145 201 201 203
-0.1225290975909944 -0.8844047931224203 -0.971194947868497 201 201 203
-0.12695780513579277 -0.8878540079116977 -0.9766146098641098 202 202 204
-0.13620590232130622 -0.8939103275484594 -0.9758361766342728 203 203 205
-0.1452778073063926 -0.8998552029601645 -0.9751141366242245 204 204 206
-0.14694689986120854 -0.9012402528442003 -0.9780547094062976 204 204 206
-0.5188730067865912 -1.2519268039918836 -2.0770314117772926 216 216 216
-0.5205168703156318 -1.2532578241114503 -2.079578350093393 216 216 216
-0.5269860652381297 -1.2571867828723828 -2.0757889216074767 216 216 216
-0.12918728858530737 -0.8808828994174783 -0.9314218884798178 195 195 197
-0.13081791673620083 -0.8822471535477827 -0.9344007172884129 195 195 197
-0.14496637375830138 -0.8913719140445686 -0.9314360357943655 196 196 198
-0.12553307334988142 -0.8796783095188035 -0.944425183006747 197 197 199
-0.15293582973608735 -0.8970122963384276 -0.9350838301106612 198 198 200
0.5447875704690013 -0.4656448603910903 -1.27901121408556 199 199 201
-0.14370601698100646 -0.8930575079229572 -0.9582379613041321 201 201 203
-0.13732102920713013 -0.8894621954908295 -0.9651263520116146 201 201 203
-0.040216117412662664 -0.8297724493995697 -1.0166603939613423 202 202 204
-0.12291690711430622 -0.8812695047227277 -0.979796227245574 202 202 204
-0.1465355690613596 -0.8962246933474213 -0.971902914440939 203 203 205
-0.15797135835022014 -0.9036450067844896 -0.9699849785208263 204 204 206
-0.5283947948632248 -1.2532097927550798 -2.0678539585910176 216 216 216
-0.5305135310514332 -1.2547971341321258 -2.0697564052110438 216 216 216
-0.5369190437779965 -1.2587026087909066 -2.0660175862250605 216 216 216
-0.13493722148174395 -0.880391220858164 -0.9298325450973421 195 195 197
-0.1451352437629186 -0.8870866448312863 -0.928749918358505 195 195 197
-0.16159814058782168 -0.8976757742676218 -0.92465561309652 196 196 198
-0.1636118087380641 -0.8992741845747974 -0.9273969933699823 197 197 199
-0.16485810092431805 -0.9003952146171246 -0.9305025053295394 198 198 200
-0.1672010102460032 -0.9021977354657513 -0.93308007896428 198 198 200
-0.1778818595307443 -0.9098704598084171 -0.9390070726424137 200 200 202
-0.1759378643190211 -0.9090093306738924 -0.9436531652929969 201 201 203
-0.0873306174031383 -0.8543660233619402 -0.9908182420255147 202 202 204
-0.08930025031718117 -0.8559507212594966 -0.9937268207320584 202 202 204
-0.15635551891152025 -0.8982550613676734 -0.9682132509822201 203 203 205
-0.17081913598092682 -0.9075723097390854 -0.9647667191731175 204 204 206
-0.5383467922404828 -1.254760694315162 -2.058083855699283 216 216 216
-0.5404170182898025 -1.2563220608154735 -2.06002603621032 216 216 216
-0.5467598332599671 -1.260204362119916 -2.05633694311839 216 216 216
-0.15362507815980755 -0.8879916567398077 -0.9221329781617033 195 195 197
-0.15845145138327305 -0.8913496107424869 -0.9235601381719234 195 195 197
-0.18190735366545882 -0.9063327792631729 -0.9161093388034663 196 196 198
-0.07244783693024197 -0.8383801858397435 -0.9720668695888712 197 197 199
0.4137360046565478 -0.5363844082142124 -1.2187572517473766 199 199 201
0.4378288530483252 -0.5218177631469576 -1.2352750922424383 200 200 202
-0.1450731582524191 -0.885784295425158 -0.9598978360486292 201 201 203
-0.131919018396312 -0.877943671124313 -0.9701266077015355 202 202 204
-0.11896255300568168 -0.8702311917713926 -0.9803127676625324 202 202 204
-0.16290220451922346 -0.8986275761910324 -0.9698930173909616 203 203 205
-0.543911371725081 -1.2539507462372033 -2.054042895801775 216 216 216
-0.5502397271196431 -1.257838864697611 -2.0503713656874405 216 216 216
-0.5565096940322163 -1.2616922284890317 -2.0467457581638007 216 216 216
-0.16824037950160897 -0.8934478084819744 -0.9200316165000564 195 195 197
-0.18948710692996523 -0.9074302638141992 -0.9172664697825332 197 197 199
0.3797695090960693 -0.5519618508777988 -1.1990346434761268 198 198 200
0.3760300828372979 -0.5547399408803185 -1.2019861631640851 199 199 201
0.38050230005889496 -0.5523826481956808 -1.2089190182935663 200 200 202
-0.1717756305326777 -0.8983958155846983 -0.947988108278273 201 201 203
-0.15191398490011754 -0.8863307874716917 -0.9614769943201714 202 202 204
-0.14158669162067072 -0.8802280683777585 -0.9703403487602669 202 202 204
-0.5503074080809107 -1.2536119047942422 -2.0488961130174697 216 216 216
-0.5599620265475715 -1.259336357707358 -2.040818621665661 216 216 216
-0.5661871536675804 -1.2631758694918687 -2.0372199819295527 216 216 216
0.23874537973703755 -0.633261675591297 -1.1100059883588678 195 195 197
0.34093338544430085 -0.5711710167483784 -1.1817449516464424 198 198 200
0.3564787371699324 -0.561845860278379 -1.1939722611177186 199 199 201
0.36092158785171347 -0.5594918874490251 -1.2008630431787837 200 200 202
0.39117821700142236 -0.5409500654854463 -1.2203846205261952 200 200 202
0.35369746387255585 -0.5661953791932786 -1.2210492471070302 203 203 205
0.3492997318397899 -0.569385441385971 -1.223615338706885 204 204 206
-0.5675798596899274 -1.2592879007545672 -2.0294091840752735 216 216 216
-0.5722413062874266 -1.2622781893119528 -2.027860611640017 216 216 216
-0.5757596555034067 -1.2646369931639692 -2.027802994259408 216 216 216
0.21193175457618102 -0.6448922463429985 -1.09422465516247 194 194 196
0.2283352409035459 -0.6349496496369483 -1.1064182699581389 195 195 197
0.21866741003555934 -0.6414508145741857 -1.1062796441415963 195 195 197
0.3220254027500784 -0.5775538798258717 -1.1693846577486362 197 197 199
0.3179687566015704 -0.5805326364284956 -1.1720836895546691 198 198 200
0.3138765372617467 -0.583532858605899 -1.1747552193957063 199 199 201
0.3449378891204198 -0.5644050456482962 -1.1945398668843934 200 200 202
0.3392287820659744 -0.5684269770900856 -1.1964674839794929 200 200 202
0.3418300816099018 -0.5685103541861121 -1.2166478829050136 203 203 205
0.3134084987884841 -0.5868014388266134 -1.2072153072726262 204 204 206
-0.577522589550671 -1.26097799179367 -2.019528945819324 216 216 216
-0.57913966658363 -1.262290102648006 -2.0219755406811695 216 216 216
-0.5852451245775779 -1.2660849090816235 -2.0184715600528915 216 216 216
0.19217633258257788 -0.6525637693645228 -1.0862179778610557 195 195 197
0.2123369528922282 -0.640204076371889 -1.1001717794793036 195 195 197
0.3099657113760719 -0.580103364695905 -1.1649951669783607 198 198 200
0.3151803242402674 -0.577227853867309 -1.1721615359708515 199 199 201
0.31139462369636384 -0.5800401670722684 -1.1749811231381708 199 199 201
0.31076749216888877 -0.5808569146637179 -1.1793319113320426 200 200 202
0.31836236311802124 -0.5764829140643452 -1.1877113210600518 200 200 202
0.33085389722556935 -0.569021356642036 -1.1985323344396897 201 201 203
0.3107393530266313 -0.5821393231898491 -1.193316360694089 202 202 204
0.3106101600705812 -0.5826433357687957 -1.19792912275705 202 202 204
0.32417183967150737 -0.5745135276552218 -1.2093559310080326 203 203 205
0.32426010268515354 -0.5748837144436315 -1.2141135340958213 204 204 206
-0.58701252674025 -1.2624530894397146 -2.0102156774018236 216 216 216
-0.5885974944206003 -1.2637467604748873 -2.012682740490393 216 216 216
-0.5946444893449117 -1.267519656276294 -2.0092248534365593 216 216 216
0.19151377189497704 -0.6481810902396897 -1.0872219987886762 195 195 197
0.20711124332636585 -0.6386737901956276 -1.0990258080658233 195 195 197
0.29741089412281074 -0.5830039591262232 -1.1603563558203467 198 198 200
0.2983557190303814 -0.5828199429130931 -1.1654401095890694 199 199 201
0.28830295436968373 -0.5896069776414737 -1.1651839219214308 199 199 201
0.2973818266912367 -0.5842687289886692 -1.1742361898016929 200 200 202
0.29797441018636067 -0.5843097544864339 -1.1791685995324093 201 201 203
0.3017432131246228 -0.5823400306384652 -1.1856718169182285 201 201 203
0.3080296118308762 -0.5787781893145414 -1.1934388584480378 202 202 204
0.31111536170973275 -0.5772448037208388 -1.1996479931303332 202 202 204
0.30910223476691484 -0.5789393283284268 -1.2033354224720243 203 203 205
0.3190274836393817 -0.5730816112972635 -1.212988443853553 204 204 206
-0.5964161923493672 -1.2639147744353256 -2.0009870768369025 216 216 216
-0.5979696422068295 -1.2651902221525964 -2.003474125372284 216 216 216
-0.6039589806619925 -1.2689414486988277 -2.000061641331166 216 216 216
0.2646011250980959 -0.5963986767263743 -1.1186120687198056 195 195 197
0.18904164380309513 -0.6449414484389207 -1.0873718537580623 195 195 197
0.28373700334742924 -0.5866559060147731 -1.1551658743238908 198 198 200
0.2853544764548978 -0.5860373641816425 -1.1605570215584102 199 199 201
0.28660736857706914 -0.58565168442623 -1.1657821512956077 199 199 201
0.2991347905465763 -0.5780994005946978 -1.176529437064035 200 200 202
0.2856485059034113 -0.5870850022377537 -1.1745622962250533 201 201 203
0.297434437356382 -0.5800089420759813 -1.1850014077232154 201 201 203
0.301309968155975 -0.5779621771530645 -1.191578260381499 202 202 204
0.2941921173033296 -0.5828984227579941 -1.1927158352019318 202 202 204
0.3008925294480467 -0.5790599785931463 -1.2007205687107316 204 204 206
0.3008849805755049 -0.5794818094641869 -1.205399273174644 204 204 206
-0.6057346646109439 -1.265363176719121 -1.9918421178936345 216 216 216
-0.6072574915079717 -1.266620791020774 -1.9943482608986398 216 216 216
-0.613189670370511 -1.2703504203442935 -1.9909808945370946 216 216 216
0.29036015489566924 -0.5749510233868369 -1.1321341544831602 195 195 197
0.2602394563525361 -0.5966229353969199 -1.1452112968171813 198 198 200
0.26666079961921957 -0.5929289359281498 -1.1528978730828552 199 199 201
0.2731043653528846 -0.589223414349944 -1.1606253204837433 200 200 202
0.2804068063793889 -0.5849727430807161 -1.1688033528400734 201 201 203
0.28185295636480934 -0.5844593635905125 -1.1741370088450689 201 201 203
0.29321241434804657 -0.57762732296293 -1.1843724308924335 201 201 203
0.30773083967038534 -0.568786383170777 -1.1962218770698052 202 202 204
0.2835570591495083 -0.5846034901878545 -1.1888936756122694 202 202 204
0.281835872946568 -0.5861110424978522 -1.1926849243282749 204 204 206
0.2873158333856026 -0.58303277083422 -1.2000835578370967 204 204 206
-0.6149693225822985 -1.2667986034963354 -1.9827793684691704 216 216 216
-0.6187565966140898 -1.2693314606096844 -1.982251160120057 216 216 216
-0.6235680361155911 -1.2724396710390715 -1.9803407239296495 216 216 216
0.33079470848395676 -0.5439681214139624 -1.152627275517645 195 195 197
0.638231797610376 -0.3472204551272668 -1.3032372986893812 195 195 197
0.1738673127737089 -0.646943952641271 -1.1047830678668573 198 198 200
0.1788996750918507 -0.6441087694793876 -1.111638169982908 199 199 201
0.18479843226490206 -0.6407211486403925 -1.1189407333033559 200 200 202
0.25420269146844354 -0.5966960715977705 -1.1573946282986285 201 201 203
0.2811122423106091 -0.5798820186535973 -1.1752140154106028 201 201 203
0.27791968541347867 -0.5823309834157203 -1.1782736196432044 201 201 203
0.33237328667750776 -0.5479185144403699 -1.2099134311668007 202 202 204
0.25722193718742825 -0.5963765721742352 -1.1772460592826557 202 202 204
0.25852245280843883 -0.5959497495459062 -1.1825022427920764 204 204 206
0.2774227363364591 -0.5842790002509766 -1.1965994743769142 204 204 206
-0.6241210802205858 -1.2682211093856766 -1.9737980057595146 216 216 216
-0.6284300141267778 -1.2710542728265217 -1.972548533792636 216 216 216
-0.6326149065025102 -1.2738155403424898 -1.9714451086145381 216 216 216
0.3047039683878444 -0.5556153439963099 -1.1416823043275963 195 195 197
0.6983171079779091 -0.3027662743878754 -1.3333820455981742 195 195 197
0.6858441524177026 -0.3112596983116058 -1.3328282206264752 196 196 198
0.15154250502008393 -0.6564623230831713 -1.0953116333059734 198 198 200
0.1595129693463978 -0.6517230369779835 -1.1035634865762782 199 199 201
0.23280169365892572 -0.6050375900813361 -1.1437757520147678 200 200 202
0.239774284601401 -0.6009562908951838 -1.1517364115792397 201 201 203
0.27574243576188884 -0.5782658118391427 -1.1740135040493889 201 201 203
0.1998478417655824 -0.6273727397982758 -1.141111131322201 202 202 204
0.34723485405409316 -0.5332075556645002 -1.218782565210761 202 202 204
0.3360906168225472 -0.5407720456962913 -1.2180106141389884 202 202 204
0.3448507427501337 -0.5355702971586138 -1.2271612053472902 204 204 206
