ply
format ascii 1.0
element vertex 880
property float x
property float y
property float z
property float nx
property float ny
property float nz
property uchar diffuse_red
property uchar diffuse_green
property uchar diffuse_blue
property uchar class
property uchar detection
end_header
-0.0297 0.3212 -1.5918 -0.203 0.866 0.457 87 70 47 0 0
-0.0116 0.4012 -1.6232 0.044 0.828 0.559 114 90 53 0 0
-0.0110 0.4037 -1.6269 0.044 0.828 0.559 78 55 25 0 0
-0.0221 0.3547 -1.7503 0.158 0.987 -0.011 100 78 45 0 0
-0.0222 0.3542 -1.7561 0.098 0.993 -0.067 123 100 58 0 0
-0.0215 0.3573 -1.7597 -0.012 0.951 0.310 104 81 39 0 0
-0.0235 0.3485 -1.7934 0.189 0.802 0.567 90 70 36 0 0
-0.0146 0.3874 -1.9603 -0.021 0.944 0.330 83 62 32 0 0
-0.0138 0.3912 -1.9691 0.143 0.922 0.360 85 64 33 0 0
-0.0099 0.4084 -2.0265 -0.410 0.911 0.033 81 60 29 0 0
-0.0037 0.4359 -2.0820 -0.082 0.994 0.071 83 62 31 0 0
-0.0017 0.4448 -2.1227 0.467 0.556 0.688 84 67 30 0 0
0.0046 0.4724 -2.1601 0.055 0.791 0.610 87 67 32 0 0
0.0131 0.5100 -2.2189 0.318 0.853 0.413 86 65 30 0 0
0.0139 0.5133 -2.2221 0.211 0.853 0.477 88 68 33 0 0
0.0138 0.5131 -2.2284 0.103 0.935 0.339 93 74 38 0 0
0.0154 0.5200 -2.2345 0.291 0.688 0.665 92 73 38 0 0
0.0193 0.5372 -2.2620 -0.200 0.976 0.081 94 84 61 0 0
-0.0737 0.1065 -0.9640 0.176 0.951 0.253 87 63 36 0 0
-0.0739 0.1055 -0.9690 0.303 0.953 0.022 91 71 44 0 0
-0.0851 0.0554 -1.0776 -0.374 0.928 -0.009 63 50 35 0 0
-0.0822 0.0680 -1.1321 0.077 0.957 0.279 10 7 6 0 0
-0.0819 0.0695 -1.1365 0.223 0.918 0.328 10 6 7 0 0
-0.0813 0.0721 -1.1405 0.187 0.815 0.548 10 6 7 0 0
-0.0801 0.0773 -1.1484 0.074 0.846 0.529 16 12 9 0 0
-0.0798 0.0786 -1.1529 0.351 0.881 0.318 31 23 16 0 0
-0.0626 0.1548 -1.3022 0.215 0.977 0.015 83 65 37 0 0
-0.0624 0.1558 -1.3120 -0.164 0.986 0.043 73 53 31 0 0
-0.0592 0.1697 -1.3621 0.019 0.749 0.663 130 106 71 0 0
-0.0472 0.2228 -1.4033 0.383 0.734 0.561 190 162 111 0 0
-0.0376 0.2652 -1.4593 0.224 0.927 0.299 122 98 59 0 0
-0.0347 0.2783 -1.4731 0.041 0.999 -0.019 81 57 23 0 0
-0.0302 0.2979 -1.5094 0.033 0.927 0.375 88 67 36 0 0
-0.0278 0.3084 -1.5561 -0.458 0.618 0.639 88 65 21 0 0
-0.0270 0.3123 -1.5592 -0.458 0.618 0.639 79 56 20 0 0
-0.0264 0.3149 -1.5683 -0.529 0.845 -0.080 113 86 44 0 0
-0.0255 0.3187 -1.5820 -0.024 0.997 0.069 91 67 34 0 0
-0.0254 0.3193 -1.5870 -0.118 0.956 0.269 80 61 36 0 0
-0.0139 0.3700 -1.6099 -0.256 0.358 0.898 128 107 73 0 0
-0.0062 0.4042 -1.6525 -0.175 0.984 -0.018 87 66 37 0 0
-0.0181 0.3512 -1.7133 0.065 0.883 0.465 55 37 13 0 0
-0.0183 0.3502 -1.7526 0.497 0.828 0.259 104 80 45 0 0
-0.0185 0.3492 -1.7588 0.572 0.819 0.040 122 98 57 0 0
-0.0187 0.3484 -1.7984 -0.060 0.834 0.549 95 72 37 0 0
-0.0096 0.3881 -1.9474 -0.126 0.895 0.427 74 53 26 0 0
-0.0087 0.3919 -1.9620 -0.029 0.873 0.487 87 66 35 0 0
-0.0035 0.4150 -2.0147 0.105 0.992 0.064 84 63 32 0 0
0.0019 0.4388 -2.0848 -0.193 0.965 0.179 82 59 28 0 0
0.0161 0.5016 -2.1888 0.122 0.900 0.418 85 62 28 0 0
0.0173 0.5069 -2.2146 0.343 0.790 0.509 86 63 29 0 0
0.0232 0.5330 -2.2526 0.064 0.971 0.230 85 70 34 0 0
0.0238 0.5356 -2.2625 -0.035 0.993 0.113 95 83 58 0 0
-0.0827 0.0458 -0.9032 -0.075 0.077 0.994 179 175 171 0 0
-0.0690 0.1069 -0.9216 0.151 0.817 0.557 99 76 44 0 0
-0.0686 0.1090 -0.9395 0.125 0.986 0.108 93 73 41 0 0
-0.0698 0.1034 -0.9506 -0.011 0.968 0.251 85 65 38 0 0
-0.0803 0.0557 -1.0673 -0.602 0.784 0.151 107 102 96 0 0
-0.0799 0.0573 -1.0716 -0.678 0.727 0.108 152 149 146 0 0
-0.0799 0.0574 -1.0765 -0.637 0.771 0.005 172 169 167 0 0
-0.0798 0.0578 -1.0813 -0.640 0.766 -0.061 171 168 165 0 0
-0.0801 0.0565 -1.0866 -0.390 0.906 -0.163 165 163 159 0 0
-0.0804 0.0552 -1.0920 -0.275 0.909 -0.314 131 128 122 0 0
-0.0762 0.0736 -1.1445 0.193 0.756 0.625 15 11 8 0 0
-0.0755 0.0766 -1.1483 -0.003 0.782 0.623 14 12 9 0 0
-0.0755 0.0765 -1.1533 -0.067 0.933 0.353 18 14 9 0 0
-0.0726 0.0894 -1.1682 0.270 0.772 0.576 85 66 30 0 0
-0.0518 0.1819 -1.2443 -0.321 0.921 -0.221 121 97 59 0 0
-0.0574 0.1567 -1.3111 0.026 1.000 -0.012 62 41 20 0 0
-0.0575 0.1558 -1.3166 -0.347 0.922 0.173 47 25 7 0 0
-0.0378 0.2433 -1.4234 -0.135 0.986 0.096 171 140 93 0 0
-0.0337 0.2614 -1.4503 0.220 0.632 0.743 104 80 42 0 0
-0.0325 0.2670 -1.4629 0.211 0.926 0.315 110 85 45 0 0
-0.0317 0.2702 -1.4821 0.383 0.866 0.322 78 52 26 0 0
-0.0205 0.3201 -1.5753 -0.522 0.767 0.373 124 93 62 0 0
-0.0205 0.3200 -1.5807 -0.375 0.910 0.176 86 60 30 0 0
-0.0191 0.3260 -1.5984 -0.095 0.534 0.840 144 123 86 0 0
-0.0077 0.3770 -1.6103 0.339 0.272 0.901 120 101 74 0 0
-0.0081 0.3735 -1.8709 -0.004 0.701 0.713 87 67 34 0 0
-0.0081 0.3732 -1.8825 0.241 0.970 0.019 95 74 44 0 0
-0.0068 0.3789 -1.9072 0.015 0.875 0.484 79 58 27 0 0
-0.0047 0.3883 -1.9465 -0.126 0.895 0.427 74 53 26 0 0
-0.0034 0.3937 -1.9657 0.070 0.931 0.358 86 65 34 0 0
0.0016 0.4156 -2.0311 -0.135 0.889 0.437 89 66 33 0 0
0.0057 0.4340 -2.0759 -0.319 0.522 0.791 84 63 32 0 0
0.0062 0.4361 -2.0802 0.080 0.993 0.091 83 62 31 0 0
0.0064 0.4367 -2.0856 0.292 0.899 0.327 84 61 30 0 0
0.0067 0.4383 -2.0903 0.292 0.899 0.327 92 72 36 0 0
0.0136 0.4686 -2.1555 -0.064 0.825 0.561 85 65 30 0 0
0.0145 0.4728 -2.1641 -0.182 0.809 0.559 85 65 30 0 0
0.0215 0.5039 -2.2164 0.085 0.934 0.346 81 58 24 0 0
0.0220 0.5056 -2.2209 -0.005 0.941 0.338 86 64 30 0 0
0.0266 0.5263 -2.2454 0.199 0.790 0.579 89 73 39 0 0
0.0287 0.5356 -2.2615 -0.035 0.993 0.113 97 83 57 0 0
-0.0781 0.0458 -0.9028 0.027 0.055 0.998 178 173 171 0 0
-0.0644 0.1072 -0.9212 -0.149 0.958 0.244 96 75 43 0 0
-0.0646 0.1057 -0.9730 0.005 0.976 0.219 76 59 29 0 0
-0.0752 0.0572 -1.0567 -0.802 0.538 0.260 148 148 144 0 0
-0.0721 0.0703 -1.1404 0.109 0.927 0.360 38 31 21 0 0
-0.0719 0.0713 -1.1450 0.286 0.900 0.330 35 28 21 0 0
-0.0716 0.0728 -1.1494 0.286 0.900 0.330 25 20 15 0 0
-0.0712 0.0743 -1.1538 0.286 0.900 0.330 16 11 7 0 0
-0.0698 0.0806 -1.1563 0.271 0.891 0.365 31 28 21 0 0
-0.0694 0.0823 -1.1606 0.271 0.891 0.365 38 30 18 0 0
-0.0690 0.0840 -1.1649 0.271 0.891 0.365 74 58 31 0 0
-0.0616 0.1170 -1.1915 0.402 0.791 0.461 135 119 82 0 0
-0.0613 0.1183 -1.1960 0.452 0.670 0.589 132 114 71 0 0
-0.0556 0.1438 -1.2153 -0.250 0.713 0.655 175 153 98 0 0
-0.0458 0.1880 -1.2412 -0.088 0.993 -0.081 123 101 61 0 0
-0.0624 0.1120 -1.3571 0.655 0.370 -0.659 176 145 85 0 0
-0.0456 0.1875 -1.3680 -0.105 0.861 0.498 162 136 98 0 0
-0.0416 0.2053 -1.3903 0.385 0.780 0.494 155 129 85 0 0
-0.0379 0.2220 -1.3975 -0.001 0.811 0.586 173 142 96 0 0
-0.0238 0.2843 -1.5158 0.212 0.933 0.291 86 64 32 0 0
-0.0138 0.3285 -1.6017 -0.049 0.630 0.775 120 98 56 0 0
-0.0037 0.3737 -1.6117 -0.184 0.375 0.909 128 106 77 0 0
0.0034 0.4056 -1.6504 0.006 0.957 -0.291 87 66 37 0 0
-0.0085 0.3512 -1.7120 -0.111 0.910 0.399 64 46 23 0 0
-0.0079 0.3538 -1.7158 -0.126 0.865 0.486 67 49 26 0 0
-0.0089 0.3491 -1.7298 0.072 0.927 0.367 84 66 40 0 0
-0.0093 0.3474 -1.7475 -0.084 0.974 0.209 85 64 31 0 0
-0.0037 0.3714 -1.8888 0.072 0.981 0.179 92 71 41 0 0
-0.0020 0.3785 -1.9067 0.015 0.875 0.484 75 55 26 0 0
-0.0002 0.3866 -1.9354 0.355 0.761 0.543 76 55 24 0 0
0.0004 0.3891 -1.9393 0.355 0.761 0.543 76 52 24 0 0
0.0006 0.3899 -1.9446 -0.029 0.981 0.190 75 53 26 0 0
0.0010 0.3919 -1.9488 0.218 0.959 0.180 72 52 25 0 0
0.0012 0.3928 -1.9540 0.218 0.959 0.180 80 60 32 0 0
0.0014 0.3937 -1.9591 0.090 0.973 0.213 90 70 38 0 0
0.0062 0.4147 -2.0192 -0.492 0.802 0.338 82 62 30 0 0
0.0107 0.4342 -2.0749 -0.206 0.724 0.658 90 69 38 0 0
0.0110 0.4355 -2.0858 0.349 0.886 0.306 83 62 31 0 0
0.0113 0.4371 -2.0905 0.349 0.886 0.306 84 63 28 0 0
0.0117 0.4385 -2.0953 0.292 0.899 0.327 110 87 49 0 0
0.0338 0.5367 -2.2596 0.126 0.853 0.507 98 84 58 0 0
-0.0602 0.1049 -0.9448 -0.081 0.996 0.037 93 72 41 0 0
-0.0688 0.0649 -1.0341 0.639 0.564 -0.523 61 49 33 0 0
-0.0700 0.0595 -1.0458 -0.814 0.503 0.292 155 152 146 0 0
-0.0741 0.0399 -1.1068 0.153 0.967 0.206 37 33 31 0 0
-0.0683 0.0660 -1.1416 0.085 0.816 0.572 39 32 22 0 0
-0.0662 0.0750 -1.1730 0.232 0.729 0.644 86 72 40 0 0
-0.0568 0.1175 -1.1909 0.028 0.937 0.348 155 139 86 0 0
-0.0564 0.1191 -1.1952 0.028 0.937 0.348 136 118 65 0 0
-0.0556 0.1228 -1.1987 0.012 0.837 0.547 153 132 79 0 0
-0.0555 0.1231 -1.2036 0.204 0.722 0.661 158 134 79 0 0
-0.0399 0.1935 -1.2334 -0.100 0.562 0.821 156 133 91 0 0
-0.0396 0.1932 -1.3751 -0.105 0.690 0.716 136 113 78 0 0
-0.0371 0.2042 -1.3903 0.459 0.770 0.443 151 123 83 0 0
-0.0234 0.2651 -1.4681 0.032 0.898 0.440 109 85 49 0 0
-0.0169 0.2942 -1.5045 0.419 0.796 0.436 90 66 33 0 0
-0.0194 0.2828 -1.5161 0.376 0.922 0.091 87 64 32 0 0
-0.0193 0.2832 -1.5211 0.376 0.922 0.091 88 65 33 0 0
0.0012 0.3749 -1.6103 0.241 0.226 0.944 94 75 48 0 0
-0.0033 0.3533 -1.7155 0.062 0.917 0.393 77 59 35 0 0
-0.0044 0.3476 -1.7467 -0.084 0.974 0.209 87 67 34 0 0
0.0010 0.3706 -1.8829 0.167 0.960 0.223 87 66 36 0 0
0.0013 0.3718 -1.8878 0.177 0.955 0.239 88 67 38 0 0
0.0013 0.3719 -1.8934 -0.040 0.898 0.438 84 63 34 0 0
0.0018 0.3740 -1.8977 -0.040 0.898 0.438 82 61 32 0 0
0.0022 0.3758 -1.9021 0.021 0.873 0.487 75 54 26 0 0
0.0036 0.3818 -1.9151 0.027 0.951 0.308 74 55 23 0 0
0.0034 0.3808 -1.9216 0.189 0.968 0.162 82 62 30 0 0
0.0045 0.3859 -1.9293 -0.030 0.947 0.321 81 60 29 0 0
0.0049 0.3875 -1.9340 -0.030 0.947 0.321 81 59 29 0 0
0.0048 0.3870 -1.9401 0.223 0.911 0.348 77 53 25 0 0
0.0054 0.3899 -1.9438 -0.029 0.981 0.190 74 53 25 0 0
0.0057 0.3910 -1.9487 0.090 0.973 0.213 71 51 24 0 0
0.0110 0.4139 -2.0308 0.416 0.899 0.136 85 62 30 0 0
0.0144 0.4288 -2.0725 0.103 0.699 0.707 86 65 34 0 0
0.0155 0.4339 -2.0743 0.497 0.396 0.772 90 69 38 0 0
0.0157 0.4347 -2.0856 0.468 0.826 0.314 84 63 31 0 0
0.0159 0.4354 -2.0910 0.349 0.886 0.306 80 60 25 0 0
0.0239 0.4706 -2.1581 0.063 0.886 0.460 87 64 31 0 0
0.0300 0.4979 -2.2014 0.168 0.931 0.324 85 63 29 0 0
0.0303 0.4992 -2.2064 0.093 0.959 0.267 83 63 30 0 0
0.0307 0.5010 -2.2109 0.085 0.934 0.346 80 60 27 0 0
0.0311 0.5027 -2.2156 0.085 0.934 0.346 73 53 20 0 0
-0.0550 0.1079 -0.9435 -0.364 0.926 0.106 95 74 44 0 0
-0.0661 0.0555 -1.0371 0.685 0.463 -0.562 126 121 113 0 0
-0.0645 0.0629 -1.0393 -0.752 0.607 0.259 178 178 177 0 0
-0.0671 0.0498 -1.1275 0.577 0.778 0.249 30 22 17 0 0
-0.0651 0.0587 -1.1440 0.540 0.733 0.414 59 52 42 0 0
-0.0646 0.0607 -1.1482 0.540 0.733 0.414 31 24 15 0 0
-0.0556 0.1012 -1.1821 0.234 0.818 0.526 144 123 72 0 0
-0.0551 0.1036 -1.1862 0.234 0.818 0.526 135 116 67 0 0
-0.0534 0.1110 -1.1931 0.104 0.793 0.600 148 129 78 0 0
-0.0530 0.1130 -1.1973 -0.029 0.795 0.606 148 128 78 0 0
-0.0156 0.2791 -1.4705 -0.045 0.992 0.117 68 44 17 0 0
-0.0102 0.3028 -1.5411 -0.247 0.614 0.749 201 170 117 0 0
0.0037 0.3648 -1.6106 0.044 0.397 0.917 107 90 65 0 0
0.0012 0.3518 -1.7323 -0.098 0.918 0.385 91 71 44 0 0
0.0005 0.3482 -1.7457 -0.008 0.954 0.301 87 67 34 0 0
-0.0012 0.3402 -1.7732 0.509 0.482 0.713 76 51 21 0 0
0.0016 0.3527 -1.7871 0.111 0.933 0.343 69 48 23 0 0
0.0051 0.3676 -1.8501 -0.093 0.825 0.558 78 57 28 0 0
0.0062 0.3718 -1.8928 -0.040 0.898 0.438 84 63 34 0 0
0.0067 0.3739 -1.8970 -0.040 0.898 0.438 80 59 30 0 0
0.0071 0.3760 -1.9013 -0.040 0.898 0.438 76 55 27 0 0
0.0093 0.3852 -1.9407 0.092 0.782 0.617 80 57 26 0 0
0.0099 0.3881 -1.9444 0.092 0.782 0.617 78 56 26 0 0
0.0104 0.3900 -1.9487 -0.049 0.944 0.327 71 51 22 0 0
0.0107 0.3913 -1.9536 -0.031 0.961 0.274 75 55 27 0 0
0.0218 0.4403 -2.0565 -0.093 0.832 0.547 85 64 33 0 0
0.0208 0.4355 -2.0841 0.276 0.913 0.300 84 64 32 0 0
0.0207 0.4350 -2.0905 0.224 0.945 0.237 80 60 25 0 0
0.0286 0.4700 -2.1577 0.063 0.886 0.460 87 64 32 0 0
0.0311 0.4810 -2.1787 -0.450 0.846 0.286 85 62 28 0 0
0.0347 0.4970 -2.2013 0.168 0.931 0.324 86 64 29 0 0
-0.0506 0.1068 -0.9529 0.284 0.709 0.646 85 65 38 0 0
-0.0500 0.1093 -0.9661 0.131 0.983 0.126 92 72 43 0 0
-0.0650 0.0379 -1.1067 0.172 0.930 0.326 75 73 74 0 0
-0.0506 0.1024 -1.1862 0.234 0.818 0.526 139 119 61 0 0
-0.0488 0.1102 -1.1930 -0.014 0.839 0.545 155 133 84 0 0
-0.0483 0.1128 -1.1970 -0.014 0.839 0.545 159 138 86 0 0
-0.0470 0.1183 -1.2047 0.402 0.836 0.375 153 133 73 0 0
-0.0379 0.1587 -1.2778 -0.161 0.969 0.186 99 80 46 0 0
-0.0285 0.2001 -1.3759 0.012 0.783 0.621 140 119 81 0 0
-0.0111 0.2782 -1.4704 -0.167 0.944 0.284 82 59 32 0 0
-0.0113 0.2771 -1.4762 0.335 0.942 0.025 67 44 19 0 0
-0.0088 0.2883 -1.5014 0.418 0.803 0.424 187 157 114 0 0
-0.0044 0.3076 -1.5431 -0.247 0.614 0.749 178 147 92 0 0
-0.0022 0.3175 -1.5480 0.131 0.978 0.163 97 70 27 0 0
-0.0011 0.3218 -1.5932 0.266 0.833 0.486 80 60 34 0 0
0.0083 0.3646 -1.6101 0.140 0.398 0.907 97 77 54 0 0
0.0045 0.3440 -1.7699 -0.036 0.844 0.536 89 63 31 0 0
0.0061 0.3511 -1.7876 0.330 0.891 0.312 73 52 27 0 0
0.0100 0.3677 -1.8494 -0.093 0.825 0.558 81 60 31 0 0
0.0150 0.3889 -1.9430 0.118 0.969 0.216 81 60 29 0 0
0.0155 0.3911 -1.9530 0.090 0.973 0.213 76 55 26 0 0
0.0246 0.4309 -2.0632 0.087 0.934 0.346 85 64 33 0 0
0.0253 0.4335 -2.0790 -0.016 0.975 0.222 84 63 32 0 0
0.0255 0.4346 -2.0840 -0.128 0.976 0.178 82 61 29 0 0
0.0261 0.4369 -2.0941 0.202 0.978 0.052 102 80 42 0 0
0.0299 0.4539 -2.1281 0.280 0.856 0.435 84 62 31 0 0
0.0344 0.4738 -2.1718 0.525 0.815 0.244 88 67 36 0 0
0.0347 0.4751 -2.1768 0.525 0.815 0.244 87 64 33 0 0
0.0365 0.4832 -2.1759 -0.367 0.892 0.262 84 61 28 0 0
0.0471 0.5306 -2.2501 0.143 0.848 0.510 83 68 32 0 0
-0.0456 0.1086 -0.9566 0.039 0.999 0.033 83 63 36 0 0
-0.0455 0.1087 -0.9660 0.131 0.983 0.126 81 61 34 0 0
-0.0603 0.0386 -1.0422 0.709 0.424 -0.564 182 182 184 0 0
-0.0641 0.0195 -1.1081 0.586 0.539 0.605 182 185 186 0 0
-0.0622 0.0282 -1.1099 0.689 0.547 0.476 137 137 137 0 0
-0.0444 0.1086 -1.1932 0.356 0.799 0.484 154 129 82 0 0
-0.0439 0.1110 -1.1973 0.263 0.852 0.452 148 126 67 0 0
-0.0434 0.1131 -1.2014 0.233 0.750 0.618 137 115 45 0 0
-0.0428 0.1160 -1.2052 0.233 0.750 0.618 137 116 55 0 0
-0.0162 0.2346 -1.3995 0.414 0.729 0.545 182 150 109 0 0
-0.0143 0.2429 -1.4056 0.127 0.803 0.582 204 175 126 0 0
-0.0140 0.2444 -1.4099 0.099 0.825 0.557 178 144 97 0 0
-0.0045 0.2863 -1.5020 0.418 0.803 0.424 190 161 118 0 0
0.0164 0.3801 -1.6107 0.167 0.632 0.757 104 83 54 0 0
0.0175 0.3851 -1.6129 0.260 0.874 0.410 122 102 69 0 0
0.0180 0.3875 -1.6167 0.333 0.839 0.431 182 162 124 0 0
0.0185 0.3899 -1.6205 0.149 0.972 0.184 137 115 75 0 0
0.0226 0.4083 -1.6303 0.108 0.833 0.542 73 53 23 0 0
0.0177 0.3852 -1.6661 0.016 0.770 -0.638 98 79 49 0 0
0.0100 0.3475 -1.7670 -0.214 0.962 0.171 95 69 32 0 0
0.0106 0.3495 -1.7879 0.330 0.891 0.312 76 56 29 0 0
0.0134 0.3614 -1.8417 0.239 0.906 0.350 72 52 25 0 0
0.0141 0.3646 -1.8452 0.047 0.888 0.458 74 54 27 0 0
0.0169 0.3761 -1.8997 -0.158 0.934 0.319 75 54 25 0 0
0.0171 0.3773 -1.9046 0.052 0.976 0.210 74 53 24 0 0
0.0178 0.3804 -1.9081 0.093 0.957 0.276 73 52 23 0 0
0.0185 0.3830 -1.9177 0.093 0.957 0.276 81 60 30 0 0
0.0188 0.3844 -1.9224 0.093 0.957 0.276 85 64 33 0 0
0.0191 0.3858 -1.9272 0.158 0.980 0.123 83 62 31 0 0
0.0197 0.3883 -1.9427 -0.011 0.976 0.216 81 58 27 0 0
0.0210 0.3940 -1.9616 0.258 0.882 0.395 91 68 37 0 0
0.0226 0.4008 -1.9740 -0.035 0.890 0.455 93 72 40 0 0
0.0276 0.4232 -2.0153 0.458 0.884 0.091 79 56 24 0 0
0.0286 0.4263 -2.0719 0.133 0.701 0.700 84 63 32 0 0
0.0291 0.4287 -2.0760 0.046 0.585 0.810 84 63 32 0 0
0.0298 0.4319 -2.0854 -0.077 0.923 0.377 84 63 31 0 0
0.0303 0.4338 -2.0898 -0.077 0.923 0.377 82 62 29 0 0
0.0345 0.4525 -2.1164 0.319 0.782 0.535 82 63 31 0 0
0.0359 0.4587 -2.1293 0.154 0.805 0.573 85 63 32 0 0
0.0364 0.4613 -2.1331 0.154 0.805 0.573 84 61 29 0 0
-0.0401 0.1132 -0.9269 0.004 0.989 0.150 105 84 54 0 0
-0.0380 0.1223 -0.9658 0.129 0.925 0.357 80 61 34 0 0
-0.0565 0.0345 -1.0384 0.722 0.394 -0.569 180 182 186 0 0
-0.0575 0.0293 -1.0451 0.675 0.446 -0.588 181 182 184 0 0
-0.0583 0.0259 -1.0512 0.659 0.495 -0.567 182 183 186 0 0
-0.0406 0.1044 -1.1945 -0.168 0.854 0.492 143 118 64 0 0
-0.0273 0.1631 -1.3206 0.036 0.985 -0.171 77 56 29 0 0
-0.0268 0.1649 -1.3300 0.308 0.618 0.723 136 107 55 0 0
-0.0258 0.1691 -1.3537 -0.165 0.631 0.758 141 112 72 0 0
-0.0119 0.2325 -1.4000 0.414 0.729 0.545 189 161 118 0 0
-0.0112 0.2357 -1.4036 0.287 0.890 0.355 190 162 114 0 0
-0.0098 0.2421 -1.4055 0.127 0.803 0.582 171 141 97 0 0
-0.0095 0.2435 -1.4099 0.016 0.808 0.590 171 138 89 0 0
-0.0072 0.2538 -1.4201 0.215 0.845 0.489 141 110 63 0 0
-0.0067 0.2560 -1.4241 0.047 0.888 0.458 139 110 68 0 0
-0.0016 0.2788 -1.4638 0.016 0.990 0.142 111 87 49 0 0
-0.0014 0.2795 -1.4686 0.016 0.990 0.142 82 61 30 0 0
0.0212 0.3811 -1.6094 0.016 0.798 0.602 115 97 70 0 0
0.0270 0.4074 -1.6302 0.157 0.890 0.428 74 52 23 0 0
0.0144 0.3455 -1.7676 -0.265 0.956 0.126 103 78 38 0 0
0.0169 0.3562 -1.7883 0.008 0.985 -0.174 72 53 23 0 0
0.0198 0.3682 -1.8532 0.027 0.965 0.260 69 50 24 0 0
0.0232 0.3824 -1.9174 0.209 0.940 0.271 84 63 32 0 0
0.0235 0.3837 -1.9222 0.209 0.940 0.271 87 66 35 0 0
0.0239 0.3853 -1.9268 0.300 0.939 0.167 82 61 30 0 0
0.0242 0.3868 -1.9315 0.132 0.954 0.270 81 60 29 0 0
0.0246 0.3883 -1.9361 0.166 0.917 0.362 81 58 27 0 0
0.0268 0.3981 -1.9636 -0.047 0.968 0.247 93 70 38 0 0
0.0271 0.3994 -1.9685 -0.047 0.968 0.247 89 69 36 0 0
0.0314 0.4178 -2.0187 0.770 0.602 0.213 80 57 25 0 0
0.0300 0.4109 -2.0359 0.644 0.720 0.258 94 70 34 0 0
0.0343 0.4303 -2.0739 0.268 0.613 0.743 83 62 31 0 0
0.0386 0.4493 -2.1123 0.198 0.560 0.805 96 75 45 0 0
0.0393 0.4521 -2.1159 0.311 0.794 0.523 79 60 29 0 0
0.0414 0.4616 -2.1381 -0.154 0.935 0.321 81 58 26 0 0
0.0445 0.4754 -2.1566 0.038 0.972 0.231 87 65 33 0 0
0.0503 0.5011 -2.2011 0.053 0.901 0.430 82 62 29 0 0
0.0566 0.5294 -2.2493 0.043 0.850 0.526 85 70 35 0 0
-0.0544 0.0215 -1.0474 0.675 0.446 -0.588 183 181 184 0 0
-0.0357 0.1051 -1.1938 -0.215 0.834 0.508 139 118 70 0 0
-0.0231 0.1630 -1.2195 0.210 0.526 0.824 134 116 53 0 0
-0.0219 0.1662 -1.3085 0.240 0.957 -0.163 92 73 42 0 0
-0.0221 0.1653 -1.3140 0.240 0.957 -0.163 75 54 25 0 0
-0.0132 0.2049 -1.3720 0.165 0.817 0.553 121 95 58 0 0
-0.0127 0.2075 -1.3759 0.165 0.817 0.553 143 117 78 0 0
-0.0084 0.2268 -1.3921 0.329 0.602 0.728 130 107 76 0 0
-0.0034 0.2495 -1.4166 0.032 0.762 0.647 160 128 82 0 0
-0.0027 0.2527 -1.4201 0.215 0.845 0.489 149 119 74 0 0
-0.0024 0.2542 -1.4245 0.199 0.893 0.404 144 116 76 0 0
-0.0018 0.2567 -1.4284 0.042 0.810 0.585 128 104 65 0 0
0.0032 0.2790 -1.4684 0.243 0.955 0.168 96 74 43 0 0
0.0038 0.2810 -1.4933 0.240 0.969 -0.064 194 164 112 0 0
0.0094 0.3067 -1.5105 -0.128 0.982 0.141 81 58 26 0 0
0.0103 0.3100 -1.5505 -0.230 0.867 0.441 134 107 58 0 0
0.0144 0.3276 -1.5986 -0.049 0.821 0.568 147 123 74 0 0
0.0224 0.3647 -1.6135 0.247 0.574 0.780 101 83 57 0 0
0.0252 0.3778 -1.6109 0.151 0.635 0.757 94 77 50 0 0
0.0269 0.3856 -1.6114 -0.146 0.940 0.309 129 110 83 0 0
0.0300 0.3993 -1.6453 -0.027 0.983 0.181 97 74 42 0 0
0.0199 0.3493 -1.7367 -0.013 0.980 0.199 60 44 25 0 0
0.0202 0.3507 -1.7469 -0.091 0.989 0.119 89 70 41 0 0
0.0191 0.3450 -1.7673 0.065 0.954 -0.293 113 88 46 0 0
0.0193 0.3454 -1.7726 0.321 0.947 -0.008 73 47 20 0 0
0.0210 0.3529 -1.7899 0.310 0.950 -0.039 72 53 23 0 0
0.0244 0.3674 -1.8531 0.079 0.945 0.318 72 53 24 0 0
0.0258 0.3734 -1.8659 0.479 0.808 0.343 76 55 27 0 0
0.0262 0.3752 -1.8703 -0.080 0.848 0.524 82 61 33 0 0
0.0286 0.3849 -1.9264 0.261 0.889 0.376 84 63 32 0 0
0.0291 0.3869 -1.9306 0.252 0.848 0.466 81 59 28 0 0
0.0296 0.3891 -1.9348 0.252 0.848 0.466 82 59 28 0 0
0.0317 0.3982 -1.9628 -0.047 0.968 0.247 91 69 35 0 0
0.0320 0.3997 -1.9675 0.197 0.969 0.147 85 65 32 0 0
0.0389 0.4291 -2.0622 0.136 0.888 0.440 83 62 31 0 0
0.0396 0.4318 -2.0718 -0.149 0.899 0.411 87 66 35 0 0
0.0400 0.4337 -2.0763 -0.016 0.915 0.403 83 62 31 0 0
0.0404 0.4353 -2.0810 0.518 0.843 0.148 77 56 25 0 0
0.0406 0.4365 -2.0859 0.483 0.834 0.268 80 59 28 0 0
0.0423 0.4442 -2.0857 0.372 0.918 0.140 89 65 32 0 0
0.0439 0.4510 -2.1160 0.320 0.775 0.545 84 65 33 0 0
0.0444 0.4532 -2.1202 0.248 0.821 0.514 77 57 26 0 0
0.0475 0.4671 -2.1386 0.271 0.822 0.501 81 58 26 0 0
0.0481 0.4699 -2.1423 0.440 0.767 0.467 81 58 26 0 0
0.0505 0.4802 -2.1759 -0.059 0.862 0.504 79 56 24 0 0
0.0511 0.4829 -2.1796 0.051 0.923 0.383 81 58 26 0 0
0.0524 0.4887 -2.1867 -0.024 0.874 0.485 81 58 27 0 0
0.0553 0.5018 -2.1997 -0.081 0.884 0.460 81 61 28 0 0
0.0564 0.5064 -2.2139 0.060 0.979 0.193 84 64 31 0 0
-0.0322 0.1083 -0.9048 -0.178 0.938 0.298 154 125 87 0 0
-0.0300 0.1174 -0.9388 -0.183 0.928 0.324 87 66 37 0 0
-0.0493 0.0232 -1.0416 0.750 0.455 -0.481 181 182 184 0 0
-0.0307 0.1059 -1.1931 -0.143 0.872 0.468 104 84 52 0 0
-0.0300 0.1095 -1.1966 -0.238 0.871 0.430 95 79 36 0 0
-0.0205 0.1531 -1.2183 -0.253 0.633 0.732 121 100 53 0 0
-0.0197 0.1569 -1.2217 0.258 0.786 0.562 130 111 56 0 0
-0.0173 0.1655 -1.3033 0.072 0.997 -0.031 76 57 26 0 0
-0.0173 0.1653 -1.3085 0.207 0.971 -0.123 95 76 47 0 0
-0.0175 0.1642 -1.3141 0.240 0.957 -0.163 72 52 23 0 0
-0.0173 0.1650 -1.3188 -0.110 0.994 -0.020 67 46 17 0 0
0.0006 0.2464 -1.4125 0.257 0.749 0.610 165 132 87 0 0
0.0012 0.2492 -1.4163 0.257 0.749 0.610 157 127 83 0 0
0.0017 0.2512 -1.4204 0.293 0.857 0.424 146 117 76 0 0
0.0021 0.2531 -1.4245 0.293 0.857 0.424 140 112 75 0 0
0.0031 0.2577 -1.4325 0.267 0.785 0.560 103 77 44 0 0
0.0037 0.2601 -1.4364 0.329 0.810 0.485 113 88 48 0 0
0.0063 0.2721 -1.4560 0.095 0.887 0.452 106 82 45 0 0
0.0138 0.3055 -1.5106 0.450 0.893 0.036 84 60 26 0 0
0.0119 0.2956 -1.5318 0.444 0.893 0.066 82 56 19 0 0
0.0120 0.2959 -1.5369 0.444 0.893 0.066 83 56 16 0 0
0.0152 0.3106 -1.5497 -0.162 0.834 0.528 132 105 59 0 0
0.0184 0.3244 -1.5999 0.054 0.787 0.615 133 111 65 0 0
0.0305 0.3806 -1.6138 -0.088 0.511 0.855 122 104 77 0 0
0.0333 0.3936 -1.6270 -0.218 0.834 0.507 100 79 46 0 0
0.0259 0.3533 -1.7945 0.260 0.824 0.503 76 53 24 0 0
0.0260 0.3537 -1.7998 0.188 0.962 0.196 93 73 40 0 0
0.0257 0.3507 -1.8413 0.234 0.859 0.456 78 58 31 0 0
0.0295 0.3684 -1.8517 0.061 0.974 0.217 78 59 29 0 0
0.0299 0.3699 -1.8620 0.120 0.947 0.297 72 52 23 0 0
0.0303 0.3716 -1.8664 0.034 0.935 0.353 71 50 23 0 0
0.0312 0.3752 -1.8981 -0.029 0.991 0.127 87 67 37 0 0
0.0331 0.3828 -1.9271 0.415 0.842 0.346 91 70 39 0 0
0.0338 0.3858 -1.9364 0.513 0.762 0.396 81 59 28 0 0
0.0393 0.4090 -2.0358 0.073 0.928 0.365 85 63 26 0 0
0.0445 0.4319 -2.0709 0.203 0.842 0.500 85 64 33 0 0
0.0463 0.4403 -2.0820 0.239 0.807 0.539 79 58 29 0 0
0.0485 0.4494 -2.1164 0.320 0.775 0.545 89 69 35 0 0
0.0506 0.4590 -2.1325 0.141 0.733 0.665 83 60 26 0 0
0.0561 0.4835 -2.1782 0.144 0.801 0.581 81 60 29 0 0
0.0567 0.4862 -2.1820 0.144 0.801 0.581 83 61 30 0 0
0.0603 0.5025 -2.1921 0.248 0.942 0.224 81 59 28 0 0
0.0605 0.5033 -2.1975 0.164 0.880 0.446 83 61 28 0 0
0.0609 0.5052 -2.2080 0.389 0.912 0.131 84 61 28 0 0
0.0661 0.5287 -2.2359 0.381 0.776 0.503 92 74 39 0 0
-0.0282 0.1052 -0.9146 -0.234 0.913 0.335 140 118 78 0 0
-0.0258 0.1159 -0.9343 0.186 0.923 0.336 100 79 50 0 0
-0.0249 0.1199 -0.9377 0.518 0.769 0.375 94 73 44 0 0
-0.0250 0.1102 -1.1959 -0.186 0.811 0.555 84 67 28 0 0
-0.0240 0.1152 -1.1988 -0.197 0.660 0.725 93 75 22 0 0
-0.0097 0.1807 -1.2608 0.045 0.854 -0.518 67 45 20 0 0
-0.0126 0.1652 -1.3080 0.227 0.961 0.159 88 69 39 0 0
-0.0125 0.1652 -1.3183 0.048 0.999 0.003 72 52 20 0 0
-0.0133 0.1608 -1.3407 0.204 0.944 0.259 128 101 52 0 0
-0.0130 0.1620 -1.3453 0.204 0.944 0.259 177 149 96 0 0
-0.0044 0.2016 -1.3726 0.051 0.608 0.792 137 113 79 0 0
-0.0035 0.2059 -1.3757 0.273 0.844 0.462 149 127 87 0 0
0.0050 0.2450 -1.4127 0.257 0.749 0.610 165 134 93 0 0
0.0055 0.2472 -1.4168 0.197 0.816 0.543 145 116 71 0 0
0.0061 0.2498 -1.4206 0.293 0.857 0.424 148 119 81 0 0
0.0067 0.2528 -1.4242 0.451 0.803 0.391 131 102 69 0 0
0.0114 0.2738 -1.4545 0.191 0.767 0.613 105 81 44 0 0
0.0123 0.2777 -1.4680 0.077 0.991 0.111 101 77 49 0 0
0.0180 0.3032 -1.5113 0.463 0.886 -0.009 83 59 25 0 0
0.0178 0.3015 -1.5280 0.842 0.277 0.463 79 54 18 0 0
0.0184 0.3042 -1.5317 0.832 0.335 0.441 83 55 17 0 0
0.0199 0.3107 -1.5490 -0.059 0.907 0.416 145 117 73 0 0
0.0228 0.3225 -1.6004 0.363 0.741 0.565 125 101 58 0 0
0.0233 0.3248 -1.6044 0.287 0.654 0.699 173 147 94 0 0
0.0253 0.3344 -1.6040 -0.053 0.891 0.451 150 122 79 0 0
0.0305 0.3523 -1.7945 0.246 0.941 0.230 78 56 26 0 0
0.0355 0.3737 -1.8586 -0.081 0.792 0.606 74 55 26 0 0
0.0358 0.3749 -1.8634 0.011 0.865 0.501 77 56 28 0 0
0.0364 0.3777 -1.8728 0.278 0.870 0.408 81 60 30 0 0
0.0379 0.3826 -1.9323 0.415 0.842 0.346 84 63 32 0 0
0.0380 0.3828 -1.9379 0.274 0.914 0.300 81 60 29 0 0
0.0383 0.3842 -1.9426 0.274 0.914 0.300 81 58 27 0 0
0.0439 0.4077 -2.0300 0.346 0.723 0.598 81 59 22 0 0
0.0442 0.4090 -2.0350 -0.081 0.939 0.335 83 61 24 0 0
0.0448 0.4113 -2.0450 -0.101 0.561 0.821 124 100 56 0 0
0.0454 0.4140 -2.0487 -0.022 0.383 0.923 164 137 90 0 0
0.0504 0.4366 -2.0782 0.230 0.810 0.539 81 60 29 0 0
0.0509 0.4391 -2.0822 0.230 0.810 0.539 80 60 29 0 0
0.0558 0.4601 -2.1367 0.270 0.823 0.499 80 57 24 0 0
0.0615 0.4855 -2.1817 0.257 0.773 0.580 82 60 29 0 0
0.0644 0.4991 -2.1881 0.248 0.780 0.575 81 58 27 0 0
0.0650 0.5020 -2.1916 0.456 0.829 0.323 84 61 30 0 0
0.0654 0.5036 -2.1963 0.456 0.829 0.323 85 62 30 0 0
-0.0214 0.1149 -0.9390 0.321 0.947 0.009 95 74 45 0 0
-0.0047 0.1821 -1.2547 0.309 0.803 -0.509 62 41 17 0 0
-0.0081 0.1640 -1.3081 -0.172 0.853 0.494 74 54 28 0 0
-0.0076 0.1664 -1.3121 -0.172 0.853 0.494 66 48 21 0 0
-0.0081 0.1638 -1.3184 0.489 0.865 0.115 74 55 26 0 0
-0.0087 0.1598 -1.3407 0.010 0.831 0.557 118 89 41 0 0
-0.0039 0.1821 -1.3559 0.066 0.670 0.739 168 136 92 0 0
0.0073 0.2339 -1.3973 0.079 0.911 0.405 176 152 109 0 0
0.0093 0.2428 -1.4133 0.206 0.828 0.521 142 112 78 0 0
0.0158 0.2724 -1.4547 0.428 0.776 0.464 99 75 39 0 0
0.0171 0.2779 -1.4725 0.444 0.786 0.430 66 47 22 0 0
0.0170 0.2771 -1.4833 0.026 0.839 0.543 154 126 79 0 0
0.0199 0.2905 -1.4969 0.012 0.920 0.392 190 164 121 0 0
0.0215 0.2973 -1.5140 0.103 0.960 0.260 82 58 24 0 0
0.0219 0.2987 -1.5237 -0.551 0.831 0.077 76 52 18 0 0
0.0228 0.3027 -1.5267 -0.581 0.774 0.253 78 53 19 0 0
0.0229 0.3032 -1.5369 0.231 0.928 0.292 125 93 47 0 0
0.0270 0.3201 -1.6013 0.416 0.597 0.685 120 96 54 0 0
0.0278 0.3236 -1.6045 0.259 0.631 0.731 167 143 93 0 0
0.0298 0.3333 -1.6040 -0.097 0.505 0.857 146 120 79 0 0
0.0438 0.3984 -1.6439 0.117 0.956 0.269 104 81 48 0 0
0.0335 0.3468 -1.7144 -0.019 0.959 0.283 62 47 26 0 0
0.0359 0.3565 -1.7521 0.264 0.816 0.515 120 95 53 0 0
0.0301 0.3271 -1.7995 -0.116 0.866 0.486 83 62 32 0 0
0.0385 0.3649 -1.8584 0.203 0.951 0.234 78 57 28 0 0
0.0401 0.3728 -1.8585 0.185 0.891 0.414 75 54 25 0 0
0.0405 0.3745 -1.8630 0.011 0.865 0.501 77 56 27 0 0
0.0410 0.3769 -1.8670 0.011 0.865 0.501 78 57 27 0 0
0.0415 0.3790 -1.8711 0.022 0.876 0.482 80 59 28 0 0
0.0407 0.3745 -1.8800 0.091 0.966 0.243 82 59 31 0 0
0.0416 0.3772 -1.9240 0.274 0.914 0.300 84 63 32 0 0
0.0422 0.3800 -1.9334 0.274 0.914 0.300 86 65 34 0 0
0.0426 0.3815 -1.9381 0.274 0.914 0.300 84 63 32 0 0
0.0470 0.4008 -1.9876 0.193 0.935 0.297 86 66 33 0 0
0.0474 0.4023 -1.9923 0.193 0.935 0.297 86 63 31 0 0
0.0500 0.4127 -2.0489 -0.267 0.837 0.478 171 145 98 0 0
0.0505 0.4150 -2.0531 -0.210 0.911 0.354 135 112 74 0 0
0.0554 0.4372 -2.0829 0.448 0.619 0.645 82 62 30 0 0
0.0562 0.4408 -2.0860 0.190 0.977 0.099 86 63 32 0 0
0.0566 0.4422 -2.1027 0.223 0.874 0.431 180 148 93 0 0
0.0571 0.4440 -2.1072 0.229 0.879 0.418 195 165 112 0 0
0.0609 0.4608 -2.1413 0.059 0.921 0.385 82 58 28 0 0
0.0662 0.4847 -2.1815 0.034 0.804 0.593 79 58 27 0 0
0.0757 0.5279 -2.2408 0.458 0.831 0.315 89 74 40 0 0
-0.0193 0.1037 -0.9237 0.156 0.828 0.539 96 75 44 0 0
-0.0182 0.0979 -1.1851 0.404 0.765 0.502 88 71 41 0 0
-0.0039 0.1650 -1.2219 -0.307 0.515 0.800 108 89 33 0 0
-0.0039 0.1613 -1.3089 0.087 0.767 0.635 62 42 19 0 0
-0.0034 0.1638 -1.3128 0.366 0.876 0.312 66 48 24 0 0
-0.0047 0.1569 -1.3314 0.292 0.928 0.232 83 63 22 0 0
0.0051 0.2015 -1.3768 -0.037 0.880 0.473 113 93 63 0 0
0.0122 0.2347 -1.4015 0.137 0.873 0.467 160 134 96 0 0
0.0127 0.2369 -1.4055 0.048 0.923 0.381 161 136 101 0 0
0.0138 0.2417 -1.4133 0.206 0.828 0.521 120 89 61 0 0
0.0150 0.2475 -1.4207 0.223 0.840 0.494 129 100 69 0 0
0.0163 0.2534 -1.4279 0.051 0.675 0.736 128 103 67 0 0
0.0170 0.2567 -1.4314 0.062 0.842 0.536 113 89 47 0 0
0.0263 0.2979 -1.5131 0.441 0.744 0.503 80 56 22 0 0
0.0280 0.3051 -1.5353 -0.115 0.985 -0.131 104 74 35 0 0
0.0278 0.3028 -1.5630 -0.138 0.958 0.250 82 58 26 0 0
0.0315 0.3190 -1.6013 0.088 0.861 0.502 109 85 44 0 0
0.0346 0.3336 -1.6033 0.061 0.499 0.865 161 136 94 0 0
0.0462 0.3891 -1.6121 -0.069 0.555 0.829 142 123 92 0 0
0.0483 0.3977 -1.6491 0.231 0.970 -0.074 96 72 41 0 0
0.0399 0.3523 -1.7653 0.170 0.974 -0.148 76 52 22 0 0
0.0452 0.3738 -1.8627 0.188 0.859 0.476 77 56 26 0 0
0.0448 0.3718 -1.8698 -0.078 0.919 0.387 78 56 25 0 0
0.0454 0.3740 -1.8796 0.091 0.966 0.243 82 58 29 0 0
0.0470 0.3806 -1.9035 0.169 0.932 0.322 79 58 27 0 0
0.0467 0.3784 -1.9223 0.221 0.728 0.648 83 62 31 0 0
0.0473 0.3814 -1.9259 0.221 0.728 0.648 90 69 38 0 0
0.0475 0.3821 -1.9312 0.231 0.901 0.368 88 67 36 0 0
0.0526 0.4043 -1.9841 -0.091 0.991 0.094 86 66 33 0 0
0.0525 0.4034 -1.9907 0.161 0.838 0.521 87 64 32 0 0
0.0529 0.4051 -1.9952 0.090 0.871 0.483 86 63 31 0 0
0.0533 0.4071 -1.9995 0.086 0.884 0.459 86 63 31 0 0
0.0521 0.3999 -2.0345 0.591 0.805 0.058 89 67 31 0 0
0.0536 0.4069 -2.0350 0.220 0.855 0.470 87 65 28 0 0
0.0577 0.4257 -2.0616 -0.172 0.899 0.402 84 61 31 0 0
0.0659 0.4615 -2.1399 0.295 0.835 0.464 82 58 30 0 0
0.0681 0.4712 -2.1619 0.336 0.918 0.210 82 61 31 0 0
0.0805 0.5274 -2.2404 0.334 0.876 0.349 85 70 37 0 0
0.0809 0.5292 -2.2449 0.311 0.878 0.363 86 71 38 0 0
-0.0165 0.0964 -0.8980 -0.355 0.606 0.712 116 98 74 0 0
-0.0127 0.1135 -0.9249 0.009 0.959 0.283 92 71 42 0 0
-0.0122 0.1156 -0.9288 -0.024 0.965 0.263 100 79 50 0 0
-0.0127 0.1120 -0.9578 -0.129 0.953 0.276 82 60 36 0 0
-0.0129 0.1006 -1.1886 0.408 0.709 0.576 72 54 23 0 0
-0.0119 0.1053 -1.1916 0.286 0.635 0.718 85 64 26 0 0
-0.0078 0.1243 -1.2038 -0.254 0.750 0.611 93 74 27 0 0
-0.0001 0.1606 -1.2233 0.011 0.403 0.915 117 96 42 0 0
0.0033 0.1758 -1.2516 0.779 0.606 0.158 81 61 31 0 0
0.0016 0.1650 -1.3067 0.435 0.720 0.540 63 46 18 0 0
0.0027 0.1702 -1.3094 0.516 0.727 0.453 76 57 28 0 0
-0.0001 0.1557 -1.3314 0.535 0.841 0.083 77 57 20 0 0
0.0052 0.1805 -1.3556 0.004 0.623 0.782 128 105 63 0 0
0.0086 0.1960 -1.3687 -0.012 0.789 0.615 130 107 81 0 0
0.0098 0.2014 -1.3764 0.264 0.791 0.552 142 124 97 0 0
0.0103 0.2039 -1.3803 0.264 0.791 0.552 172 151 126 0 0
0.0117 0.2106 -1.3822 0.097 0.758 0.645 148 126 100 0 0
0.0124 0.2136 -1.3858 0.097 0.758 0.645 143 120 88 0 0
0.0166 0.2334 -1.4016 0.081 0.787 0.612 177 145 109 0 0
0.0309 0.2971 -1.5130 0.179 0.786 0.592 77 54 20 0 0
0.0292 0.2886 -1.5282 0.597 0.802 0.004 78 54 20 0 0
0.0307 0.2955 -1.5296 0.441 0.812 0.381 80 56 22 0 0
0.0328 0.3047 -1.5560 0.358 0.873 0.332 81 52 20 0 0
0.0332 0.3063 -1.5604 0.358 0.873 0.332 85 59 31 0 0
0.0336 0.3078 -1.5648 0.358 0.873 0.332 79 55 25 0 0
0.0337 0.3083 -1.5698 0.305 0.936 0.176 88 65 34 0 0
0.0362 0.3200 -1.5735 0.048 0.973 0.225 83 57 27 0 0
0.0364 0.3211 -1.5782 0.048 0.973 0.225 82 56 26 0 0
0.0358 0.3171 -1.5965 0.239 0.841 0.486 123 98 60 0 0
0.0359 0.3176 -1.6015 0.224 0.808 0.544 103 78 35 0 0
0.0392 0.3334 -1.6028 -0.063 0.667 0.743 156 129 82 0 0
0.0506 0.3881 -1.6121 0.439 0.502 0.745 139 118 90 0 0
0.0435 0.3479 -1.7454 0.457 0.858 0.234 86 66 41 0 0
0.0440 0.3497 -1.7552 0.656 0.682 0.324 119 94 56 0 0
0.0445 0.3519 -1.7593 0.370 0.569 0.734 125 100 57 0 0
0.0444 0.3509 -1.7656 0.441 0.881 0.170 79 55 25 0 0
0.0451 0.3529 -1.7976 0.001 0.966 0.259 92 71 38 0 0
0.0484 0.3657 -1.8677 0.179 0.956 0.233 76 53 22 0 0
0.0487 0.3668 -1.8726 0.179 0.956 0.233 73 50 19 0 0
0.0507 0.3764 -1.8772 0.225 0.879 0.419 79 58 27 0 0
0.0510 0.3777 -1.8820 -0.093 0.888 0.450 79 58 27 0 0
0.0507 0.3761 -1.8888 0.064 0.942 0.330 81 60 29 0 0
0.0525 0.3830 -1.9297 0.193 0.865 0.464 83 62 31 0 0
0.0568 0.4012 -1.9857 -0.036 0.971 0.236 86 65 32 0 0
0.0575 0.4043 -1.9892 0.098 0.847 0.523 87 64 32 0 0
0.0578 0.4052 -1.9943 0.229 0.959 0.168 86 63 31 0 0
0.0580 0.4064 -1.9993 0.201 0.918 0.343 86 63 31 0 0
0.0698 0.4571 -2.1367 0.172 0.850 0.498 77 56 25 0 0
0.0705 0.4600 -2.1403 0.295 0.835 0.464 76 55 25 0 0
0.0757 0.4836 -2.1806 0.078 0.830 0.553 83 62 33 0 0
0.0855 0.5277 -2.2453 0.311 0.878 0.363 80 67 33 0 0
0.0862 0.5306 -2.2549 0.071 0.834 0.547 78 67 36 0 0
-0.0070 0.1193 -0.9181 0.233 0.799 0.555 97 76 47 0 0
-0.0079 0.1147 -0.9242 0.222 0.846 0.484 93 72 43 0 0
-0.0073 0.1170 -0.9327 0.313 0.919 0.240 89 68 39 0 0
-0.0157 0.0722 -1.0133 -0.400 0.890 0.220 180 181 183 0 0
-0.0028 0.1255 -1.2078 -0.440 0.784 0.437 94 75 29 0 0
0.0088 0.1799 -1.2493 0.126 0.963 -0.237 78 57 27 0 0
0.0064 0.1658 -1.2958 0.155 0.946 0.285 67 51 26 0 0
0.0062 0.1646 -1.3014 0.267 0.873 0.408 71 54 28 0 0
0.0061 0.1638 -1.3119 -0.092 0.982 0.167 78 59 30 0 0
0.0054 0.1595 -1.3241 0.158 0.965 -0.211 54 34 10 0 0
0.0058 0.1603 -1.3493 0.293 0.836 0.463 181 145 93 0 0
0.0123 0.1910 -1.3655 0.315 0.675 0.667 130 111 79 0 0
0.0146 0.2020 -1.3756 0.068 0.965 0.254 126 102 73 0 0
0.0255 0.2523 -1.4275 0.085 0.813 0.575 127 99 62 0 0
0.0261 0.2549 -1.4313 0.085 0.813 0.575 120 96 57 0 0
0.0304 0.2744 -1.4624 0.103 0.806 0.583 95 72 39 0 0
0.0359 0.2983 -1.5275 0.254 0.890 0.378 78 54 20 0 0
0.0364 0.3000 -1.5370 0.620 0.770 0.153 91 66 32 0 0
0.0370 0.3019 -1.5570 0.801 0.461 0.381 79 51 17 0 0
0.0376 0.3049 -1.5606 0.728 0.609 0.315 77 51 22 0 0
0.0380 0.3067 -1.5648 0.728 0.609 0.315 79 55 24 0 0
0.0381 0.3069 -1.5700 0.305 0.936 0.176 81 58 25 0 0
0.0399 0.3143 -1.5923 0.081 0.902 0.424 122 97 57 0 0
0.0404 0.3164 -1.6016 0.224 0.808 0.544 106 83 39 0 0
0.0444 0.3356 -1.6009 0.502 0.579 0.642 159 132 87 0 0
0.0451 0.3388 -1.6043 0.502 0.579 0.642 127 102 69 0 0
0.0478 0.3451 -1.7466 0.350 0.927 0.133 72 51 26 0 0
0.0481 0.3465 -1.7567 0.656 0.682 0.324 106 82 43 0 0
0.0514 0.3581 -1.8439 0.380 0.855 0.353 80 59 28 0 0
0.0516 0.3589 -1.8491 0.043 0.900 0.433 82 59 28 0 0
0.0525 0.3629 -1.8576 -0.056 0.931 0.360 80 57 26 0 0
0.0559 0.3759 -1.9227 0.227 0.750 0.621 83 60 29 0 0
0.0565 0.3789 -1.9262 0.233 0.726 0.647 89 66 35 0 0
0.0904 0.5279 -2.2442 -0.009 0.966 0.260 80 67 34 0 0
-0.0072 0.0974 -0.8924 0.327 0.642 0.693 107 94 77 0 0
-0.0066 0.1001 -0.8962 0.046 0.596 0.801 116 97 75 0 0
-0.0039 0.1131 -0.9014 0.185 0.946 0.265 169 143 112 0 0
-0.0035 0.1148 -0.9100 0.077 0.986 0.146 137 112 79 0 0
-0.0106 0.0743 -1.0122 -0.505 0.740 0.444 180 181 183 0 0
-0.0068 0.0841 -1.1794 0.219 0.576 0.788 61 45 19 0 0
-0.0059 0.0883 -1.1827 0.219 0.576 0.788 86 71 44 0 0
-0.0034 0.1007 -1.1877 0.038 0.803 0.595 64 52 28 0 0
0.0012 0.1220 -1.2039 -0.288 0.538 0.792 85 68 26 0 0
0.0024 0.1277 -1.2065 -0.440 0.784 0.437 95 75 30 0 0
0.0129 0.1718 -1.3537 0.293 0.847 0.444 122 93 62 0 0
0.0240 0.2237 -1.3952 -0.225 0.875 0.428 205 177 138 0 0
0.0281 0.2429 -1.4112 0.022 0.879 0.475 146 116 81 0 0
0.0300 0.2512 -1.4275 0.121 0.885 0.450 130 102 65 0 0
0.0426 0.3055 -1.5703 0.305 0.936 0.176 82 59 28 0 0
0.0484 0.3325 -1.6022 0.494 0.444 0.748 153 127 82 0 0
0.0493 0.3366 -1.6050 0.659 0.511 0.552 133 109 73 0 0
0.0592 0.3843 -1.6185 0.042 0.706 0.707 139 118 87 0 0
0.0522 0.3434 -1.7470 0.350 0.927 0.133 79 58 32 0 0
0.0527 0.3451 -1.7625 0.094 0.950 0.297 118 94 50 0 0
0.0555 0.3552 -1.8284 0.351 0.755 0.554 92 70 39 0 0
0.0563 0.3579 -1.8491 0.083 0.905 0.418 82 59 28 0 0
0.0568 0.3603 -1.8530 -0.101 0.849 0.518 83 60 29 0 0
0.0573 0.3628 -1.8570 -0.101 0.849 0.518 83 60 29 0 0
0.0576 0.3636 -1.8621 0.097 0.930 0.354 79 56 25 0 0
0.0629 0.3859 -1.9376 0.147 0.915 0.376 71 48 17 0 0
0.0634 0.3879 -1.9419 0.083 0.923 0.375 78 55 24 0 0
0.0638 0.3897 -1.9464 0.083 0.923 0.375 75 52 23 0 0
0.0642 0.3913 -1.9509 0.176 0.877 0.447 91 67 39 0 0
0.0646 0.3934 -1.9552 0.176 0.877 0.447 84 60 32 0 0
0.0661 0.3990 -1.9800 0.494 0.827 0.267 89 69 36 0 0
0.0680 0.4055 -2.0336 0.116 0.988 0.105 86 62 28 0 0
0.0707 0.4180 -2.0534 0.078 0.804 0.590 93 71 33 0 0
0.0716 0.4221 -2.0561 0.284 0.804 0.522 84 61 28 0 0
0.0827 0.4706 -2.1657 0.223 0.871 0.439 75 55 29 0 0
0.0831 0.4727 -2.1701 0.223 0.871 0.439 74 54 29 0 0
0.0834 0.4738 -2.1751 0.305 0.874 0.377 71 50 24 0 0
0.0928 0.5170 -2.2287 0.009 0.695 0.719 63 46 25 0 0
-0.0022 0.0996 -0.8960 0.046 0.596 0.801 111 92 69 0 0
-0.0012 0.1039 -0.8993 0.046 0.596 0.801 160 134 108 0 0
-0.0024 0.0827 -1.1795 0.170 0.650 0.741 65 49 24 0 0
0.0052 0.1188 -1.1998 -0.439 0.655 0.615 98 79 34 0 0
0.0069 0.1266 -1.2065 -0.550 0.649 0.526 101 80 34 0 0
0.0166 0.1737 -1.2263 0.290 0.693 0.660 151 126 86 0 0
0.0146 0.1593 -1.3079 0.021 0.863 0.505 66 46 21 0 0
0.0151 0.1611 -1.3122 0.040 0.852 0.522 76 55 29 0 0
0.0234 0.1993 -1.3656 0.450 0.794 0.409 122 100 71 0 0
0.0354 0.2550 -1.4250 0.103 0.839 0.534 123 96 60 0 0
0.0359 0.2571 -1.4291 0.206 0.880 0.428 111 87 50 0 0
0.0372 0.2625 -1.4521 0.036 0.839 0.543 106 82 50 0 0
0.0378 0.2650 -1.4560 0.036 0.839 0.543 91 67 35 0 0
0.0385 0.2683 -1.4594 0.173 0.820 0.546 90 66 33 0 0
0.0418 0.2836 -1.4823 0.604 0.703 0.375 203 173 117 0 0
0.0423 0.2855 -1.4865 0.604 0.703 0.375 184 153 96 0 0
0.0470 0.3039 -1.5706 0.146 0.956 0.253 70 45 18 0 0
0.0645 0.3873 -1.6213 0.327 0.853 0.408 101 81 47 0 0
0.0558 0.3389 -1.7217 0.212 0.917 0.338 68 51 27 0 0
0.0569 0.3429 -1.7522 -0.029 0.999 -0.017 99 79 45 0 0
0.0572 0.3430 -1.7687 -0.239 0.970 0.053 66 42 14 0 0
0.0578 0.3454 -1.7838 0.278 0.960 0.041 90 70 38 0 0
0.0606 0.3565 -1.8324 0.148 0.903 0.404 84 62 31 0 0
0.0638 0.3686 -1.8977 0.195 0.979 0.052 88 66 35 0 0
0.0677 0.3855 -1.9371 -0.087 0.908 0.411 74 51 20 0 0
0.0684 0.3887 -1.9406 -0.061 0.961 0.269 74 51 20 0 0
0.0690 0.3914 -1.9501 -0.061 0.961 0.269 78 54 24 0 0
0.0693 0.3922 -1.9553 0.342 0.783 0.519 80 57 27 0 0
0.0719 0.4021 -2.0119 0.400 0.787 0.470 81 57 26 0 0
0.0729 0.4060 -2.0325 0.003 0.996 0.085 87 63 29 0 0
0.0757 0.4191 -2.0458 -0.415 0.567 0.712 147 120 80 0 0
0.0754 0.4169 -2.0534 0.126 0.929 0.349 93 68 32 0 0
0.0760 0.4200 -2.0569 0.453 0.712 0.536 82 59 27 0 0
0.0785 0.4319 -2.0593 0.435 0.742 0.510 82 59 28 0 0
0.0784 0.4274 -2.1347 0.069 0.891 0.448 77 56 26 0 0
0.0852 0.4604 -2.1434 0.138 0.832 0.538 73 52 27 0 0
0.0873 0.4695 -2.1658 0.223 0.871 0.439 67 46 24 0 0
0.0880 0.4720 -2.1758 0.101 0.914 0.393 67 48 23 0 0
0.0883 0.4737 -2.1804 0.049 0.933 0.356 69 49 24 0 0
0.0910 0.4859 -2.2003 0.374 0.779 0.503 77 56 32 0 0
0.0914 0.4873 -2.2051 0.245 0.939 0.243 78 57 31 0 0
0.1017 0.5350 -2.2605 -0.118 0.766 0.632 111 106 91 0 0
0.0033 0.1044 -0.8943 0.093 0.860 0.502 112 94 71 0 0
0.0050 0.1120 -0.9011 0.279 0.895 0.348 141 115 83 0 0
0.0052 0.1128 -0.9054 0.156 0.978 0.141 138 113 80 0 0
0.0022 0.0816 -1.1795 0.421 0.645 0.638 64 49 26 0 0
0.0030 0.0853 -1.1831 0.170 0.650 0.741 57 48 28 0 0
0.0101 0.1196 -1.1990 -0.261 0.532 0.805 103 82 35 0 0
0.0226 0.1799 -1.2331 -0.355 0.747 0.562 101 80 56 0 0
0.0194 0.1593 -1.3074 -0.055 0.924 0.378 55 40 18 0 0
0.0197 0.1606 -1.3119 -0.115 0.904 0.412 64 44 18 0 0
0.0189 0.1560 -1.3242 0.050 0.966 -0.254 60 38 15 0 0
0.0335 0.2242 -1.3939 -0.122 0.788 0.603 205 180 140 0 0
0.0371 0.2409 -1.4112 0.153 0.876 0.457 156 128 90 0 0
0.0399 0.2544 -1.4249 0.103 0.839 0.534 122 96 59 0 0
0.0404 0.2562 -1.4291 0.212 0.894 0.396 118 94 54 0 0
0.0424 0.2646 -1.4556 0.036 0.839 0.543 85 61 27 0 0
0.0430 0.2674 -1.4593 0.173 0.820 0.546 92 69 35 0 0
0.0458 0.2798 -1.4838 0.677 0.651 0.344 197 168 116 0 0
0.0654 0.3697 -1.6103 0.009 0.351 0.936 105 88 69 0 0
0.0727 0.4042 -1.6366 0.376 0.864 0.334 97 74 43 0 0
0.0604 0.3387 -1.7157 0.059 0.998 -0.016 82 66 43 0 0
0.0605 0.3387 -1.7212 0.044 0.927 0.373 70 53 31 0 0
0.0617 0.3426 -1.7517 0.050 0.995 0.081 86 67 33 0 0
0.0618 0.3430 -1.7570 0.050 0.995 0.081 113 91 52 0 0
0.0619 0.3434 -1.7623 0.050 0.995 0.081 103 79 42 0 0
0.0621 0.3438 -1.7675 0.050 0.995 0.081 71 46 19 0 0
0.0624 0.3443 -1.7839 0.107 0.974 0.200 90 70 38 0 0
0.0616 0.3393 -1.8040 0.050 0.854 0.518 90 69 38 0 0
0.0622 0.3417 -1.8080 0.050 0.854 0.518 109 88 57 0 0
0.0627 0.3441 -1.8120 0.050 0.854 0.518 95 74 47 0 0
0.0681 0.3652 -1.9051 0.405 0.872 0.275 81 60 29 0 0
0.0684 0.3666 -1.9099 0.405 0.872 0.275 82 59 28 0 0
0.0706 0.3766 -1.9256 0.030 0.672 0.740 83 60 29 0 0
0.0725 0.3856 -1.9363 -0.087 0.908 0.411 75 52 21 0 0
0.0745 0.3943 -1.9530 -0.131 0.850 0.510 78 55 24 0 0
0.0744 0.3935 -1.9594 0.178 0.876 0.449 83 60 29 0 0
0.0827 0.4246 -2.1301 -0.033 0.991 0.133 93 71 36 0 0
0.0896 0.4578 -2.1447 0.348 0.871 0.346 72 51 27 0 0
0.0909 0.4639 -2.1516 0.081 0.904 0.420 65 47 25 0 0
0.0915 0.4664 -2.1616 0.252 0.864 0.436 65 45 24 0 0
0.0917 0.4670 -2.1671 0.131 0.881 0.455 65 45 23 0 0
0.0927 0.4714 -2.1755 0.101 0.914 0.393 61 43 20 0 0
0.0927 0.4709 -2.1819 -0.243 0.921 0.304 71 51 27 0 0
0.0954 0.4834 -2.1955 0.340 0.878 0.337 76 56 31 0 0
0.0963 0.4872 -2.2104 0.220 0.943 0.250 70 50 24 0 0
0.1045 0.5253 -2.2499 -0.148 0.919 0.367 75 66 36 0 0
-0.0003 0.0632 -0.8972 -0.382 0.112 0.917 150 145 140 0 0
0.0082 0.1059 -0.8981 -0.157 0.856 0.492 141 116 88 0 0
0.0072 0.0832 -1.1785 0.119 0.642 0.757 66 53 29 0 0
0.0200 0.1450 -1.2079 -0.033 0.758 0.652 142 116 69 0 0
0.0240 0.1590 -1.3071 -0.112 0.877 0.468 42 27 10 0 0
0.0238 0.1574 -1.3129 -0.086 0.991 0.100 58 40 13 0 0
0.0235 0.1553 -1.3241 0.180 0.918 -0.355 57 38 14 0 0
0.0242 0.1580 -1.3331 -0.200 0.938 0.284 73 51 19 0 0
0.0241 0.1574 -1.3384 0.310 0.656 0.688 128 99 51 0 0
0.0416 0.2400 -1.4111 0.153 0.876 0.457 149 119 87 0 0
0.0439 0.2514 -1.4156 -0.082 0.781 0.620 129 98 64 0 0
0.0497 0.2766 -1.4746 0.416 0.873 0.254 77 55 26 0 0
0.0518 0.2824 -1.5446 0.738 0.621 0.266 97 75 36 0 0
0.0564 0.3049 -1.5530 0.061 0.994 0.089 85 57 23 0 0
0.0563 0.3044 -1.5585 0.060 0.956 0.287 83 59 28 0 0
0.0565 0.3050 -1.5635 0.308 0.884 0.351 76 51 22 0 0
0.0578 0.3107 -1.5708 0.337 0.823 0.457 78 52 25 0 0
0.0585 0.3141 -1.5741 0.046 0.983 0.175 83 58 27 0 0
0.0587 0.3149 -1.5789 0.046 0.983 0.175 84 60 25 0 0
0.0591 0.3168 -1.5831 0.045 0.995 0.089 98 74 37 0 0
0.0595 0.3186 -1.5873 -0.019 0.864 0.503 96 71 35 0 0
0.0601 0.3209 -1.5913 -0.019 0.864 0.503 147 123 86 0 0
0.0606 0.3234 -1.5951 -0.289 0.704 0.649 107 83 42 0 0
0.0619 0.3292 -1.6023 0.033 0.576 0.817 161 133 90 0 0
0.0762 0.3996 -1.6230 -0.022 0.872 0.489 85 64 34 0 0
0.0767 0.4018 -1.6269 -0.022 0.872 0.489 69 45 19 0 0
0.0771 0.4030 -1.6368 0.361 0.854 0.374 93 70 38 0 0
0.0655 0.3397 -1.7254 -0.114 0.950 0.291 76 58 37 0 0
0.0661 0.3410 -1.7466 0.205 0.958 0.199 85 64 34 0 0
0.0660 0.3405 -1.7524 0.143 0.986 0.084 90 70 38 0 0
0.0660 0.3398 -1.7584 -0.073 0.959 0.276 122 101 64 0 0
0.0667 0.3427 -1.7732 0.201 0.978 -0.048 55 34 14 0 0
0.0671 0.3437 -1.7836 0.107 0.974 0.200 92 72 39 0 0
0.0671 0.3430 -1.8008 0.499 0.783 0.372 91 70 38 0 0
0.0675 0.3445 -1.8054 0.514 0.638 0.573 109 89 56 0 0
0.0677 0.3453 -1.8105 0.327 0.711 0.623 92 72 44 0 0
0.0689 0.3509 -1.8123 0.546 0.645 0.534 64 47 23 0 0
0.0728 0.3645 -1.9049 0.119 0.902 0.415 83 62 31 0 0
0.0774 0.3857 -1.9355 -0.087 0.908 0.411 77 54 23 0 0
0.0786 0.3905 -1.9551 0.200 0.843 0.499 75 52 21 0 0
0.0791 0.3925 -1.9593 0.251 0.809 0.531 78 55 24 0 0
0.0827 0.4078 -2.0060 0.188 0.884 0.428 79 54 24 0 0
0.0962 0.4651 -2.1618 0.274 0.840 0.468 62 44 23 0 0
0.1011 0.4871 -2.2035 0.245 0.819 0.520 77 56 31 0 0
0.1093 0.5256 -2.2426 0.108 0.843 0.527 79 68 41 0 0
0.0120 0.1021 -0.8943 -0.286 0.751 0.595 111 92 75 0 0
0.0128 0.1059 -0.8978 0.100 0.850 0.517 148 124 95 0 0
0.0326 0.1833 -1.2307 0.108 0.675 0.730 94 79 51 0 0
0.0288 0.1588 -1.3118 -0.074 0.997 0.033 64 47 20 0 0
0.0433 0.2263 -1.3918 -0.011 0.656 0.755 201 177 138 0 0
0.0464 0.2407 -1.4103 0.025 0.831 0.556 165 136 98 0 0
0.0496 0.2553 -1.4285 0.049 0.936 0.349 122 99 58 0 0
0.0540 0.2744 -1.4752 0.475 0.792 0.383 81 59 31 0 0
0.0543 0.2757 -1.4797 0.393 0.793 0.465 100 72 37 0 0
0.0613 0.3050 -1.5682 0.390 0.861 0.328 69 42 20 0 0
0.0617 0.3065 -1.5726 0.390 0.861 0.328 77 51 25 0 0
0.0697 0.3448 -1.6083 -0.067 0.369 0.927 118 101 77 0 0
0.0804 0.3975 -1.6185 -0.077 0.844 0.530 112 91 60 0 0
0.0809 0.3997 -1.6223 0.220 0.824 0.522 86 65 34 0 0
0.0810 0.4003 -1.6272 0.347 0.904 0.251 74 50 24 0 0
0.0727 0.3546 -1.6880 0.021 0.805 -0.593 81 64 39 0 0
0.0697 0.3376 -1.7151 0.123 0.992 0.029 74 57 36 0 0
0.0699 0.3376 -1.7316 0.310 0.840 0.445 62 46 23 0 0
0.0704 0.3392 -1.7416 0.088 0.995 0.042 82 64 34 0 0
0.0705 0.3385 -1.7586 0.496 0.780 0.382 117 95 59 0 0
0.0708 0.3400 -1.7632 0.368 0.907 0.206 119 95 55 0 0
0.0711 0.3409 -1.7681 0.428 0.879 0.212 83 60 29 0 0
0.0718 0.3438 -1.7773 0.091 0.975 0.202 73 52 25 0 0
0.0740 0.3520 -1.8221 0.107 0.965 0.238 95 68 39 0 0
0.0744 0.3536 -1.8266 0.109 0.914 0.392 90 66 34 0 0
0.0761 0.3604 -1.8502 -0.045 0.970 0.239 82 59 28 0 0
0.0801 0.3768 -1.9125 0.424 0.861 0.281 79 54 24 0 0
0.0808 0.3796 -1.9162 0.467 0.730 0.498 81 57 26 0 0
0.0858 0.3995 -1.9999 0.118 0.914 0.388 76 51 21 0 0
0.0875 0.4077 -2.0053 0.417 0.809 0.414 78 53 24 0 0
0.0905 0.4194 -2.0549 0.163 0.860 0.484 86 62 28 0 0
0.1015 0.4675 -2.1589 0.243 0.934 0.260 57 39 19 0 0
0.1106 0.5089 -2.2261 0.065 0.916 0.396 46 30 16 0 0
0.1123 0.5173 -2.2308 0.040 0.866 0.498 62 46 30 0 0
0.1128 0.5196 -2.2349 0.159 0.795 0.586 62 47 28 0 0
0.0201 0.0996 -1.1860 0.100 0.788 0.607 51 40 21 0 0
0.0349 0.1719 -1.2204 0.240 0.894 0.378 130 108 72 0 0
0.0370 0.1819 -1.2309 0.156 0.770 0.619 95 78 51 0 0
0.0336 0.1591 -1.3112 -0.074 0.997 0.033 68 51 22 0 0
0.0503 0.2365 -1.4119 0.071 0.978 0.198 179 148 109 0 0
0.0538 0.2533 -1.4238 0.235 0.941 0.242 108 82 46 0 0
0.0584 0.2730 -1.4755 0.255 0.900 0.354 78 55 27 0 0
0.0587 0.2742 -1.4800 0.133 0.860 0.493 93 64 28 0 0
0.0626 0.2896 -1.5394 0.398 0.886 -0.237 96 73 33 0 0
0.0640 0.2952 -1.5626 -0.048 0.713 0.699 82 60 29 0 0
0.0662 0.3048 -1.5836 0.540 0.782 -0.313 88 63 30 0 0
0.0757 0.3515 -1.6090 0.096 0.201 0.975 105 87 64 0 0
0.0816 0.3810 -1.6122 0.180 0.594 0.784 132 114 86 0 0
0.0825 0.3851 -1.6150 0.065 0.851 0.522 161 141 103 0 0
0.0829 0.3870 -1.6190 0.060 0.796 0.603 134 109 72 0 0
0.0846 0.3959 -1.6189 0.351 0.787 0.507 93 70 37 0 0
0.0853 0.3988 -1.6276 0.347 0.904 0.251 67 43 16 0 0
0.0749 0.3380 -1.7417 0.371 0.919 0.130 77 58 28 0 0
0.0789 0.3519 -1.8271 0.355 0.865 0.354 88 66 34 0 0
0.0823 0.3659 -1.8739 0.364 0.915 0.175 81 58 27 0 0
0.0825 0.3667 -1.8790 0.305 0.907 0.291 82 60 29 0 0
0.0839 0.3715 -1.9099 0.516 0.771 0.373 79 56 25 0 0
0.0842 0.3719 -1.9268 0.225 0.958 0.177 83 60 29 0 0
0.0920 0.4058 -2.0059 0.460 0.789 0.407 78 52 25 0 0
0.0952 0.4185 -2.0549 0.163 0.860 0.484 87 66 29 0 0
0.0979 0.4287 -2.1001 0.352 0.879 0.322 82 60 34 0 0
0.1053 0.4625 -2.1562 0.298 0.867 0.399 53 38 19 0 0
0.1054 0.4625 -2.1623 0.281 0.859 0.427 52 37 18 0 0
0.1096 0.4817 -2.1943 -0.083 0.873 0.481 77 57 32 0 0
0.1149 0.5065 -2.2212 0.239 0.834 0.498 43 29 16 0 0
0.1153 0.5083 -2.2257 0.217 0.906 0.364 51 37 22 0 0
0.1166 0.5148 -2.2260 0.095 0.816 0.570 59 44 28 0 0
0.1171 0.5170 -2.2302 0.183 0.853 0.488 62 46 30 0 0
0.1176 0.5192 -2.2343 0.183 0.853 0.488 63 48 29 0 0
0.1189 0.5252 -2.2411 0.050 0.725 0.687 58 46 26 0 0
0.1194 0.5270 -2.2517 0.110 0.961 0.252 72 61 36 0 0
0.0079 0.0346 -0.9002 -0.261 -0.067 0.963 178 178 178 0 0
0.0127 0.0593 -0.8974 -0.013 -0.009 1.000 161 158 156 0 0
0.0243 0.1164 -0.9260 0.090 0.935 0.343 61 40 17 0 0
0.0247 0.1178 -0.9301 0.090 0.935 0.343 89 68 41 0 0
0.0236 0.0937 -1.1780 0.059 0.892 0.448 54 43 25 0 0
0.0367 0.1581 -1.2110 0.199 0.870 0.452 134 106 58 0 0
0.0368 0.1585 -1.2158 -0.070 0.840 0.539 163 138 93 0 0
0.0413 0.1802 -1.2312 -0.162 0.861 0.482 110 93 67 0 0
0.0373 0.1555 -1.2870 0.190 0.910 0.368 26 20 4 0 0
0.0376 0.1569 -1.2915 0.099 0.956 0.275 22 17 3 0 0
0.0380 0.1567 -1.3220 0.373 0.928 0.011 58 37 16 0 0
0.0470 0.1984 -1.3789 0.146 0.695 0.704 87 69 42 0 0
0.0511 0.2185 -1.3896 0.014 0.579 0.815 154 130 101 0 0
0.0510 0.2173 -1.3953 0.283 0.821 0.496 201 178 143 0 0
0.0530 0.2262 -1.4114 0.179 0.900 0.397 171 141 102 0 0
0.0656 0.2840 -1.5001 0.243 0.925 0.292 82 60 31 0 0
0.0701 0.3027 -1.5578 -0.105 0.934 0.341 77 55 24 0 0
0.0710 0.3057 -1.5772 0.569 0.788 -0.233 87 62 30 0 0
