ply
format ascii 1.0
element vertex 681
property float x
property float y
property float z
property uchar diffuse_red
property uchar diffuse_green
property uchar diffuse_blue
end_header
-0.29635526426419345 0.14741436742884495 -1.5854406446459406 119 99 68
-0.2967613935015474 0.15426170554678642 -1.5871750693029973 145 123 89
-0.297169154591273 0.16116820739371251 -1.5888591571112092 140 115 81
-0.2975929176662938 0.16853084905148558 -1.5902741898314547 141 116 81
-0.2980033845273886 0.17554175048262904 -1.591863407029264 132 108 71
-0.2985134209032818 0.1853243571954033 -1.5918989589665555 131 108 70
-0.2989630368639346 0.19345482666364378 -1.5928233834575538 148 121 79
-0.29936971296366804 0.20041113342334615 -1.594379541635826 153 126 83
-0.29977506454617675 0.2073454488383462 -1.5959294276829827 121 97 63
-0.3001779412263696 0.21422565826013806 -1.597491157690576 142 117 81
-0.3007240650310708 0.22511718660968488 -1.5967746564575913 147 120 79
-0.3011595369265938 0.23294391975441664 -1.5977568483398734 163 136 86
-0.30164846019827807 0.24228432787715048 -1.5978583628754897 156 128 79
-0.3019331607744669 0.24592299281570068 -1.6011769849194297 137 109 69
-0.3023663670231447 0.2537355696370101 -1.6021059704416745 151 126 80
-0.30267525489642816 0.2580706127095244 -1.6050053917853289 149 126 80
-0.30286223259188216 0.25897965120369665 -1.6098657493970572 118 98 59
-0.30310391046831653 0.261427899478148 -1.6138426515538724 110 89 57
-0.30335238845711265 0.26406946142280147 -1.6177061679668743 134 109 76
-0.30327476335175707 0.25748600796213644 -1.626924874450881 134 110 75
-0.30345270329384644 0.2581176369849023 -1.6319730164236173 127 102 72
-0.3037487629398327 0.2620974218419571 -1.6350692762836587 119 96 67
-0.30398064273017833 0.26425870328792384 -1.6392248098910827 122 99 67
-0.3042169910261216 0.2665475215589589 -1.6433049188688185 111 89 59
-0.30439808200009494 0.2672610802683529 -1.648314367268276 119 101 74
-0.30134327059825017 0.1568967338905638 -1.7418391109169398 122 105 85
-0.3013821384425655 0.15330167330483213 -1.7497007060932144 110 97 76
-0.30138973081269543 0.1487855608663523 -1.7581416435912385 93 79 59
-0.30128875876826294 0.14111063981787997 -1.768524130510156 83 63 40
-0.3014144647458942 0.13996362953555042 -1.7749750489356924 91 68 43
-0.3016056854584769 0.1407048487054695 -1.7802868992071195 97 78 54
-0.30189480981913464 0.14428416960835522 -1.7838669017244462 103 89 66
-0.30217795469578734 0.14769423374307744 -1.7875452885244028 108 93 69
-0.30247240975484446 0.15143792799766687 -1.7910131728324021 113 98 77
-0.3026977726316118 0.15317053527666158 -1.7957180837437132 115 100 80
-0.30306971353674406 0.15918646813806037 -1.7977681807810657 106 91 72
-0.3034739357514126 0.16616060237690833 -1.7992066735216192 83 67 48
-0.30354587596764204 0.16340475068596316 -1.806699635350435 88 72 49
-0.3034966359942143 0.1570717766528824 -1.8164525443411432 93 76 50
-0.30351218640448807 0.1526166726708138 -1.8250599364684927 109 88 63
-0.304450149714271 0.17533285055874115 -1.8165688412269785 119 97 73
-0.3046963710369781 0.17769098287524476 -1.8208670024941709 113 93 68
-0.3048216188241319 0.1764710436178062 -1.8274340204903732 109 91 65
-0.3050198817797324 0.1774031158658721 -1.8326453654844244 108 90 65
-0.3050508160757988 0.17336374473722627 -1.8410353543066642 114 94 70
-0.3053929008481308 0.1785553325939233 -1.8435390875801778 109 89 65
-0.30559503561381723 0.1795885414224141 -1.8487020443568367 108 88 63
-0.30579648804434995 0.180597394149135 -1.8538853564869961 107 87 62
-0.3060490736378761 0.18313066083863783 -1.8580878810187806 104 84 59
-0.30633039958214536 0.18652581813564972 -1.8617299645808563 105 85 60
-0.3065824698383327 0.18904765659357115 -1.865935248626174 105 86 61
-0.3068924694180108 0.1933115711983946 -1.869002137078719 106 88 63
-0.3071023064746854 0.19456753978188535 -1.8740297868404316 107 90 65
-0.30731228534737565 0.1958245095850566 -1.879060558574288 100 83 57
-0.3074875160090139 0.19602836904195098 -1.8847889336942423 96 79 53
-0.3077201408649239 0.19796227449317239 -1.8893820738609144 101 84 58
-0.30797823624263143 0.2006675956914049 -1.8934648045188054 106 89 63
-0.3081898628153942 0.2019632939778715 -1.8984827903382147 105 88 61
-0.3084016190987442 0.20325974300734706 -1.9035039304048869 102 85 57
-0.30855304519749194 0.20271374360951888 -1.9097616548716148 103 84 56
-0.30874785993088144 0.20348297026942774 -1.9151478562153326 102 82 53
-0.3090090723847456 0.20627865280180613 -1.919175445642044 108 85 53
-0.3092931890084598 0.20977869601274157 -1.922724732593449 124 100 66
-0.3095506516700071 0.21246504328417426 -1.9268198003747394 123 99 65
-0.3098187034021395 0.21547906001943473 -1.9306900654318617 125 101 67
-0.31019261302306206 0.2217591851557158 -1.9323303284615208 125 101 65
-0.3102407768712468 0.2179949463650832 -1.94082170473679 122 98 62
-0.310542509932488 0.22205383003909362 -1.9439721675459043 124 100 64
-0.3107885179057259 0.22439241332676285 -1.948298299845501 124 100 64
-0.31102177946488996 0.22633574421074398 -1.9528965298633045 126 102 66
-0.3112559628525631 0.22830686662319888 -1.9574765180576372 133 109 73
-0.3114697329649243 0.22964084640144167 -1.9624997809330629 131 107 71
-0.3117059229167626 0.23167184480799896 -1.96704118146624 124 100 64
-0.3118601143873796 0.23113634805787286 -1.9733761163993115 122 98 62
-0.31204226746943076 0.23146711297307954 -1.9791155985625126 124 100 64
-0.31249276985259333 0.2402202835088999 -1.9789434226446154 124 100 64
-0.3126626293283362 0.24016609470064076 -1.9849521123135836 124 100 64
-0.3128345967778181 0.24016973947680043 -1.990929440986295 125 101 65
-0.3129801023948757 0.23932886731677339 -1.9975150396355676 125 101 65
-0.31314538654564505 0.2391023399010096 -2.003676553808883 124 100 64
-0.31348567866673793 0.24441738924962808 -2.0058943725194003 122 98 62
-0.3137584437557188 0.24759865074405085 -2.009625838927732 120 96 60
-0.31385835244098975 0.24527950858314884 -2.0173013216884748 114 91 55
-0.31401301810000126 0.24468966717436735 -2.023751151808767 112 90 53
-0.3144860200673972 0.25426588198697475 -2.022871709902689 113 91 54
-0.31474366400541226 0.25697289759343334 -2.0269356640272553 114 92 55
-0.31483514888464037 0.25434877767491204 -2.034870208957671 111 89 52
-0.3149264733113495 0.251700231244704 -2.0428433966024238 153 128 82
-0.31520637202116847 0.25510925566365983 -2.0464107094596447 154 125 79
-0.31545256116603804 0.25743467844952717 -2.050766974000082 146 118 80
-0.31573568620876064 0.2609557723141732 -2.054243643318766 134 106 67
-0.3160317612135545 0.26490215014496643 -2.0574009234442516 121 97 57
-0.3164465997856377 0.272714156148659 -2.0576918049444237 124 100 57
-0.31681420520179754 0.2790115226923663 -2.059081484613889 126 100 56
-0.3172383716939668 0.28717093740686184 -2.059067939980264 124 97 54
-0.31751245759630164 0.2904490009370675 -2.0626700994923355 129 102 59
-0.3175026939008498 0.28443359238440213 -2.073221683950348 129 101 58
-0.31800531273626925 0.29520310751345 -2.071212259979259 129 100 56
-0.31830917635484346 0.29947070415549937 -2.0740589696395144 133 104 60
-0.31851201166154286 0.30041694272635555 -2.079403768961225 128 100 55
-0.3187020972615352 0.30093689020493053 -2.0850767492090325 119 93 48
-0.31892328956025867 0.30247953755399326 -2.0899804732215976 153 124 77
-0.31923246296435165 0.3069379577948361 -2.092666446892498 165 132 85
-0.3194795573607486 0.30934246870456894 -2.096911016602012 147 119 73
-0.3196710382279809 0.30989533697376326 -2.102572942310527 151 123 77
-0.319807909465778 0.3086181901652605 -2.1096479983193257 146 115 69
-0.31974824936905244 0.30075113775341566 -2.121815879099502 145 114 68
-0.320143038101225 0.3080774273637893 -2.1222885135773732 142 114 68
-0.3199363084243601 0.295214753359367 -2.1383837669997927 147 118 73
-0.32046956671930743 0.30720458061936007 -2.1352310371046705 140 112 64
-0.3207993919218871 0.3123719306674122 -2.13735206010571 134 104 59
-0.3211547201872425 0.31841487069274566 -2.1387751909750814 136 105 62
-0.3215390789132343 0.32545876532275075 -2.139396190406321 141 110 66
-0.32205292753919146 0.33692285971020086 -2.1365199421465375 143 112 68
-0.3223537846171809 0.33517459003882066 -2.150154192866702 145 114 68
-0.3225086769538674 0.33443274171632165 -2.156887130124303 150 119 73
-0.3227323053997835 0.33603365479624203 -2.161770130115104 146 115 69
-0.32292323648007704 0.33650881875960825 -2.1675536142049605 144 113 67
-0.3231697164597892 0.3388887423810768 -2.1718213211974398 141 110 64
-0.3233638236350157 0.33946241294179424 -2.177536970138723 139 108 62
-0.323616667786884 0.3420601777525559 -2.181631713195865 148 117 71
-0.3239834758264597 0.34861024075773706 -2.1825361215180195 148 117 71
-0.32458210885913913 0.3632346271386002 -2.1768881683867725 151 120 74
-0.32489493611590275 0.36796374751477934 -2.179211162577294 146 114 68
-0.3250663584146191 0.36776921808009 -2.1855283303952717 154 121 74
-0.325314881624951 0.37026107792450813 -2.1896644668103367 157 126 77
-0.32561838129382514 0.37468225846519976 -2.1922204374526277 151 120 72
-0.3258757245449386 0.37749170187839376 -2.196088475694989 153 123 75
-0.3259945349831299 0.3754236377738268 -2.203967085260635 154 122 74
-0.32603900796103935 0.37071053760935757 -2.214048012685263 155 123 75
-0.3262850051545534 0.37309821475212257 -2.218284881923746 165 133 84
-0.3262079488422456 0.36402467798999816 -2.2320318557821164 163 131 82
-0.32665109088664485 0.37339866475063543 -2.230479530675605 159 127 78
-0.3269664469016811 0.3782514436682909 -2.2326666250260265 160 128 80
-0.32729315006319115 0.3835226159194307 -2.2344910332150043 160 127 81
-0.328003529767748 0.4025531119701413 -2.224753934831881 156 125 81
-0.32837489284734156 0.40949140568568987 -2.225113924595433 150 119 75
-0.3286778962973391 0.4139922434240494 -2.227508403283869 148 118 74
-0.3289555820301767 0.41759097824279234 -2.230655227141635 138 109 65
-0.3292231119771905 0.4208294579292966 -2.23410092937368 139 108 62
-0.3294678426773616 0.42324655149609636 -2.23824046806228 151 120 73
-0.32968494321861114 0.4246605603655099 -2.243234720982394 152 121 76
-0.32992153763673715 0.4267813384557948 -2.2476276430900413 147 118 73
-0.3302402066353119 0.43190046485732847 -2.2494477775725 136 112 69
-0.33055745662065095 0.43698250903295743 -2.2512856748863914 119 99 65
-0.33091335593183635 0.4434984272550657 -2.251872315268786 139 125 103
-0.331418653029412 0.45553577242863724 -2.2476605888108505 172 165 157
-0.33096805188622885 0.41900999869132705 -2.2981136265519924 201 200 203
-0.2744330306752821 -0.18338445412374516 -1.6043946865247578 121 111 97
-0.2821858366705531 -0.02689503253904202 -1.583219547077779 111 95 73
-0.2830725928644375 -0.008183988975412282 -1.5792558183235093 114 97 79
-0.28407436289742355 0.013532653499408909 -1.573679101013714 109 94 75
-0.2841873040376167 0.012384402861610688 -1.5798794322019238 107 92 73
-0.2849774657333109 0.028711823590272467 -1.5770033481798744 104 89 70
-0.2855009214456487 0.038182178481840134 -1.5776537776164419 108 93 74
-0.28587537149072095 0.043814764964862696 -1.5802873461133187 112 95 77
-0.28638535799567216 0.052970241072034296 -1.5810562183836787 112 95 76
-0.28702894636840676 0.06561277995977433 -1.5799595593546285 111 93 73
-0.28740381882699895 0.07129892246776282 -1.5825064743231465 115 97 75
-0.28800432481217597 0.08286778315161536 -1.5819149539636903 116 98 76
-0.2884854974412432 0.09135201030539397 -1.5829327370867856 122 104 83
-0.28906234398820213 0.1023508141968682 -1.5825814598396568 133 115 95
-0.28965341852354215 0.11374589445176841 -1.5819841951214406 120 103 84
-0.2903376208756574 0.12760399700089065 -1.5800251312124467 102 85 66
-0.29065519109711113 0.13188542268164344 -1.5831995922552247 109 89 66
-0.2912331125612807 0.14300595728293614 -1.5826554408321922 125 105 77
-0.2916379708396534 0.14960305983833855 -1.5845400098602125 135 115 83
-0.29202796169080725 0.15582138326866918 -1.5866145829999434 137 115 81
-0.29243370870662305 0.1624664795371341 -1.588439658529627 126 100 66
-0.29283761696991617 0.16907578949052304 -1.590267233406574 143 116 81
-0.29331233941271856 0.1775694385274746 -1.5910375348413122 155 128 89
-0.293782078242213 0.18594925091424114 -1.5918465930922288 129 105 69
-0.29430984132134913 0.1958848310045061 -1.5917669980946723 143 116 77
-0.2947196999273533 0.20271316171413717 -1.5933905088390725 152 126 82
-0.2952829755431093 0.21363298905102546 -1.5927061356744823 141 116 79
-0.2958028658579343 0.2234232191775093 -1.5926222949673583 124 98 63
-0.29629395313450335 0.23246776610416642 -1.5929290824489462 136 110 71
-0.29675449674616466 0.2407169901969014 -1.5936587941254425 160 130 84
-0.29700180869860987 0.243283463360275 -1.5975886943179327 157 130 81
-0.29729909376218705 0.24718930547510115 -1.6007542498466323 139 112 70
-0.2977477196767265 0.25515821587309284 -1.6015919995243202 154 130 85
-0.29796503131195856 0.2569333179141317 -1.6059566608793094 148 125 83
-0.29830118330240474 0.26190321561751606 -1.6084853008894038 138 117 79
-0.29857750459572124 0.2652704168752768 -1.611927399996642 127 105 72
-0.2987092975019678 0.2647436462320591 -1.617618721303223 128 101 69
-0.29873642425469576 0.26138232558465807 -1.6249665750502877 139 114 80
-0.29879579759449 0.25887719874692244 -1.6318365410771052 134 110 77
-0.29923375764675925 0.26661404349675366 -1.632735276658586 120 97 65
-0.2994122792030137 0.2673293672104108 -1.6377314674800976 120 97 65
-0.29970710922638644 0.27120073536359574 -1.6408750940055783 115 94 62
-0.2997738653285015 0.2688715180491845 -1.6476738395274888 115 95 63
-0.2990907244207302 0.24609347070485849 -1.6666073763150837 131 113 81
-0.2976350420909737 0.1935620203318023 -1.7145366867100007 120 101 76
-0.2965879367279214 0.1517282196069788 -1.7566970424771207 117 102 78
-0.2966051514131196 0.14777243615059077 -1.7648208125818945 97 77 51
-0.2965885329497047 0.1428645455865798 -1.773548112141403 108 85 54
-0.2968243113645397 0.14490785227034675 -1.7780608396025985 111 91 58
-0.2969686650673844 0.1444210231340154 -1.784123419027229 100 83 53
-0.29733971159959144 0.1502082506812894 -1.7863422169843475 107 90 64
-0.2976389995850838 0.15401497449706392 -1.7897672660325288 115 95 70
-0.2976099593207143 0.1486994582395812 -1.798826393094324 115 95 71
-0.29841625694440616 0.16661874470737204 -1.7935021159038724 121 101 78
-0.29869184846001573 0.16978784605982222 -1.7972943798448435 102 82 60
-0.29896251612825936 0.1728225730589843 -1.8011665237875405 103 84 59
-0.2990596994583235 0.17100685459728449 -1.808073312162794 109 88 59
-0.2990458463966042 0.1660673622455917 -1.8169590488545433 110 86 58
-0.29957884377890326 0.1764518938312376 -1.8162133229684108 112 90 64
-0.29987874965354305 0.18031077363444936 -1.8195613346821702 114 94 69
-0.3001036323652936 0.18206289931286024 -1.8242391118766745 109 91 66
-0.3003472959736909 0.18434328390977395 -1.8285823595735125 109 91 66
-0.3000959075588794 0.17264175173791718 -1.8418524972200732 112 92 67
-0.300480093976383 0.178875615208134 -1.8436909571789437 112 92 67
-0.30082320680103986 0.18395877813634598 -1.8462523037948015 111 91 66
-0.3010748351431675 0.18645491748235676 -1.8504693901581555 106 86 61
-0.30131047863303306 0.18849769223426627 -1.8549783250183993 106 86 60
-0.30160554424344477 0.19223204659063775 -1.8583904912926377 106 86 60
-0.3018193346593497 0.19365346419932206 -1.863301372349471 104 84 59
-0.3021046118161898 0.19711464621385688 -1.8668838066445552 103 83 59
-0.302411539794055 0.20119962623088095 -1.870052461059429 105 86 61
-0.30262752580460733 0.20268430588800945 -1.8749213750473404 109 90 65
-0.302843599782899 0.2041692303864152 -1.8797929553228245 102 83 57
-0.3030220810491705 0.20457076814434416 -1.885383511221011 99 80 55
-0.30339345847698507 0.21052300432453064 -1.8873007781397608 99 80 55
-0.30363999713118917 0.21288574864780185 -1.8915899819748576 102 83 58
-0.30382050378087094 0.21334060459486126 -1.8971513930420574 99 80 55
-0.303863473329406 0.20980768906107217 -1.9053889798756818 102 82 55
-0.3040007744072687 0.2089911578138256 -1.9118265436635917 102 80 52
-0.30455088263900004 0.22015665844073184 -1.9102070117643664 120 97 64
-0.30478187478892405 0.22206656005035974 -1.9148026760099104 121 97 61
-0.30483954661832613 0.21892332852455687 -1.9228236748293754 126 102 67
-0.30517303724183376 0.2238156929397357 -1.9254048003496331 125 101 65
-0.30523037628675553 0.22063996817761777 -1.9334756501668704 122 98 62
-0.3055769475248016 0.2259204320636452 -1.935785473702583 121 97 61
-0.3058713928959283 0.22968168780458087 -1.939124483952606 122 98 62
-0.3060079186162603 0.22880523851986534 -1.9456482181927852 128 104 68
-0.30618774927871995 0.22919363605567977 -1.9513117552559782 125 101 65
-0.3065722928309085 0.2356158905304464 -1.9528052210099704 126 102 66
-0.3068487600740459 0.23885863043721822 -1.956488835382527 130 106 69
-0.30698938347808935 0.23808290471176996 -1.9629671768790202 126 102 66
-0.30733971251875514 0.2435169506599968 -1.9651191449695369 121 97 61
-0.3075745093285348 0.24552960871668006 -1.969655126464498 123 99 63
-0.30755215473438857 0.23988704244734815 -1.9795732116632643 124 100 64
-0.3077094711620872 0.239574395111957 -1.9857664677449662 125 101 65
-0.30788003672624836 0.23964861664193948 -1.9916967569210804 127 103 67
-0.30831773617076635 0.24770988835667795 -1.9919702125328984 125 101 65
-0.30843024104592465 0.24604257722095646 -1.9991405780093294 122 98 62
-0.30856770977001957 0.24511114912759302 -2.0058022687924235 121 97 61
-0.30895608448389167 0.2517182338205288 -2.0070811580424603 119 95 59
-0.30925158786803525 0.2555418272332175 -2.010339464589573 117 93 57
-0.3092918327504641 0.2516625720653908 -2.019137678244859 115 93 56
-0.3096101184377195 0.2561733791865707 -2.0219020694016505 114 92 55
-0.3100354951438166 0.26393882446732764 -2.022298600442249 113 91 54
-0.31012417563747763 0.26150033883433543 -2.0300852089616215 116 92 59
-0.31032171394895314 0.2623565862924738 -2.0354907158986517 118 94 53
-0.3104495199305048 0.2610824484534082 -2.0424591830637095 156 129 82
-0.3106321953297045 0.2614709597297856 -2.048223761492886 151 123 77
-0.31082845055001684 0.26226820599942957 -2.053695625433808 150 121 79
-0.31111498358657014 0.26582740678194516 -2.057136649750924 120 95 55
-0.3114591404147309 0.27116138455041305 -2.0592589241181223 121 96 55
-0.31168300730662685 0.272806228751739 -2.0641042436434427 123 97 53
-0.3120234152546327 0.278041536714176 -2.0662804267337083 131 104 61
-0.3126494423011974 0.29210978835328616 -2.0618516154764754 128 101 58
-0.3129553901127068 0.29631898360747777 -2.064749528310566 129 100 58
-0.3131494654889867 0.2970675759406818 -2.07023618289339 129 100 56
-0.31388522663332 0.30936698603639146 -2.073071892584347 130 101 57
-0.3134632406470435 0.2909090735748744 -2.0930983102501104 123 97 52
-0.3136403920828994 0.2910904124017747 -2.0990596327236943 133 105 59
-0.3138049333676273 0.290869172001305 -2.1053364964993055 162 132 85
-0.3140837160814115 0.29422185966173164 -2.1088937665438006 160 132 83
-0.31430657830739495 0.29582165651789316 -2.113788858739154 152 124 76
-0.3151275571143241 0.2999651655449158 -2.1351438267236595 147 118 73
-0.31542623351334637 0.3039552353253999 -2.1381989795420573 140 111 65
-0.3160285493369945 0.31761001676582035 -2.133711250293758 130 99 57
-0.3163791044486539 0.3232874770887407 -2.1354090837259045 135 103 60
-0.3167889231896158 0.33087165378160655 -2.1355960175053035 135 104 60
-0.3170795280373736 0.334663049915624 -2.138741096887195 132 101 57
-0.31731645483621673 0.3367398918807246 -2.1432310257312004 139 108 63
-0.31749891753462156 0.33706641199039733 -2.1491057385083017 145 114 68
-0.31775570833823763 0.339778438786314 -2.1530966657509025 148 117 71
-0.3179877928403649 0.34169560616238437 -2.1577174160306516 144 113 67
-0.31825520237975635 0.34475375714028433 -2.1614291119692166 143 112 66
-0.318462818345285 0.3458784918739609 -2.166683540608615 143 112 66
-0.31885831945089976 0.3530983698007619 -2.167052553639836 142 111 65
-0.3193071265287487 0.36207352108255697 -2.1659861579719806 139 108 62
-0.3193045679854043 0.356362634222649 -2.1767385994324058 144 113 67
-0.3200471645118851 0.374962008826238 -2.1678555925082397 145 114 68
-0.320093560126852 0.3708386216511447 -2.17733628333645 146 114 69
-0.3203053855912963 0.37211592788806436 -2.1824508532824547 151 119 73
-0.3204893064637924 0.3724720355733929 -2.1883212899856685 147 115 70
-0.3208188800098629 0.37761937339363716 -2.190278859404547 142 111 67
-0.32101789781301937 0.3784687551071446 -2.1957500645804005 140 109 65
-0.321141144407061 0.3768052261057462 -2.2032955961801433 149 117 71
-0.32149903491223836 0.38290628692141326 -2.2044502213043566 151 119 72
-0.321699765505778 0.383801474453751 -2.20989541908607 159 127 79
-0.3218629228032163 0.38343972590005926 -2.2163898093617824 159 127 78
-0.3220812422785483 0.3849081831755342 -2.221372584296421 155 123 74
-0.3223233007377517 0.38716770743882023 -2.225698305745913 154 122 75
-0.32257959253597085 0.38990483939487364 -2.229623802809022 150 117 72
-0.3230889387551712 0.4011472130636752 -2.2264074002412433 149 116 72
-0.3236590260891376 0.414475405543859 -2.221392618881765 151 119 75
-0.32394931061227356 0.4184100749390368 -2.2242542571926043 153 122 78
-0.3241724897485167 0.4200828628642249 -2.2290220383386594 145 115 71
-0.32447245390580953 0.42435667510979014 -2.231584274139027 138 109 64
-0.32473670467618043 0.42742661219452416 -2.235161156087962 140 111 64
-0.3250019390714034 0.43053424233154114 -2.2387014803373444 147 118 72
-0.32520943679768116 0.4316755415238047 -2.2439202486298075 147 120 73
-0.32546526896296457 0.4344658261721781 -2.247728461879419 142 118 74
-0.3257697779560621 0.43892817044235133 -2.2500944953541517 122 100 65
-0.32611506956438663 0.4448028209232554 -2.251230562753963 125 109 82
-0.32655911877073285 0.4540967019451273 -2.249389626282371 160 150 137
-0.2788619402859272 0.0189099386612831 -1.554444494408307 109 93 70
-0.2782348825151644 -0.00031215204644541306 -1.5698735314776027 110 94 72
-0.2790760042732021 0.016637973933600114 -1.5667665423726795 118 101 82
-0.27971123190209357 0.028538494987561225 -1.5662130014996956 107 91 72
-0.2802670678531584 0.038499601579262466 -1.5666287526475358 105 90 70
-0.2807432218991019 0.046506824250064915 -1.5680320327278332 107 92 73
-0.28121754326786863 0.05448333377155956 -1.569429700680343 116 101 82
-0.28151989994633525 0.05820469383768989 -1.5730350414552632 108 91 73
-0.2820290737424108 0.06707175974667623 -1.5739292134703147 103 86 67
-0.28263477157152017 0.07835867815230846 -1.5735216339714544 105 87 67
-0.2830861658799222 0.0858229121020403 -1.575104050954086 110 92 70
-0.28363920298208656 0.0958374280332489 -1.575311497214138 111 93 70
-0.28398366308258466 0.10066003329403095 -1.5782579972151307 120 102 79
-0.28439515595749326 0.10716676405416758 -1.580293271092559 118 100 77
-0.2850390827171121 0.11950802859600945 -1.5791790827057914 124 104 81
-0.28561511840038456 0.1301726101128703 -1.578930033815671 126 105 83
-0.28582275825943293 0.13160580895036006 -1.5836407545759175 116 95 71
-0.28653992214315743 0.14585233669036696 -1.5814010612116665 116 95 67
-0.286939875814771 0.1521418805041148 -1.583448398393098 128 108 75
-0.2873755695613727 0.1593436051016195 -1.5849815207226827 134 115 77
-0.2877635153791664 0.16535304232620457 -1.587149126577383 134 112 76
-0.28814950279548257 0.17132322665893246 -1.589323543508265 142 118 81
-0.28872342677947216 0.1820615661942589 -1.588850706712505 149 124 81
-0.2891288657595724 0.18855161048006835 -1.5906986607671088 131 108 69
-0.2895496890890094 0.19544382944219085 -1.5923063042920702 156 129 91
-0.2899842595996044 0.20269824281782162 -1.5936935991831016 145 119 76
-0.2905014780566809 0.2120699807430958 -1.5938759941516423 137 112 75
-0.2910351374010627 0.22188023522802625 -1.593784208599205 122 100 64
-0.2915295936051731 0.23071077233458187 -1.5942149491733442 150 129 91
-0.2919676844767843 0.23811910643161144 -1.5954240219410991 145 117 75
-0.29223486266795173 0.24116835360371697 -1.5990860406939675 154 128 88
-0.29266463306100665 0.24838646966430333 -1.6003707378477297 148 122 86
-0.2930365454264229 0.2541340194352299 -1.6024756835584688 163 139 99
-0.2934686162521219 0.26143728128543237 -1.6036746532069117 153 128 90
-0.2938322246625898 0.26699341666391907 -1.6058582073068628 153 128 88
-0.2940185911492582 0.2679926920216085 -1.6106579154467782 150 127 88
-0.29428751447125173 0.2711189652670163 -1.6142301440371625 148 121 84
-0.2945174912135201 0.27324200196505755 -1.6183810739455544 136 111 76
-0.2944328331655255 0.2672254403178122 -1.627276458111035 138 114 77
-0.29468583467349424 0.26993404375312463 -1.631100269465374 126 103 68
-0.29487633904677246 0.2710231116275542 -1.6358719367085612 119 96 65
-0.29514915043861717 0.2742476839674905 -1.6393900862326456 116 96 63
-0.2952759303609877 0.27367650293391405 -1.6451459618427382 112 92 59
-0.2946865260087224 0.25444032359360963 -1.661974768490616 117 96 62
-0.29420366052661817 0.2379236204145031 -1.6772700889921335 133 112 81
-0.2933680715830592 0.20813723473055767 -1.7061367230917084 128 106 78
-0.2925898680455211 0.183729413226146 -1.7263847350499923 118 96 69
-0.2924059988007462 0.1707483536222646 -1.7455327524267008 123 105 79
-0.29238375912336223 0.16605452617885463 -1.7540683680461076 119 99 69
-0.2920537681359069 0.15323210335604942 -1.767577295974707 122 99 66
-0.2919627870903598 0.14667328552470438 -1.7773220108357446 124 101 65
-0.2919031055384623 0.1409163519249016 -1.7866103498187336 115 94 59
-0.2924140823129523 0.15023794207087926 -1.786665208138337 108 90 60
-0.29279867670205817 0.15623091867358496 -1.788743495597891 113 93 66
-0.29311887629398936 0.16052595357068222 -1.791856620204251 115 94 67
-0.29351737184233845 0.16690822362939095 -1.7936662119706925 117 96 72
-0.2938951116821616 0.17275035522862603 -1.7957951327157973 119 99 75
-0.2941554024637189 0.17547242188329015 -1.7998576866437501 106 87 62
-0.29460957057592774 0.18337197003286454 -1.800674406016542 101 81 51
-0.29456249433696036 0.17788722470278273 -1.8098800078701467 117 93 65
-0.2948589802435217 0.181578885298462 -1.813330609989683 108 86 58
-0.29516652763762796 0.18557169885030111 -1.8165845621097159 106 86 58
-0.2954188015383433 0.1880855681406971 -1.820769598889401 109 91 65
-0.2956169876577495 0.18914575648465548 -1.8258786145347337 109 91 66
-0.29591498050307746 0.19289102349320753 -1.829277379664832 112 92 65
-0.29681060058366326 0.2127629727833278 -1.8223381715339695 113 93 66
-0.29649815683744074 0.20004978580313337 -1.8362688494215271 116 96 69
-0.29636163105993873 0.19205159642907155 -1.847220276077107 116 96 67
-0.296626116891218 0.19488967868332185 -1.8512046591798144 111 90 60
-0.2968897165500328 0.19770574613137104 -1.8552005922785064 111 90 60
-0.2971289088847374 0.19986034786833007 -1.8596243984933314 109 89 59
-0.2973405289849808 0.2012642849106333 -1.8645383825713457 106 85 57
-0.2976367032955909 0.20497129533809266 -1.867947070398668 108 87 59
-0.29792141458546023 0.2083700205989264 -1.8715519811670074 109 89 60
-0.298110572010243 0.20915915719329126 -1.8768717676068274 108 87 59
-0.2983125007731327 0.21029385302200165 -1.8819687774053693 100 80 52
-0.2986054394756344 0.21392219542862145 -1.8854162264113685 93 73 48
-0.29884237650655604 0.21601628513208104 -1.8898783562785804 92 71 48
-0.2990301638584566 0.21675749497544006 -1.8952436570566342 95 75 48
-0.29921867316022466 0.21751411951697786 -1.9006045665685847 103 81 50
-0.29941199084170184 0.21839903821604745 -1.9058852012774887 115 92 58
-0.29977526054689807 0.2239792953947196 -1.9080083877552851 128 104 68
-0.3000235619676382 0.2263862958918782 -1.9122614915302028 126 102 64
-0.3000755697077666 0.22334900619343023 -1.9202036407808964 126 102 64
-0.30027592427799066 0.22441670146225523 -1.9253767063874458 125 101 64
-0.3008488798241339 0.23584962408470012 -1.9234856153438051 121 97 61
-0.3008844643265652 0.2323342747108641 -1.931781321796611 121 97 61
-0.30124664404522156 0.23791839769121825 -1.9338571028128104 116 92 56
-0.3014599366321207 0.2393502526579644 -1.938776428791694 123 99 62
-0.3015342577263492 0.2368873825056359 -1.9463877376954246 121 97 59
-0.3017211703070488 0.23756805457972252 -1.9518417063121192 121 97 59
-0.3020344983372487 0.24179607207583276 -1.9548379365579243 126 102 64
-0.3022200817870511 0.24243537877850885 -1.9603258467691675 126 102 66
-0.30250410472212097 0.24584483377153787 -1.9638843168925728 126 102 66
-0.3027054054046603 0.2469224351051793 -1.9690721256512698 122 98 62
-0.30302757073460557 0.251415062151642 -1.9718634395336654 123 99 63
-0.3033228861574478 0.2551546772940103 -1.9751759192327705 127 103 67
-0.3035215341622747 0.2561561931115809 -1.9804185833980248 126 102 66
-0.30361135932422423 0.2540603772449891 -1.9878638708076233 122 98 62
-0.30372788646672577 0.2527105822742278 -1.9947965231126257 120 96 60
-0.3039899257628643 0.2554992079267331 -1.998790250985461 119 95 59
-0.3042651786988274 0.25866740728709003 -2.0025095896065794 119 95 59
-0.3045160049700705 0.2611399157444202 -2.0067242420292857 119 95 59
-0.30466138276296695 0.26059057464391233 -2.0131141548151543 115 93 56
-0.30472659436176097 0.25772994938398497 -2.021185568085508 113 91 54
-0.3051796154982509 0.26600726535238906 -2.021208335181864 114 92 56
-0.3054564196510423 0.2692279912997645 -2.0248795998929325 116 92 58
-0.30555683953698665 0.267361273986379 -2.0322546994988353 116 92 56
-0.30569310276272094 0.26651695542696696 -2.038899892854386 137 111 69
-0.30587578417998296 0.267006590044522 -2.044580091563053 165 134 86
-0.30606868908477125 0.2677869692850706 -2.050053835721144 154 124 79
-0.30631603235187 0.27014465572226953 -2.05437022234469 139 112 71
-0.30639364205910974 0.26756120786828164 -2.0623414162107276 123 96 56
-0.30683942102079553 0.2756989761223796 -2.0623782014921086 126 98 55
-0.30722965849607764 0.2822349211019768 -2.0635809709782715 128 101 58
-0.3078486143124264 0.29548050566934514 -2.059756510529621 129 102 59
-0.3083376012960853 0.304954540710238 -2.0587067477628347 132 103 61
-0.3082904522728031 0.29870684298199557 -2.069428801142582 129 100 56
-0.30847718943105634 0.2993112327657246 -2.0750282636246364 133 104 60
-0.30871241851249664 0.29147641530725765 -2.099197470709725 118 92 47
-0.3089073636759187 0.29228400241524577 -2.1046913685235658 144 118 71
-0.30927751841987855 0.29828872417999464 -2.1062202326075012 168 143 91
-0.3093522894315936 0.2955211849966558 -2.1144545539854342 156 128 78
-0.310416619854386 0.3071985903676343 -2.1299775143741493 143 114 71
-0.3106720690452137 0.3098055209571573 -2.1340929343440274 143 114 69
-0.3111296551232988 0.31849330826573885 -2.1334647194095706 137 106 64
-0.3114210073536787 0.32219652700950785 -2.1367052879219592 132 101 58
-0.3119206239391387 0.3321924310716453 -2.1350036770698275 135 104 60
-0.3121452509123216 0.3339008563777447 -2.1397852408576443 135 104 60
-0.31259702244901344 0.342490275885313 -2.139141060233257 135 104 60
-0.3126416616567782 0.3387440740518778 -2.148226277400555 139 108 62
-0.3129444201442987 0.34282639484207067 -2.1511275526418974 140 109 63
-0.3131333341685685 0.34344671200786137 -2.1567746058058157 140 109 63
-0.31351973871664707 0.3500909076413342 -2.1576222051073737 138 107 61
-0.313935952947872 0.3576641501838924 -2.15770596288258 142 111 65
-0.3141665930445997 0.35957044929357274 -2.1623126018206738 140 109 63
-0.3152104690113597 0.3761334413195956 -2.167362786025062 147 116 70
-0.3154959314613812 0.3797502625808631 -2.170560813962785 146 114 68
-0.31564964859662775 0.3792954851161524 -2.1770662456137235 147 114 69
-0.3156342458367237 0.3735861573571715 -2.187872878274291 146 114 69
-0.31596448428243673 0.3785850597299265 -2.189950259393779 142 110 67
-0.3162534135056288 0.38230915393925835 -2.193060992678682 138 107 63
-0.3164369025027428 0.3827503768406516 -2.1988670034458 145 114 68
-0.31658120568264103 0.3819599599312832 -2.2056977703933645 145 114 67
-0.3167688364877045 0.38251469792621806 -2.2114286494520314 154 123 76
-0.317216825878959 0.3912334191738833 -2.21038923412626 158 127 79
-0.31736735630502555 0.39062504807736775 -2.21708439160805 150 118 69
-0.3175615939836791 0.3913826282326285 -2.222652083771761 150 118 71
-0.31781557831665164 0.3940208530180407 -2.226651829415475 152 119 74
-0.3180616536806657 0.3964108081379881 -2.2308577765092745 150 116 74
-0.31839457535965016 0.4015548458204793 -2.2327439313568007 150 117 74
-0.31881933114278704 0.409628373472671 -2.232142748576531 149 118 74
-0.3191765455912772 0.41557630884481234 -2.233313262897617 147 117 73
-0.31943226024061966 0.4183023271139724 -2.237201239857389 140 112 68
-0.3201486341097414 0.43575521167114084 -2.228548637256261 133 106 60
-0.320328897132207 0.43609995380418354 -2.2344292268441515 140 113 65
-0.3203581520574802 0.43159021507781636 -2.244474259860865 141 114 66
-0.3206579476831998 0.43575447388556565 -2.2471044521849852 141 118 72
-0.32095319664070127 0.4397806937209956 -2.249843856243153 122 99 61
-0.32131852404468797 0.4460784724455277 -2.250613358521565 116 98 65
-0.32168352750994705 0.45238341418038636 -2.2513567975164426 146 135 113
-0.2741356817524243 0.020742627903620248 -1.559357888696149 111 95 74
-0.2754112485204895 0.047445176995373095 -1.5511920408113697 116 99 79
-0.27581404641902707 0.05348443605017361 -1.553609480371568 116 100 79
-0.2760057820387273 0.054515942222277625 -1.5586086983423615 111 95 76
-0.2761538065856894 0.054504533609499695 -1.5641547287714508 114 98 78
-0.27662853289870304 0.062271965052278166 -1.5656472853075813 104 88 69
-0.2772101339367576 0.07260214347847349 -1.5657761608164213 104 87 67
-0.27771196112818836 0.08104657067520704 -1.5668662458542784 112 95 74
-0.27824920055975527 0.09035278377434952 -1.5674781004447758 114 96 73
-0.27870251414069047 0.09766695502329914 -1.5691181936915288 113 96 71
-0.27924371332994236 0.10710005800624467 -1.569612838044427 106 90 63
-0.2795408196485821 0.11069305504588223 -1.5731948883643756 120 101 76
-0.2800359604587171 0.1190476823292318 -1.574223024021276 110 90 65
-0.28049969837576505 0.12666194909148004 -1.5756254391948703 120 99 73
-0.28090995361106913 0.13300139673099975 -1.5776943193471746 132 110 83
-0.2810585979327749 0.13304250689149927 -1.5831538172784907 124 101 76
-0.28162036469296403 0.1430528899560224 -1.5832104544243006 117 96 67
-0.28230066415543553 0.1559479209351733 -1.581666227252434 127 107 75
-0.28269015332598496 0.16183089240897003 -1.5839134833369588 139 120 81
-0.2830767815893026 0.16765381403596402 -1.586179388243245 145 127 87
-0.2834693368291482 0.17362970293713825 -1.588347025135113 132 112 71
-0.28402202477333355 0.18350524999343054 -1.5883464913959344 162 140 94
-0.28452039907564564 0.19207901181274817 -1.5890377252957748 147 125 79
-0.2848379085253202 0.19626422660746784 -1.592144445467442 146 121 82
-0.28526846306994386 0.20321111532720537 -1.593702337543612 136 111 72
-0.2857190155691486 0.21065838383897906 -1.5949615322408288 133 110 75
-0.2862516400309964 0.22012533516758453 -1.5950656155338176 112 91 63
-0.2867227325644725 0.22810482588427317 -1.5959798519908917 122 101 74
-0.2871929387943979 0.23607748016506014 -1.596875297748745 130 105 74
-0.2876324480658788 0.2433118247304859 -1.5981670767796103 128 103 74
-0.287848747524708 0.2450752946225691 -1.6025544088433918 138 112 85
-0.28836778232586785 0.25428525783938655 -1.602688080610653 137 112 81
-0.2885878981288579 0.25615066733993086 -1.6070049458757016 145 119 83
-0.28900932962981746 0.2629805850323658 -1.6084667168496651 158 130 87
-0.2893115318273687 0.26687842270119744 -1.6116023981143206 155 130 85
-0.28958224634826546 0.270002413174605 -1.6151791127167945 176 149 107
-0.2899146891303904 0.27465742707597884 -1.6178620438405935 126 101 64
-0.2900580770050107 0.274632450159645 -1.6232634275966786 135 111 74
-0.29028015201336604 0.276555270079492 -1.6275335159649862 124 103 67
-0.29023244819884875 0.27177247944830435 -1.6357398543582509 122 100 68
-0.2907285338432077 0.2805051631525573 -1.6360138947941156 120 98 64
-0.2908382297100732 0.2796266059828292 -1.641940551505929 116 94 61
-0.29101201134039784 0.28033942933944256 -1.6469353543577363 110 87 56
-0.2894678369897297 0.23812532187737045 -1.6774670675431023 128 105 74
-0.28846194175361517 0.20175106966527517 -1.7158868234365834 125 103 75
-0.287888056951041 0.1759150070248381 -1.7484205149594394 122 101 69
-0.2872878484653298 0.15693303664845193 -1.7656615283721242 125 102 69
-0.28706010367212853 0.14729990987420516 -1.7772782570977481 127 104 70
-0.2872008084273759 0.14695184423233776 -1.783254120589076 123 100 65
-0.28741237794723384 0.14839131436822106 -1.7881414757831853 115 94 60
-0.2878186667315017 0.15476596398144693 -1.789988885203792 109 88 58
-0.28830448761980565 0.16317134996507343 -1.7905633524481896 112 91 63
-0.28890640909264864 0.17454555297474017 -1.7892704861606843 114 93 67
-0.2892589537074747 0.1795959749869841 -1.7918777653516238 115 96 70
-0.28961376484723533 0.1847121069393991 -1.7944324039703918 115 98 73
-0.28996002987587227 0.18961819769755728 -1.797106765574692 101 84 58
-0.290018801564998 0.1871821932775305 -1.8043854336359968 102 83 56
-0.28979246965346905 0.1774347823571929 -1.8162934850301276 117 97 68
-0.29070800612793485 0.19296408884199812 -1.8180249218242897 110 92 65
-0.2910457248761372 0.19766605004968896 -1.8208066571884949 114 96 70
-0.2913828519061576 0.20235989804514198 -1.8235832574472701 115 96 67
-0.29171938043652285 0.20704544006724124 -1.8263548720762244 118 98 67
-0.29215816676185946 0.2143779724933479 -1.827414674606722 114 94 65
-0.2921826851181887 0.21101537326150654 -1.8353501217577561 122 100 68
-0.29194697279882587 0.20090004655576332 -1.8476763978715973 121 99 65
-0.2921968874361066 0.20334005752830864 -1.8519052305191772 120 98 64
-0.2923880724049621 0.2042560708548139 -1.8571250431673487 115 93 60
-0.2926816406116855 0.20783045906835773 -1.8606139538559328 119 98 63
-0.2930042691745557 0.2121655367002313 -1.863598749575246 122 100 66
-0.29325715872799585 0.21468844209422744 -1.8677654894812816 115 93 60
-0.29345326601027455 0.21572967337945093 -1.872907491848594 115 93 61
-0.293660804026653 0.21706657123379547 -1.877858608055071 109 87 55
-0.2938226370312225 0.21720414528953136 -1.883608716807754 107 84 54
-0.2940533139251785 0.21914132500977124 -1.88816972570864 109 86 56
-0.29427514557606216 0.22084552085735898 -1.8928872001376955 116 93 60
-0.29445130264794006 0.22134698894604643 -1.8984119095624088 121 97 62
-0.29463566772172145 0.2220597754232223 -1.9038016158325108 124 101 63
-0.2950032173820811 0.22760075018292925 -1.9059444498217324 128 104 66
-0.2952454125432097 0.22983990741540106 -1.9103046614689754 127 103 66
-0.2954781310264545 0.2318285413466692 -1.914834402846882 127 103 66
-0.2956238751562133 0.23151201059065651 -1.9209324238450356 125 101 64
-0.29602427597595926 0.23794600039837122 -1.9224362803222435 121 97 61
-0.29622375442122384 0.23905281803463518 -1.9275671098357257 123 99 63
-0.29628752393341984 0.2365442948723837 -1.9351836386469838 119 95 59
-0.2964251474829555 0.23599043030277767 -1.941474241711206 117 93 57
-0.29655376675823264 0.23518795136123938 -1.9479480123673685 117 93 56
-0.29684426453594215 0.23870473035183115 -1.9514426596750076 120 96 59
-0.29712303752475644 0.2419116186894814 -1.9551469215583595 122 98 61
-0.2974018328279945 0.24512225682831967 -1.9588441867021666 129 105 69
-0.2977083943422847 0.2490818752577978 -1.96201350490598 131 107 71
-0.2980268296197418 0.2533663982312303 -1.9649474187017868 128 103 68
-0.29822215472518354 0.2543405009759321 -1.9702003986910355 119 95 59
-0.29844313595743 0.25600323162763927 -1.9749727224641411 124 100 63
-0.29867483902646697 0.2579541636771414 -1.9795433004378618 124 100 63
-0.29890719230210494 0.2599220165746141 -1.9841028060434793 125 101 64
-0.2989578001468536 0.2569620891941631 -1.9921708110659115 127 103 67
-0.29921824310787754 0.25968368875843495 -1.996204485572286 121 97 61
-0.2994220178852225 0.26086590890623795 -2.0013381614898336 117 93 57
-0.29961450683145324 0.2617376108536832 -2.0066991380168235 115 91 55
-0.29946203118643655 0.253194299595942 -2.018848437322427 111 87 50
-0.2998584189211233 0.2596141871911789 -2.0202320254492303 115 91 54
-0.300306363075587 0.2674584798949867 -2.0205649670994665 116 92 55
-0.3006140934796171 0.2714774250188098 -2.0236540238694105 116 92 56
-0.30095854043443937 0.27651029651776426 -2.0259958550736856 118 94 59
-0.3010785094048113 0.2753794899743728 -2.032832431612587 109 85 45
-0.3011166081652609 0.27198312966758864 -2.041344999611983 160 133 86
-0.30145026598351327 0.27672246031525616 -2.0438972141613716 152 121 74
-0.30170003592058775 0.2791520952041878 -2.048142312820879 149 120 76
-0.30180542784706466 0.27758664431983593 -2.055342570559163 130 103 63
-0.302065267274674 0.2802905626892771 -2.05939064615233 126 98 56
-0.3030992426000188 0.29550135480465767 -2.066205593564679 135 107 64
-0.3029699750297845 0.2873661819662102 -2.0783685429586445 132 104 61
-0.3032038794131793 0.2893476747188295 -2.082957435633598 134 106 62
-0.30341592607628076 0.2907165617120063 -2.0880099615582566 140 111 67
-0.30383385194551304 0.29785627999968567 -2.088694119230773 136 108 63
-0.30399996075645985 0.29793898099024674 -2.094718310772165 123 99 55
-0.3041513899194266 0.2976016149623055 -2.1010719197977727 125 101 55
-0.30442471024025436 0.30069123299359346 -2.1048176126432407 158 134 82
-0.3046632395320111 0.30280169164351023 -2.109309774717235 166 137 84
-0.3047035900698595 0.2993074413881254 -2.1181107318545314 160 129 80
-0.3063844013195377 0.31903835225586774 -2.1396190224129388 134 104 60
-0.306963162257225 0.33088722418857364 -2.1364710678587158 130 100 56
-0.30729000680227286 0.33554703897364013 -2.1389351271427213 131 101 56
-0.3077298927666655 0.34346217889466213 -2.1388195278277173 132 102 57
-0.3077916439306677 0.34051805538255875 -2.1472702491543214 134 103 58
-0.3080678567057392 0.3437371271442219 -2.15085356184183 134 103 58
-0.3083432135388966 0.34693518274567103 -2.154448822320881 134 103 58
-0.3086730693392622 0.3517131741789885 -2.156778478842475 134 103 57
-0.3089533068510586 0.35506274602967924 -2.160239467663066 139 108 62
-0.30937750700766237 0.3625952324112379 -2.160337634460723 138 107 60
-0.3095563550599908 0.36301250824858655 -2.16613851855728 142 111 64
-0.31023113707627703 0.3778702008335926 -2.1602906200274044 142 111 64
-0.31016480742598146 0.37114598644520236 -2.1718555969534927 146 115 68
-0.3107419153569748 0.38320079231532234 -2.1682160061989313 146 114 68
-0.31087086483766463 0.3821656937968483 -2.175187781464991 139 107 61
-0.3109003564977755 0.3782007962451617 -2.1845663003744717 140 107 62
-0.31108037897855245 0.3786384219303599 -2.1903685093447294 144 112 67
-0.3113591624320807 0.3819781228932808 -2.1937958624090843 138 106 61
-0.3114294778142347 0.37917180085261626 -2.202278365425318 137 104 60
-0.311726310148349 0.3830423406623892 -2.205270713468609 143 111 67
-0.3120254555061796 0.3869876837802916 -2.208193169600501 148 116 71
-0.3123429339048465 0.39148351926925573 -2.2106501870523085 155 123 76
-0.31253002382440875 0.39211268270863464 -2.216316142915972 151 118 72
-0.3127137062669948 0.39263467041049926 -2.2220787512993843 149 117 71
-0.3128440735021497 0.3915599692512607 -2.2291861036521747 152 119 74
-0.3131098186032122 0.3945194200024038 -2.232920971013503 149 116 72
-0.3134295403513451 0.399098232464439 -2.235288431504424 152 118 75
-0.3139976874579174 0.4111395044591497 -2.231342805182368 150 118 73
-0.3143961607224804 0.4181180686871142 -2.231637736350524 147 117 72
-0.31466660858106577 0.42125935704673745 -2.235168386614593 141 113 69
-0.3151070401164916 0.429533566690226 -2.234323439437895 133 106 61
-0.3153922629101184 0.4331390160881897 -2.2374361631848476 132 105 58
-0.31568003481799795 0.43682731806292785 -2.2404709965725873 127 101 53
-0.3159494943100866 0.43996583989289595 -2.243970551023427 136 112 65
-0.31624099884642975 0.44377858252667757 -2.246884814612117 134 110 69
-0.31660439933354023 0.44978831576118583 -2.2478941394704237 115 95 58
-0.31695758169737187 0.4555012646917132 -2.249141921919798 131 117 90
-0.26944658474010513 0.039998595813282356 -1.5276645515407017 109 93 70
-0.2702955275976107 0.05601393941020327 -1.5250499333154135 109 94 73
-0.26979979714061264 0.041468255590108694 -1.5379484147551303 112 97 77
-0.2702830011557572 0.04918112771454419 -1.5395316543962694 110 95 76
-0.2705603367525446 0.05221238839179998 -1.5434959417799705 105 89 70
-0.2713847481777242 0.06773266430374936 -1.5410275568390353 108 91 71
-0.27170932595905356 0.07186106506734491 -1.5443954927864243 109 92 72
-0.2723035883713897 0.08216307943708712 -1.5445550226138258 103 86 65
-0.27257499355933673 0.08508939432593265 -1.5485223978638576 104 87 67
-0.2727917567522459 0.08676468280770333 -1.553140199936784 109 92 72
-0.27329276848824857 0.09496307683027616 -1.5543410899778483 111 94 74
-0.2736338626544252 0.09950043543459341 -1.5574449526350789 116 100 78
-0.2739744062268122 0.1040305043962293 -1.560543729379889 117 99 74
-0.27434904642565194 0.10935118662722398 -1.563214805025367 117 99 73
-0.27456955047848325 0.11112533011839021 -1.5677591585736692 113 96 68
-0.27495668078782604 0.11674468549668676 -1.5702537248311672 110 90 64
-0.2752626876893488 0.12049734151977959 -1.573734479440299 111 89 64
-0.2759387218227021 0.13281399103961788 -1.5726086952063412 119 98 71
-0.27624855647796676 0.1366724429247343 -1.5760041257397044 125 104 75
-0.27628666565448606 0.13423431512991174 -1.5827991862262114 132 108 82
-0.27693158723089917 0.14587210531607459 -1.5819704835002824 120 98 71
-0.27766905272436304 0.15968251580557047 -1.5799223278579875 119 99 70
-0.2780668595115303 0.16561695983800756 -1.5821351157691126 151 129 97
-0.27846092331252414 0.17147304514753736 -1.584376393982042 130 108 74
-0.2788469139049266 0.17714953341483936 -1.5867023006635774 141 118 82
-0.2792847418678526 0.18404462027904805 -1.5883415736653292 150 125 84
-0.2798064604867781 0.19291183913558357 -1.5888695912127355 135 111 69
-0.2800436568108785 0.19513628067580946 -1.593066079765451 145 121 84
-0.2804990692685672 0.2024738386910495 -1.594408730543617 134 110 74
-0.2809340605073266 0.20934466996858941 -1.5959926764509067 127 106 70
-0.28143669367042556 0.21781533234353423 -1.596659410393415 126 106 76
-0.2818836996543514 0.22499310153059848 -1.598030580025168 119 98 73
-0.28240727805473775 0.23398549487562614 -1.5983556170383617 128 107 80
-0.28290454326290015 0.24237412327770214 -1.598996773121532 132 110 82
-0.28337007977778794 0.25002908042763533 -1.6000314701864569 117 93 66
-0.28370075468534595 0.25451127569040555 -1.6028578328987644 123 99 71
-0.2838950453008956 0.25577333799356183 -1.6075213756532043 145 121 86
-0.28440626162428045 0.2645387387238736 -1.6078708705256062 160 134 89
-0.28478311253827715 0.27013445660977625 -1.6100242568271006 165 139 89
-0.28497280313150175 0.2712957886126165 -1.6147325122068987 170 143 93
-0.28550698908904687 0.2806426523058539 -1.6146869095027994 135 110 70
-0.2861669272655859 0.2929995912431373 -1.6128576355835538 129 105 69
-0.2858639646986779 0.2824405020647957 -1.624396045923816 123 100 66
-0.2859976969144139 0.28226760588735944 -1.6298865804092197 120 99 65
-0.28631607328235076 0.2864991494439369 -1.632791631684169 123 100 65
-0.28634895971871366 0.28390926654326853 -1.6397193207448835 117 94 61
-0.2865432383749539 0.28517198997350096 -1.6443809588009433 110 87 55
-0.2866968625477734 0.2854582110095052 -1.6496266280539928 123 100 68
-0.2848839090445908 0.23854036129981598 -1.6830530248569306 128 106 74
-0.28418242504338015 0.21470298485188777 -1.708430791364648 125 104 75
-0.28394785209122897 0.2019878163194066 -1.7273041963361981 120 99 67
-0.28377022757242254 0.19414117017604704 -1.7376947740527864 120 100 67
-0.2835839733203591 0.18606078264671244 -1.7482672567297197 122 100 67
