ply
format ascii 1.0
element vertex 696
property float x
property float y
property float z
property uchar diffuse_red
property uchar diffuse_green
property uchar diffuse_blue
end_header
0.399935764128211 0.10084411544236238 -1.9672593765211193 84 63 35
0.3983463776288332 0.09711520948210961 -1.976103941357543 83 62 36
0.39958713417413183 0.09879381896915801 -1.9806535137580161 73 51 25
0.40096018331298255 0.1007254284531563 -1.985000179431344 76 55 27
0.4028806520856294 0.10370428624743289 -1.9885039941292595 79 58 27
0.4042440422388531 0.10561802894259936 -1.9928598483942246 82 61 30
0.40432479680955297 0.10507719914993857 -1.999198076146872 86 65 34
0.4078734308072456 0.11117387784437816 -2.0001668007213818 84 63 32
0.4063528850757372 0.10756620386327814 -2.0090026363826414 81 60 29
0.408887507449894 0.11172289402868452 -2.0115337322649594 81 60 29
0.4021245202526533 0.09806745115434928 -2.028614566504586 79 58 27
0.4051367324749752 0.10313728338463107 -2.03041513638523 83 62 32
0.40786325151565206 0.10766134516251591 -2.032648345349375 87 68 37
0.41322757314902486 0.11724504362660765 -2.030696066971383 98 77 43
0.41542446147593814 0.12075785846148457 -2.0337264273342512 112 88 51
0.4169911120346534 0.12306255466868682 -2.0377497746350133 121 96 61
0.4199196092199812 0.1279811743245723 -2.0395961509253766 122 97 66
0.41790583886215854 0.12341417203161265 -2.0493378600650414 85 65 35
0.4220678553954376 0.1307024114200402 -2.0491937464167904 67 50 25
0.42026399793610963 0.126534974584687 -2.058630949470214 65 48 24
0.42118655319232956 0.1276024615965658 -2.0636926015519172 65 48 24
0.42260706984242774 0.12962661804948472 -2.067950022996645 64 48 24
0.4229036444079784 0.12949038170987842 -2.0740329501399635 65 47 26
0.42788518048146706 0.138361832446748 -2.0724837308786737 62 44 25
0.4271703640957981 0.13628079413241806 -2.0802163299589544 61 43 25
0.4286313979838893 0.13838395155640143 -2.08439752905527 67 47 28
0.42813649576988444 0.13672312479858972 -2.0917961605721183 72 51 26
0.4305442022316085 0.14064816146318393 -2.0944190835428564 97 77 45
0.43324017694923445 0.1451295952649448 -2.0965524208207778 103 82 48
0.43487113497717006 0.1475612498543984 -2.1004401898032 100 78 48
0.43559456208863784 0.14824480557104192 -2.1058361939881816 85 64 38
0.43613879733277083 0.14858246971463857 -2.1115367808372345 73 54 36
0.43619054524238116 0.1479699675329953 -2.1180700604577036 50 34 21
0.43706252265437256 0.14893788602090496 -2.1232357026939908 39 26 14
0.4382332692296119 0.1504817256325145 -2.127900841717489 36 23 11
0.4412275689770074 0.15554402067561818 -2.12948054716665 37 23 12
0.4410425243754836 0.1544720459824343 -2.136438578640802 36 22 11
0.4406689349713296 0.15303450920162326 -2.1437321165003156 35 21 10
0.4429526728029876 0.15672689170113796 -2.1465040341923687 35 21 10
0.44614643522069874 0.16217836503560085 -2.14770605294009 34 20 9
0.44803976989929206 0.165119277167318 -2.1511218624976327 34 20 9
0.4504799339011622 0.16911787590822408 -2.153588216119723 34 20 11
0.4515339359325074 0.17043786045287146 -2.1584378945660094 34 20 11
0.4541675500486022 0.17481255911178345 -2.160550466624062 34 20 11
0.45646684495742723 0.17854211294887729 -2.1632295630230334 35 21 11
0.45636031705534436 0.17761743223539955 -2.170093782413326 37 23 12
0.46553186794359663 0.19465034690083183 -2.1607390778834583 38 24 12
0.4680647332096448 0.19883837051539627 -2.1629504109598807 40 26 14
0.4691964267021978 0.2003141375488675 -2.1676139789984363 41 27 15
0.4707634359212297 0.20263318194726848 -2.1715097935705816 42 28 15
0.47144730959716147 0.2032411919601932 -2.176965558680958 47 32 17
0.4736429680239244 0.20677919348060203 -2.1797418491183893 48 33 17
0.4760572652279097 0.21074228555336844 -2.1821181108866172 50 33 18
0.4781850242491704 0.21415098606352245 -2.1849934160105073 54 36 22
0.48045248917598515 0.21783181021873665 -2.1876084718922484 54 37 21
0.4826179458223715 0.22131588567928195 -2.190395462764952 53 36 21
0.4833925557528055 0.22210092909311002 -2.1956794646869384 51 34 20
0.4852469351393145 0.22498233598790318 -2.1990156632288214 51 34 20
0.48695700337942815 0.22758417313748597 -2.2026065239031443 49 34 20
0.49064050468752796 0.23402119378760006 -2.202602367252314 47 32 20
0.49034438054679785 0.2327259545149976 -2.209831455747558 46 32 21
0.4909545782050623 0.23319111092018524 -2.215418380293692 47 33 20
0.49213265918358073 0.23476003172109094 -2.219969523495907 51 35 21
0.4929768645429156 0.23567939410660416 -2.2251354170744047 58 41 27
0.4953047998704054 0.23948571771337407 -2.2275661363598487 57 42 27
0.4995130925893623 0.24695369511167264 -2.226503042058925 55 41 24
0.5015374179680059 0.25017259185251345 -2.229462583863421 69 57 40
0.49242284521669116 0.23169622646213928 -2.253158676844198 70 60 45
0.4903188929597835 0.22686704475901415 -2.263872533176925 82 74 61
0.49129618114194157 0.22803920229230318 -2.2688502581582863 100 94 84
0.49346414778753567 0.23153239350920501 -2.2715932886982655 128 124 118
0.49556945280090897 0.23490452601107698 -2.2744437938957844 151 150 146
0.24679425624186463 -0.13393285849155656 -1.5663023414676425 103 85 62
0.2565948504089495 -0.11822427466525154 -1.5797851668833884 93 78 54
0.2628549058391971 -0.10715511653318333 -1.5789001877892614 98 80 57
0.26907211797774705 -0.09616174379499909 -1.5780215314896238 99 81 58
0.2749223179656648 -0.08585194879298585 -1.5775122936480606 96 78 55
0.2806748019393193 -0.07572122438444989 -1.5770745364910952 96 78 55
0.28568618202217483 -0.06697648628317232 -1.5774345169156625 96 78 54
0.2904693281952206 -0.05865651635055491 -1.5780212151851833 94 76 52
0.29438796699477754 -0.05195564336323083 -1.579559817437038 95 77 53
0.2976029389975103 -0.046573133215557394 -1.5818777813522134 96 79 54
0.30038725821297924 -0.04199735659541526 -1.584671615843511 97 80 54
0.30176536812551696 -0.04006095496172801 -1.5890665488034925 105 89 62
0.31102666327564443 -0.023316491789976412 -1.5843777891026887 110 94 66
0.31425062797182757 -0.017908051845012374 -1.586602496554034 119 99 72
0.31745765614799504 -0.012529592596202122 -1.5888299027762793 126 105 76
0.3220534769463564 -0.004538651747866107 -1.5894228724343797 117 96 64
0.3263031231224852 0.002804514012006487 -1.590391878547968 119 96 63
0.32124098368408976 -0.007362327153410453 -1.602259599584672 118 95 61
0.3328485849975084 0.013823781400571722 -1.594552995659777 126 103 68
0.3365147191523689 0.02007653521780578 -1.596142293436211 126 102 68
0.34147431663753935 0.02876600987792466 -1.5961766483947022 119 96 63
0.34213169039880964 0.029359753849378 -1.6012993544439322 122 100 63
0.3477938885193196 0.039377249031032235 -1.6004486251854293 132 109 73
0.3517432270045744 0.04617274109199909 -1.6016129258456175 115 93 60
0.3545174454547351 0.05075692540158849 -1.6041672532521432 145 122 85
0.3566374049155474 0.054109688150695 -1.6074978338932908 137 112 76
0.358659500449126 0.057278863645456535 -1.6109389447676812 125 104 72
0.3615008941172736 0.06199350640384799 -1.613376664487137 115 94 64
0.3642291213214017 0.06649629438364246 -1.6159381693282056 112 90 65
0.3698221246628677 0.07640439713158187 -1.6149783582671884 107 85 60
0.37158452490093363 0.07908914766720954 -1.6186875629280189 120 98 70
0.37371682354690305 0.08247254477609134 -1.6219355377631566 124 103 73
0.37727560877932814 0.08854966600140662 -1.6234099136850666 128 107 82
0.3792166020680867 0.09157432961895501 -1.626872627252006 105 84 61
0.3812060029418541 0.09469114930523376 -1.6302683208745474 97 78 55
0.3836201311953792 0.09861112149760792 -1.6331257266347563 113 95 71
0.38637988469183404 0.10318538167978714 -1.6355385261530884 89 71 47
0.38863986315849763 0.10681653153899112 -1.6385667855896122 93 75 52
0.3895533345334359 0.10790303971030424 -1.6432870689081882 94 77 57
0.38948681871962676 0.1071360864062334 -1.6492523126122411 99 85 67
0.37085051462968066 0.07124239136002986 -1.6788585823714748 83 69 50
0.34688900987689053 0.023255502892498947 -1.7337721454182191 85 68 51
0.34943113127580405 0.02740157781794661 -1.7366134506063446 97 82 62
0.34786517207987716 0.02376643139167861 -1.7447796222840202 101 86 63
0.34739020962875217 0.022195945476246537 -1.7515483863472472 97 81 55
0.3520433282620883 0.030343644715086715 -1.7516247218996284 99 83 54
0.34941215821370086 0.024684415750215516 -1.7612306741662338 109 92 64
0.35602497775543396 0.036551625358815454 -1.7586972385121875 107 89 65
0.34820190914895016 0.021041008991335486 -1.775191376136469 105 86 64
0.34927843637993994 0.02240734130551547 -1.779966521859303 104 86 62
0.349618808298239 0.022376416476420913 -1.7857223415887034 106 88 64
0.3502008080212317 0.022803322598545728 -1.7911635203847984 111 93 69
0.3513332749068546 0.024274851834101552 -1.7958731267001795 99 82 55
0.3526574252021869 0.02611036657538235 -1.800325899914366 95 79 52
0.3543051338289577 0.028560690908450537 -1.8043413986330954 109 93 63
0.35617306810180827 0.031429940095641484 -1.8080550261844797 115 93 63
0.3574305314305567 0.03313943671201752 -1.8125915293460437 108 88 62
0.360460679863045 0.03821941218170066 -1.8147129752329847 105 86 61
0.3626678301942286 0.04173600022749807 -1.8179426944065287 104 87 61
0.35898469873703714 0.03404840024934952 -1.8292407736566438 103 86 60
0.36000636187219764 0.03530826031436046 -1.8341104481010966 101 84 58
0.36356861951802355 0.041403476095125014 -1.835474683926609 102 82 55
0.36712185532944325 0.04748386485437589 -1.8368298712432147 104 83 54
0.3706012246822953 0.05342593438220111 -1.8382661913019973 104 83 56
0.3713013421385747 0.05407629824535348 -1.8435567624527622 102 81 54
0.3664215417620634 0.044094572922667996 -1.8566580427145567 101 80 53
0.3657498132764736 0.042126571580088035 -1.8639094682440767 100 79 52
0.36426043082633003 0.038597930402138714 -1.8723298836174294 97 77 50
0.3658193697327536 0.04087921846014553 -1.8764686565178075 94 74 47
0.3731289602751913 0.05412937105738019 -1.87245265555424 90 70 43
0.3767258825268274 0.06030245669434586 -1.8736599605155266 88 68 41
0.3735226515082995 0.0535007464926166 -1.8845478914945626 90 70 43
0.3730564698606095 0.05191922840188734 -1.89155901377861 91 71 44
0.3729478894539603 0.051018786669162375 -1.8980723611057344 94 74 46
0.3748166481481614 0.0538935137683898 -1.9017489986064804 94 74 47
0.3759569826805175 0.05537730809349806 -1.906472595970397 94 74 47
0.37539019446485944 0.053598819351677485 -1.9136729096497744 92 72 45
0.3769195463439769 0.05582515192112186 -1.9178400715133153 87 69 41
0.3797213594710889 0.06048470121783733 -1.9201467796113374 85 68 38
0.3824157251855929 0.06494039112757666 -1.9225958831982792 83 66 37
0.3845065235974468 0.0682429816191269 -1.9259178286966456 83 66 37
0.38714468728583457 0.0725938688256002 -1.9284246377019465 85 64 37
0.3882296361341002 0.07397331633314325 -1.9332148833876182 85 64 37
0.39026563435251155 0.07717346531272623 -1.936595414388854 84 63 36
0.39295496106932304 0.08162564433046016 -1.938995708294949 83 62 35
0.39361834091993086 0.0821984481745191 -1.944407040736564 83 62 35
0.3937368381622972 0.08172660715116692 -1.9506399282811433 83 62 35
0.39778375496700935 0.08878302980110947 -1.9509797012858308 83 62 35
0.3995127069299612 0.09139847327542044 -1.9547868524523166 79 58 29
0.39811150060176725 0.08801173633872134 -1.9633233097849665 76 55 26
0.40214907819300005 0.09505509174204646 -1.963632790822721 80 59 30
0.40223910738029894 0.09452702485697506 -1.9699237091593225 85 64 36
0.4015018857018565 0.09241003142980597 -1.9774887778912877 82 62 36
0.401856011118578 0.09238615670873135 -1.9834010483906708 81 60 35
0.4029369994977929 0.09375719687112 -1.988204735008947 85 65 38
0.40401824161785727 0.09512857757865778 -1.9930093774926965 89 68 38
0.4056119343779088 0.09748444340286888 -1.997022849956421 91 70 40
0.407216061267211 0.0998607634191147 -2.0010164631195164 89 68 38
0.40566038303716156 0.09616280793042198 -2.009924017249912 83 62 32
0.4079984055495545 0.09994955874384243 -2.012779796386849 83 62 31
0.406960054528874 0.09724284644887227 -2.0209125951005147 84 63 32
0.40531510323119335 0.09336654284935242 -2.030020740757572 84 63 32
0.40842666395591615 0.0986417180725973 -2.0316606511167925 92 70 39
0.41076407429266504 0.10242855356395175 -2.0345058116030086 95 72 37
0.4131012440979396 0.10621613244760392 -2.0373402865401045 130 106 66
0.4179081892967577 0.11476235963179265 -2.0362343341842206 126 103 62
0.42052812554650243 0.11909853963871136 -2.0385829968080964 134 109 71
0.4219185675773754 0.12106657904651391 -2.042886006868323 113 87 55
0.4231524301313109 0.12273293935584678 -2.0474387327368446 84 62 33
0.4236629004406307 0.12300429819529757 -2.0531566355332536 69 52 27
0.4242135645594364 0.12335241795216506 -2.0588166720487493 67 50 25
0.42415935090747 0.1225326717620287 -2.0654639230439664 69 52 27
0.42413299088681716 0.12176528812044096 -2.072078700072609 70 51 27
0.42858663706072403 0.12964580882585836 -2.071398714522161 70 50 25
0.42904706780698687 0.12981823662228126 -2.07721954106104 66 47 24
0.4284769635137504 0.12799909957731398 -2.084739374910595 72 52 30
0.43039364423076754 0.13098319007666287 -2.088183357611828 71 50 28
0.4320212348695928 0.1334092862372242 -2.0920976434354865 83 62 33
0.43525708307500927 0.13894525380849265 -2.0933436982987046 109 87 52
0.4379910376138239 0.1435128239350581 -2.0954030892861812 110 88 54
0.43777748661551713 0.14238007391921326 -2.1023595899670005 106 84 52
0.4383970550620829 0.1428578807534907 -2.1079378929027284 92 71 43
0.4392257661560654 0.14373984458973693 -2.113171596035806 66 48 27
0.4390311806241877 0.14264006486776165 -2.12013059631517 50 35 19
0.44045391087009306 0.14467105648102474 -2.1243752973157766 42 30 16
0.4412689273356993 0.14552493827711593 -2.1296464044508463 39 27 13
0.44351439065379844 0.1491504147896075 -2.1324933401598414 36 23 11
0.44536761556503524 0.15201671536276212 -2.135997529920133 35 21 10
0.44722124191458124 0.1548845142938186 -2.1394944304358834 33 19 8
0.45026096056453596 0.1600535678910726 -2.1409526979369846 34 20 9
0.45137475174184444 0.16148809094857097 -2.1457014808947723 34 20 9
0.4521152413757676 0.1621980225968398 -2.1510947516132846 33 19 8
0.4510456618973781 0.1593935292831522 -2.159622352707648 34 20 10
0.45126926480083657 0.15909761542302348 -2.1659313952535557 34 20 11
0.46241323159247966 0.1800127435086593 -2.153256398770614 33 20 11
0.4646056162342471 0.1835461921439535 -2.1560940813192477 33 20 12
0.4657076531091546 0.18496158121393347 -2.160829389972805 34 21 12
0.46713157785240006 0.1870026523228655 -2.165000844171886 36 23 13
0.4712835667138867 0.1943493612794318 -2.1643673111820805 37 24 14
0.47234091230570574 0.1956793944785571 -2.1691670143805672 37 24 15
0.47339845286005644 0.19700963602609584 -2.1739679409933457 38 25 15
0.47443969408128067 0.19830797990105148 -2.1787993932754857 42 29 16
0.47622693342332134 0.20105863964463971 -2.1823034071279275 42 28 16
0.4805761485579416 0.20879980329223558 -2.181222685517728 45 30 17
0.4818730974319527 0.21059811801770228 -2.185579345076836 47 31 19
0.48260347259008257 0.21129239593786864 -2.1909535835375538 47 32 19
0.48442150017220265 0.21410639374379115 -2.194371634034326 49 33 20
0.4858308960410102 0.21612428725418914 -2.1985220956906146 47 32 20
0.48554835529114376 0.2148421705755751 -2.20573946096012 45 31 19
0.4880174946513738 0.21892729389300586 -2.2079664892662803 46 32 20
0.48795708046679453 0.218076835586401 -2.214795750612695 45 32 21
0.48810868618297343 0.2176388206064751 -2.221250666343387 46 32 23
0.4895137444037647 0.21964748069774032 -2.2254160818972784 47 34 23
0.49132261725784826 0.2224452469852976 -2.2288358296237143 49 35 24
0.49860016160519993 0.2359302445494098 -2.2221505843890412 55 40 28
0.5015346005793917 0.24093289325254036 -2.2234425594412413 54 40 27
0.5041036598333237 0.24522318172511798 -2.2253941953346903 61 49 33
0.5035716921401735 0.24344973676703674 -2.2331080574574704 69 59 43
0.49212986397246383 0.22032879774171749 -2.261226383526035 74 65 53
0.4930863450791857 0.22145772909707923 -2.2662490235502624 89 82 72
0.4954717868532283 0.22538387537977173 -2.268588605935044 111 106 98
0.49707140181507525 0.22777253205423503 -2.272396526826819 139 136 131
0.2550005217174448 -0.13205795707141083 -1.5861432656395937 91 76 55
0.261842865052446 -0.11985904005585207 -1.5846180474651674 93 75 54
0.2681433668242125 -0.1086745896699351 -1.5836521251044096 95 77 55
0.2740818135847486 -0.09816694987801 -1.5830504206530103 94 76 54
0.27922946240352225 -0.08914377071861923 -1.583300145452641 95 77 55
0.28531150238508934 -0.07835745169246583 -1.5824611825672352 96 79 55
0.2927269707636681 -0.06505508583030073 -1.5800690746747807 97 79 56
0.29714021687714454 -0.057403222113008245 -1.581043590009224 101 83 59
0.29847035585663106 -0.05555843670508309 -1.5855147393579268 95 79 54
0.30222036703690974 -0.049152246807838584 -1.5872094093241176 108 92 66
0.3078705913113007 -0.039161048136685195 -1.5866953237612267 113 97 69
0.3088338250278584 -0.03800475678709003 -1.5915592572861446 118 102 72
0.3164225018614095 -0.024350927310345216 -1.588742376605315 121 100 71
0.31438940947938765 -0.02884547085374667 -1.5970697922205082 123 101 70
0.3188687720486669 -0.02105232442697813 -1.5978176798608281 125 102 68
0.3214684576983093 -0.016804444869649993 -1.60074142115825 131 107 72
0.32480771307883005 -0.011158805110979886 -1.6027832197378664 121 98 64
0.3296561192233765 -0.002660874867728258 -1.6030248933527875 113 92 58
0.3350388459476623 0.006849889670531184 -1.6026023398859954 120 96 63
0.3429888831579826 0.02121581512384868 -1.5990907612176297 121 98 64
0.34587024385473664 0.026007889517653926 -1.6015714281359137 123 101 64
0.35136632522639455 0.03574483928930777 -1.6009055288041378 126 104 68
0.3548736642076158 0.041725093971738625 -1.6025935087836292 118 95 62
0.3579494891036329 0.046891338583468445 -1.6047821676071867 137 113 76
0.3606160793538454 0.0512851157086342 -1.6074500493631103 132 106 69
0.36257639714441114 0.05434371408567307 -1.610963327671484 122 100 69
0.36648821340111354 0.061097111682290095 -1.6120902494276192 116 95 66
0.36704972683579146 0.061509614442920524 -1.6172933905061382 109 88 62
0.37261825967797946 0.07140427174720371 -1.616353007969842 121 100 75
0.37423328462067684 0.07381372995034424 -1.6202468112042365 127 106 79
0.377221860979188 0.07882628353542176 -1.622438075208396 126 105 76
0.37906816765906404 0.08167560109405825 -1.6260312221116082 113 93 66
0.3795416754239301 0.0819229948867054 -1.6313282793102881 104 85 59
0.3826101366482043 0.08709051305727361 -1.6333882048812063 110 91 67
0.38487611878489114 0.09073773650295269 -1.636438027289167 112 94 68
0.3908315459412617 0.10138587301773877 -1.6348347337672053 94 76 52
0.3925543019339466 0.10400610031840074 -1.6385352387307168 89 71 50
0.34751632546818484 0.013811145101116251 -1.7381834241587615 82 66 49
0.35206873053477034 0.02178866202670926 -1.7384248669581146 91 77 56
0.3490721536796093 0.015410119450755821 -1.7484719928747112 101 85 60
0.34926016058200704 0.01508657176636885 -1.7543933568819459 99 82 55
0.35273731270333575 0.021021731615476102 -1.756009090949021 107 88 60
0.3503280392131941 0.015753486245756232 -1.7653530017671772 108 89 62
0.35220637454540604 0.018645843297840303 -1.7690663157025799 104 86 62
0.3516856722840243 0.016969564311062613 -1.7759531883113457 103 85 62
0.3521206777761805 0.01711230517843576 -1.7815848015451772 102 84 60
0.353695735356256 0.019426785549288172 -1.785702257043945 111 93 69
0.35421458741166434 0.019728352815956418 -1.7912306290089357 106 88 65
0.35536458116258 0.021232575519959496 -1.7959174602272205 97 78 54
0.35676727348740617 0.023218659325454916 -1.800264292942233 109 91 65
0.3566518191529195 0.02230885051302889 -1.806662778978476 104 88 59
0.3581885098508779 0.02455022673819618 -1.810831347482881 107 89 62
0.36072330139172204 0.028696945349235226 -1.8136379663865991 104 85 61
0.363194825731287 0.032724206264808764 -1.816518990513338 99 81 57
0.36530659286109823 0.03606572180694506 -1.819881688465404 99 82 57
0.3662301671809336 0.037138497183891894 -1.8248704165611052 100 83 58
0.3629238939352405 0.030129107640849473 -1.835699039426009 99 82 56
0.36741747074825964 0.03802206615794934 -1.8357696114537787 102 82 55
0.3710089452019024 0.04419381827659585 -1.8370631912922255 104 83 55
0.37383392745552585 0.048902304649743045 -1.8394031954532752 104 83 55
0.36903953222473884 0.039038719829533 -1.8523838922025833 103 82 55
0.36945472530429624 0.039136114923808474 -1.858110656593046 102 81 54
0.3693274588660673 0.038194553990356095 -1.8646085734282016 99 78 51
0.36923276081930717 0.03731394953811262 -1.8710730530421136 95 75 48
0.36944196677325286 0.03701389469484612 -1.8771191619064906 93 73 46
0.3763313272197035 0.04950723197622792 -1.8736770297475318 91 71 44
0.37840967207503184 0.052789447598530714 -1.8770445778874336 90 70 43
0.3754380912835495 0.046395245775123495 -1.8876313115718335 90 70 43
0.37713558669284075 0.048946592833033264 -1.8915532993716573 88 68 41
0.3778506608747555 0.04961477289112176 -1.8968860576189703 94 74 47
0.37914726863431003 0.051397740769949185 -1.9013831139893658 93 73 47
0.3801076392266686 0.05253574558171842 -1.9063670168747173 90 70 43
0.37972538736688743 0.05109707403184682 -1.9133065810033492 85 65 38
0.38120787554434643 0.053236008831889226 -1.9175397919629116 73 55 29
0.38341315037873563 0.056762952488317864 -1.920712206428787 68 51 26
0.3862728957983191 0.06154784465826402 -1.9229138503791143 71 54 29
0.38894347418973174 0.0659710654656101 -1.9253786681769867 78 61 35
0.3914432520865945 0.07006761250299998 -1.9280821730337416 86 66 38
0.39323400892467153 0.07280270976607006 -1.9318251468997962 86 65 38
0.39590355903950863 0.07722799982525363 -1.9342548660051935 81 60 33
0.3973777288216332 0.07935593220744352 -1.9384552771172363 82 61 34
0.39780111099263393 0.07946275490291055 -1.9442270394435686 82 62 35
0.3977714464555406 0.07869697231484413 -1.9506871936239916 82 62 35
0.4027629310408243 0.087594317046573 -1.9495904492343792 82 62 35
0.40265126217940866 0.08667067145608731 -1.9561744455415986 86 65 36
0.40152833324350706 0.083798098852567 -1.9643054953766694 79 59 30
0.40245275651074225 0.084866947440917 -1.96934328337069 79 58 29
0.40454336984548206 0.08818260559148988 -1.9726033620843773 77 57 28
0.4043841599892787 0.08716281812752269 -1.9793010021369368 77 58 27
0.4055546433685398 0.08870515730244033 -1.9839689050033649 83 64 34
0.4062870990979626 0.08940270138000467 -1.9893124972756027 90 70 40
0.40643206085024014 0.08896640965596009 -1.9955693558731549 89 68 38
0.40691320483479254 0.08917764814124468 -2.001315254309971 84 63 34
0.4078157570118781 0.0902014600418023 -2.0064126283944317 85 64 35
0.40852917220186113 0.0908597604352957 -2.0118084177073716 84 63 34
0.409915557979918 0.09281716844354082 -2.0161552965115646 84 63 32
0.4117211538553626 0.0955845770746091 -2.0198419552907683 83 62 31
0.4127895950815433 0.0969282016262265 -2.0246845799019755 91 70 39
0.41106702073307627 0.0928769741804008 -2.0339412152607887 94 70 38
0.4134698612481879 0.09679868861801799 -2.0366844981869936 125 98 60
0.41586814115363996 0.10071288099127301 -2.0394232860589425 145 119 76
0.4182061912983565 0.10451185389862905 -2.0422464578005046 139 117 72
0.42019433004155676 0.10763495396511713 -2.0456186427412755 124 102 59
0.4242716147124839 0.11480272490675231 -2.0456281013325577 98 74 37
0.42532760805589703 0.11612387637825489 -2.0504760380353355 85 63 30
0.4253076221230375 0.11536095110913158 -2.0570643760900396 78 58 30
0.42813492566997796 0.12011270489408432 -2.059049645349188 76 55 27
0.42682652079210837 0.116851832074921 -2.067743678324119 78 57 28
0.42573750393808024 0.11401340090599205 -2.0761054233191785 80 58 29
0.42233476637017436 0.10668612875134476 -2.0882763259934176 77 56 28
0.4255996735018765 0.11228582727324571 -2.0895506438161497 75 54 28
0.4275980007793402 0.11543052396469944 -2.0928894898144423 78 56 32
0.4314144122671657 0.12210438476992358 -2.0932179102299266 75 54 28
0.4349522044329883 0.12824030763449668 -2.0939814005522392 99 77 47
0.4390330330990727 0.1354333151847223 -2.0938188108000135 107 84 52
0.4414193134773613 0.13933813992772692 -2.096451408851034 106 82 52
0.44113620321649355 0.13805785694096945 -2.103535139469211 104 82 50
0.44214712189184385 0.13929081158867346 -2.1084640521010285 86 66 37
0.4421072377215586 0.13848070071108987 -2.1151628305415273 69 51 29
0.4429066003158919 0.13930118599216107 -2.12045841373168 60 43 26
0.4438212299538452 0.1403454108661772 -2.1255632291744266 53 36 19
0.4498131926769922 0.15126867253870901 -2.1220508622201817 49 32 16
0.45235361199359186 0.15547948036095993 -2.1243668829267395 47 30 15
0.4529960098250085 0.15599649578014718 -2.129911314969387 41 26 12
0.4540185534754833 0.15725319047882907 -2.134810348298165 36 22 8
0.45519932627712983 0.15881790842423898 -2.139439437574853 36 22 9
0.4561405246200435 0.1599157382497895 -2.1444818718229626 37 22 9
0.45341122174701404 0.15385855416472155 -2.1558739528413353 35 21 9
0.4572530229154209 0.16060928329417867 -2.1559106324229647 33 19 10
0.4583726547069641 0.1620537322202943 -2.1606553131293804 33 19 10
0.458318949911704 0.16120890411229588 -2.167448395541028 33 19 11
0.4666006334444756 0.17662970308362974 -2.1596661511107538 32 19 11
0.4684576072515935 0.17951672754083303 -2.163087737014078 33 20 12
0.4704115716548816 0.18259390839034007 -2.1663316719172037 34 21 13
0.4706622418627717 0.18234486765267116 -2.172575939197308 35 22 14
0.47236938565473197 0.18494053086015322 -2.1762503202970507 37 24 16
0.4738154276190013 0.18702645521760458 -2.1803833147491782 38 25 16
0.47393992008155533 0.1865288993345245 -2.18686897181292 38 26 15
0.4795412115523095 0.1967409867544498 -2.1835764308265317 40 27 16
0.4828596968936295 0.2024924653512522 -2.18432952704146 41 27 16
0.4844934528015236 0.2049496444860447 -2.1880894648843063 41 27 16
0.48542029648223717 0.20602357394771859 -2.1931197824789015 43 29 18
0.4871017191836778 0.20857469239651782 -2.196788017713615 44 30 19
0.4887731243136369 0.2111067611676562 -2.200469256573887 46 32 21
0.4900663685548315 0.21289847312136606 -2.2048336208606814 44 32 21
0.49146526093341353 0.21489735026955592 -2.209004158728132 43 31 19
0.49216363751266123 0.21552312534329726 -2.2144550234245592 43 30 21
0.49339248158413423 0.21718857730591745 -2.2189373383380673 45 32 23
0.49450149271626076 0.21861898784490574 -2.2236400584613367 46 33 24
0.5031714007129731 0.23488586482064822 -2.2143778160712233 49 36 25
0.5053278026295279 0.23837653526997526 -2.2171007085239767 52 40 28
0.5081231983624166 0.24312303066673852 -2.218625717446553 57 45 32
0.5077468200268719 0.24164179595056412 -2.2260440744639522 67 58 42
0.5071639432213859 0.2397529394474484 -2.2338657186395805 67 60 44
0.49568009956868614 0.21643803886885893 -2.2621426381453467 81 73 62
0.49713477132777617 0.21854384513699365 -2.2662330064949945 100 95 86
0.4988018846283908 0.2210677285624143 -2.2699200327667644 125 121 115
0.5005118983878937 0.22367656743743541 -2.273520820011634 151 149 146
0.5228824342150155 0.265453460285642 -2.251393749897034 189 189 193
0.25308861774589436 -0.14520975161786248 -1.5806742175878714 99 83 60
0.25792990182239145 -0.1367537107293995 -1.5814109141846269 95 79 56
0.2635169949194146 -0.1268861038404296 -1.5812880449043079 99 83 61
0.26852366756381774 -0.11811068470564295 -1.5817773567597873 101 84 62
0.27314618522756284 -0.11005748257180026 -1.582665996862479 102 86 63
0.27862836328393736 -0.10037671771638312 -1.5825592585251047 98 82 59
0.2840787512697782 -0.09075207486023706 -1.5824530064582885 96 80 57
0.2894973126886306 -0.08118365746535777 -1.5823475899879529 99 84 60
0.29424243859712557 -0.07288478205194104 -1.5829732445088496 103 87 66
0.299268547819636 -0.06405113382097805 -1.5832485569978747 103 87 65
0.3001677644973046 -0.0630217386000485 -1.588221535166249 114 97 72
0.305268448529532 -0.05404174998559208 -1.5883644749834664 116 99 72
0.31081729416421955 -0.04420978466053299 -1.587957322235941 116 97 67
0.3120075625332711 -0.042626056571863635 -1.592563850816246 119 100 68
0.31542268320466305 -0.03682886545738978 -1.5945832563912152 123 101 69
0.3243906307491336 -0.020510857624246037 -1.5901029701322826 124 100 69
0.3207304369969218 -0.028112992066848308 -1.6003495347086223 125 102 67
0.32361293361978094 -0.023319706522277217 -1.602945517452551 125 104 66
0.32907135679950117 -0.01364156719525289 -1.6024878745138573 123 101 66
0.3340756886179667 -0.00482042096866947 -1.602531698365107 107 84 52
0.3402616262811553 0.006245494015101549 -1.601138756959308 124 100 65
0.34636573903748824 0.017160949729968122 -1.5998007348503422 123 99 63
0.3506633351182601 0.02465298871266791 -1.6005830841600812 114 92 56
0.3548890339414792 0.032011542478401156 -1.6014251347796566 115 94 57
0.35749144959723544 0.03629104254441129 -1.6041981462145942 125 100 64
0.36094081082472773 0.04218033255099479 -1.6059342098410994 144 118 81
0.3643788223558628 0.04805024965727572 -1.6076645157738503 135 111 75
0.36692799583017 0.052233505008748626 -1.610458458161519 119 95 67
0.36810694901239926 0.05381392368152521 -1.6149162364746423 111 90 63
0.3729622699677972 0.06238321757069831 -1.6148621670162866 125 104 77
0.37567120704480494 0.06687470622150621 -1.6174196644509589 123 102 75
0.3769674667155727 0.06868077089646213 -1.6217098592914954 127 106 77
0.3791161204412159 0.07210862320605738 -1.6249417654813694 114 93 63
0.38548574536649316 0.08356984987941041 -1.6229113090016694 113 91 64
0.3879459335149231 0.08759467038118912 -1.6257185923748154 122 100 72
0.3901334396913374 0.09110157969954208 -1.6288563745052647 136 114 86
0.3926175541831308 0.09517436543351332 -1.6316121285083596 106 85 61
0.395020384620671 0.09909360416418911 -1.6344589160538923 95 77 55
0.34812230584373394 0.00427254146687317 -1.7426486700253272 90 73 53
0.353487122179638 0.013825432574131491 -1.7418349936850466 97 79 57
0.3429837232948431 -0.006924551097597709 -1.761719560882391 100 83 52
0.35436663539445384 0.01412580757297116 -1.7530116678689245 104 85 56
0.3488961370744874 0.002980764323133489 -1.7663866386208575 105 86 61
0.3477044517056298 7.63357746164095e-06 -1.774172886751395 106 88 62
0.351695284661921 0.006940706416175724 -1.7751154821477817 106 87 62
0.3514063239051506 0.005691724684703636 -1.7817219690028876 104 86 61
0.350945394644089 0.004112245618792365 -1.7885714994465116 108 90 65
0.3538463306148423 0.00896383836297282 -1.7909370690662698 106 88 64
0.35827970655330316 0.016750172958973353 -1.7912295425714564 97 79 55
0.3586907589132786 0.0168391455485159 -1.796912505062969 104 87 60
0.35952757773465877 0.017742629066351934 -1.8020272167630151 105 88 61
0.3569676092019438 0.012139188405951795 -1.8117533180968786 103 86 60
0.35993170477290365 0.017116026303211906 -1.8139951149012012 103 85 60
0.3620765645666555 0.02052456745977016 -1.8173397867907255 101 83 58
0.36574500694476614 0.026854818905972466 -1.8185882190165448 98 81 55
0.3680434964187802 0.030560637026946058 -1.8216976794683095 100 81 56
0.3703303098229528 0.03424517325781534 -1.824813296656792 101 82 56
0.37190926198636975 0.036572723308080646 -1.8288988161832218 99 82 56
0.3719959809780483 0.033922714773101104 -1.8539448078718894 103 83 56
0.37408090299040014 0.037220958406598115 -1.85733046123123 102 83 53
0.37387736450163855 0.036122360741057735 -1.8639393934177513 99 80 51
0.3755601447388532 0.03864820580825168 -1.8678893129757013 96 76 49
0.37818785460370064 0.04299139935934304 -1.870491810992023 93 73 46
0.3795380537241855 0.04487906322347196 -1.874902929636758 93 73 46
0.3813569531388603 0.04766855112883556 -1.878642220992454 95 75 48
0.38324485286614746 0.05059144987816089 -1.8822768211728684 92 72 45
0.3830079044816991 0.049425022219552195 -1.8889653296057172 87 67 40
0.3831741968197064 0.04903344866552933 -1.8950849490705441 89 69 44
0.38265017930412265 0.04731127758554432 -1.902215274390865 90 70 45
0.3833370606838669 0.0479199878784165 -1.9076010130527798 89 69 43
0.383835921426034 0.04816581574359663 -1.9132662009020533 84 64 37
0.3848606006296643 0.04942439386745878 -1.9181685265131823 71 53 27
0.3871073678446702 0.05303900356834618 -1.9212778689762333 70 52 27
0.38950554249745956 0.05694670920223188 -1.9241543384590853 77 60 33
0.391481987080373 0.060042106811938056 -1.9276429860743014 81 64 36
0.39434135344811005 0.06484204955753103 -1.929814961445703 83 64 34
0.39464099878041786 0.06470299704933985 -1.9357797385988116 83 64 34
0.3990564250054114 0.07250942478215633 -1.9356097897499263 80 61 31
0.399756337356772 0.07314363250379557 -1.9409730560116614 80 62 34
0.4000036871714272 0.07290301369662922 -1.9470212344770639 81 64 36
0.4020522826393482 0.07614198886623424 -1.95036399696647 82 65 37
0.4032602962169595 0.07775710551146625 -1.9549697066091662 82 62 35
0.4028554182375343 0.07625377893519436 -1.9620221116694379 83 63 36
0.40414908368118935 0.07803364367267435 -1.96650553419987 81 61 34
0.40456963829128983 0.0781245276621284 -1.9723211680386892 79 59 32
0.4062521929441246 0.08065660759301302 -1.9762118204220465 79 58 30
0.4075163409383935 0.08237931439952167 -1.9807408012598378 81 60 31
0.4083480165239435 0.0832647267552466 -1.9859359342629248 81 60 31
0.4090531495252872 0.08390463357805517 -1.9913305506760617 81 60 31
0.40882163509006697 0.08272942716378534 -1.9981831386885942 84 63 34
0.4099674124103548 0.08422157299598299 -2.0029068500475327 83 62 33
0.40914649113566176 0.08190142152842439 -2.010701414810364 86 65 36
0.4100324003666478 0.08288844077315466 -2.0158433277488825 87 65 37
0.4113750125715641 0.08476085559563284 -2.020271139241546 86 65 34
0.4111799848171033 0.08365030817984681 -2.0271209742822562 88 69 37
0.41247343321529834 0.08542672177128474 -2.0316318142478065 98 75 43
0.4142952206292412 0.08822880248218973 -2.035304095130186 111 86 46
0.4167339991480957 0.09222957445205782 -2.037988860642612 152 123 77
0.41925193514525205 0.09638545224492728 -2.040535149872831 151 122 76
0.421452041430855 0.09992528931695083 -2.04357727521707 145 123 79
0.42343767482237127 0.10304941774096521 -2.046954007677902 111 91 50
0.4255835439683176 0.10648589986903845 -2.050064917890899 91 71 36
0.42751859862152575 0.10951349008899702 -2.0535071783582994 84 63 32
0.4306341620779391 0.11483809417372998 -2.05502854479507 85 64 34
0.4324182965912532 0.11757433206568196 -2.058695777709793 85 64 32
0.4289772116866632 0.11014172156050617 -2.070880596809638 83 63 30
0.4263575376136219 0.10430293620213149 -2.081768707694367 81 61 28
0.42464707883376557 0.10023035285214188 -2.0912035796818635 81 60 28
0.4263384211342423 0.10278092773011027 -2.09506745814284 83 62 34
0.430593453879225 0.11032741791737788 -2.0946924774885782 76 55 28
0.43530159820324543 0.11876053097619049 -2.0935358301946696 89 67 37
0.4398067825272923 0.12680194020828012 -2.0926807307627033 111 88 57
0.4433379659936401 0.1329475953485295 -2.093415503531613 111 88 57
0.4451693632208742 0.1357799525464104 -2.096968692617006 106 83 51
0.4469670473952176 0.13854723273418224 -2.100572080861599 100 76 45
0.4458770793850266 0.1356785823387585 -2.109027752928287 79 58 30
0.44573776400246407 0.13466345438305571 -2.115902960126553 72 52 28
0.4461669333593479 0.13475707442193763 -2.1218299099800912 68 48 27
0.44709251318945176 0.1358196178966561 -2.1269221598758987 64 46 24
0.452462805773514 0.14556808764542728 -2.124447179422753 63 43 25
0.45406300599262506 0.14795134027752532 -2.128369823432299 60 41 24
0.4584159553907692 0.15571793794586763 -2.127571174869915 54 37 19
0.45983094679738085 0.1577414281337709 -2.1317897022121612 49 31 14
0.46007214748988823 0.15746847636655026 -2.1380298870328325 47 30 14
0.46028155009260086 0.15713214597515407 -2.144335273841119 44 28 13
0.45889407906023616 0.1536682521331323 -2.153421285124432 40 26 11
0.46066978988227464 0.15639607205266848 -2.157030984199302 36 23 12
0.4619679780962316 0.15818908921400526 -2.1614681589358433 33 21 11
0.4675229394739101 0.1683237277719543 -2.158452828733184 34 20 12
0.4618631617224919 0.15648058508438073 -2.175082766537043 33 19 11
0.4692869051776963 0.17028314107586684 -2.1687435833976103 32 19 11
0.4707149713458546 0.1723333315464422 -2.172929580259429 32 19 12
0.47272646927046175 0.17552845650646876 -2.176079530388235 34 21 13
0.47446150915514146 0.17818197021168736 -2.1797122439988654 34 21 13
0.4760816775048427 0.18061059977392752 -2.183544107107423 36 23 15
0.4775965062029165 0.18283285833469987 -2.187559912003513 37 24 15
0.4826311284339741 0.19196967315608082 -2.1852604183344218 37 24 15
0.48378363658782225 0.19348283806503053 -2.189902386847065 38 25 16
0.485359432258226 0.19582794385852897 -2.1937812909790075 38 25 16
0.4880473542875183 0.2003601456624458 -2.1956438062489734 41 28 19
0.4901282015638111 0.20370015490498317 -2.1985920441470443 44 31 22
0.4909103017003616 0.2044860716362472 -2.2038949427478456 45 32 23
0.49055089567762916 0.20302497723555107 -2.211286594874315 45 32 23
0.4919103581223726 0.20494577585454593 -2.2155476209654617 42 29 20
0.49519103104704826 0.2106500745129744 -2.216278243281806 40 27 18
0.4963905004404765 0.21225726523448007 -2.2208201234389 45 31 22
0.5078087463098403 0.2340001449579845 -2.206481001343134 49 35 25
0.5077181231285803 0.23307074230288177 -2.21335756911819 50 37 26
0.5113626699607983 0.23950436127506958 -2.2133057712609943 50 38 28
0.5117632294880413 0.23954285870036052 -2.219274396338077 59 48 39
0.5095373277714133 0.23439855560116474 -2.2301625698894996 62 54 43
0.4939034914259309 0.20278880155661805 -2.2662322236965 69 63 51
0.4969320714087054 0.20800091472697313 -2.267387943970777 88 81 72
0.5000552423743259 0.21340208568039942 -2.268345032226809 112 106 99
0.5020857632455193 0.21664720289885647 -2.2713480652187745 136 134 129
0.5195787042243128 0.2481728034451342 -2.2653289478885568 192 193 195
0.18940111150744243 -0.2682456043091479 -1.5799873727979783 124 104 75
0.23754871221884233 -0.18351875482557678 -1.5839899405386244 120 101 72
0.24376114507613844 -0.1724519269640427 -1.5833189504378344 112 94 66
0.24956345605649655 -0.16215732486277068 -1.5830595178008786 113 94 67
0.2555306306859118 -0.15154608692918708 -1.5825798556594637 113 93 67
0.2605454508594584 -0.14273529397396828 -1.5831197448368817 110 91 65
0.2657711192296826 -0.13352126001579379 -1.5833930821374929 110 90 66
0.27075236384974555 -0.12476692721157095 -1.5839070354074403 113 95 69
0.2754688393154317 -0.11651121981225082 -1.584687450871321 117 100 73
0.28072649278563766 -0.1072255698310447 -1.5848282131272404 114 96 70
0.28620390676701346 -0.09751910101299233 -1.5846864524550683 107 90 64
0.2916240446481752 -0.08791731018468285 -1.5845742215705527 105 88 64
0.2963708632076705 -0.0795898226999921 -1.585194989961879 114 97 75
0.30124989242074535 -0.07100791462829115 -1.5856347561530924 109 92 68
0.30409324959356926 -0.06628916904792337 -1.588383358205747 111 93 66
0.3083109725994978 -0.058957677371814954 -1.589532890111872 124 105 75
0.31376892818948804 -0.04926636568735143 -1.589221167373568 120 100 69
0.31469142409888234 -0.048192379310440014 -1.5941437742800117 116 96 63
0.3223612072987658 -0.0342895949289318 -1.5911998045651283 120 97 64
0.3265097955976565 -0.027077375097461998 -1.5923225362333087 125 100 67
0.3306412291935727 -0.019894951560471996 -1.5934403894588167 126 103 67
0.32507859080518975 -0.031155750229676427 -1.6059629700893714 119 98 60
0.3318256391529591 -0.018994055260460718 -1.603977211234916 128 106 68
0.3380266732573149 -0.00786648084994801 -1.6025924863187326 115 93 56
0.3440500053658677 0.002927557795730673 -1.6013767132694305 124 100 63
0.34846196054309997 0.010657005228060068 -1.6020470082698222 133 104 70
0.35176450526532244 0.016275885801394108 -1.6040214688789636 127 102 66
0.3563644049609328 0.02436924510677302 -1.6044147057593037 119 98 61
0.35970389961098803 0.030063321348662353 -1.6063024952354465 137 111 72
0.3635412357540161 0.03670874919314249 -1.6075675850560525 153 125 86
0.36632433152488025 0.04134612246641617 -1.6100935483604766 126 103 69
0.36981155162146595 0.047328326886864724 -1.611745120232924 117 97 69
0.37197255136611496 0.05078211445527775 -1.615003239041376 123 102 75
0.3768347019338004 0.059392525131990004 -1.6149281776077218 121 100 73
0.3783176977022236 0.06155514960590125 -1.618994908532003 120 99 72
0.37979996871806565 0.06371669126060053 -1.6230598807078365 121 99 72
0.38673540309756593 0.0762950372329475 -1.6203387396039288 119 95 67
0.3887356891895533 0.07944965271667537 -1.623727803423233 127 104 76
0.39166170612886964 0.08437432298756264 -1.6259499063876677 135 112 81
0.39283062589367346 0.08594175152855094 -1.6303654795677678 107 86 58
0.3951208006023883 0.08965320913832026 -1.633366558213988 100 81 59
0.39719698234305806 0.092956489307711 -1.6366286565939259 94 77 57
0.39282442000432916 0.08392310879404369 -1.6480751723914007 113 97 77
0.34076969735542795 -0.021280835057293113 -1.7637282200998283 105 85 58
0.34266684324080576 -0.018349994648010848 -1.7674816283346078 105 86 55
0.3446474838825455 -0.015258308463184322 -1.7711192113586316 106 86 58
0.351392717390033 -0.0030237753029242476 -1.7684626214180674 108 90 65
0.3495964057850431 -0.0071770795125296605 -1.7770662227896594 109 92 68
0.3505156232793642 -0.006120268175831056 -1.7820891692155314 110 93 68
0.3486718266065408 -0.01036957011456796 -1.7907985283270798 111 94 69
0.3522859468146328 -0.004138420425655376 -1.7922345207585568 106 88 65
0.35580264923574517 0.001908021300673135 -1.7937795477677554 91 74 48
0.3582515661755958 0.005904716824255474 -1.7967418297495938 101 84 56
0.3583429575777262 0.005370667613032565 -1.8028789387903077 104 87 59
0.35826419320453995 0.004508254554281443 -1.8092571428140807 102 85 59
0.35751557553908225 0.0023560911708735977 -1.816558694821464 102 84 59
0.35746194949211274 0.0015389798702652446 -1.8229295937364633 99 81 57
0.36278640579770444 0.011070340091900277 -1.821945446574454 100 83 57
0.36620432844369866 0.016935972696034918 -1.8235438613905077 101 84 58
0.366768174337718 0.017308410493464377 -1.8290578388676182 103 84 59
0.36448241961773736 0.012191788690368577 -1.8385207558928887 101 82 56
0.3694914247273874 0.02112511616548146 -1.8378890136686057 99 82 56
0.3746916771899643 0.030430973183767918 -1.8369557398468426 99 82 56
0.3746765792104371 0.028256236163157922 -1.8559035793554974 103 83 57
0.3804244367282321 0.038627092707337995 -1.8541217126980238 102 82 55
0.37876527683173006 0.03470934536070841 -1.862787818783883 102 82 54
0.37847862073097693 0.03343780253208223 -1.8695306578465147 100 80 53
0.3805295455892837 0.03667800102231106 -1.8729550486750615 98 78 51
0.38197384665115364 0.0387475047619944 -1.8772393398891993 98 78 51
0.38430933669833683 0.042538887570673756 -1.8802425769551772 97 77 50
0.38521637503994316 0.04357114859960065 -1.8852920173093937 97 77 50
0.38482663012042323 0.042096493982271554 -1.8922177309390107 95 75 48
0.3853508618925062 0.04238724205474764 -1.897834087029445 94 74 49
0.3872551785538242 0.04534631832726338 -1.9014503311350643 92 72 47
0.38883740251220333 0.04768303009221658 -1.9055299657093152 92 72 46
0.38949091245300477 0.04822299657340812 -1.910965444470636 91 71 44
0.3893757857741957 0.04727455777320788 -1.9175350225171803 88 67 40
0.39169617246281996 0.05104021895367744 -1.920529451200053 90 69 41
0.39123476738553925 0.049419555519416625 -1.9276248009693133 93 72 43
0.39428507446873534 0.054600130579963935 -1.9295292035920772 93 72 41
0.39735625267442115 0.059823143773155674 -1.9313849681339887 86 67 37
0.3988407458860847 0.061972635081978034 -1.9355909161192018 85 66 36
0.4005816285763972 0.06461952728159809 -1.9394104318294108 86 67 37
0.40072577519661573 0.0641702122066129 -1.9456233847344857 85 66 38
0.40145829086204193 0.06486114519018965 -1.95096012886031 84 67 39
0.4037466406051092 0.06857070416698313 -1.953949475379532 83 66 38
0.4041893045510235 0.0686987873917922 -1.9597277740946646 83 63 36
0.4049216096724801 0.06938839156925963 -1.9650729539725906 82 62 35
0.40700046314384 0.07269272447271508 -1.9683674606420993 81 61 34
0.40869444279125694 0.07525029203520028 -1.9722429534068828 80 60 33
0.4097342405864777 0.07653710447946033 -1.9771188019840598 79 58 31
0.41064452825298986 0.07757196434094282 -1.9821960262437945 83 62 33
0.41190936863046507 0.07929588053905412 -1.9867281328542186 80 59 30
0.4128741838574689 0.0804362999767595 -1.9917251576392396 83 62 33
0.41277522467236843 0.07950680629041729 -1.99837992669922 89 68 39
0.41130549629357815 0.07590816124737892 -2.0071874477651224 88 67 38
0.4103595713340065 0.07332616221975685 -2.015201460877726 89 68 39
0.41292220660611134 0.07757371491679887 -2.0177255861537997 86 65 35
0.41387795679824646 0.07869288245848183 -2.0227686077374694 87 67 36
0.4144427502921978 0.07905001745651147 -2.028432359973019 95 76 43
0.4161690873622675 0.08167017448683545 -2.0322607117476297 101 79 40
0.41781897352872915 0.08414185773020755 -2.03620567983576 145 117 71
0.4204887190830646 0.08860282020196841 -2.0385188497053477 156 125 77
0.4227349965800845 0.09223939458453467 -2.041495425475101 148 119 73
0.42393268361207465 0.09383111471866112 -2.046145657722778 131 107 67
0.42623436674899084 0.09757756585253008 -2.049017655152242 101 81 46
0.42741523296094325 0.09913701934971775 -2.053690010473732 92 72 40
0.4302720219668763 0.10396938464785022 -2.0556459823068143 87 66 35
0.43407553868966275 0.11065306727606955 -2.0560458456729993 86 65 34
0.4310655545527209 0.10402559213768231 -2.0675338874009936 87 66 34
0.4296043111520679 0.10042049370181144 -2.076530749048136 86 66 33
0.42973783026053197 0.09993042918637973 -2.082937303783043 84 64 31
0.42938369939962157 0.09848534561239286 -2.0901579558909305 85 65 32
0.4315089172505836 0.10188901789320148 -2.0932997387464973 83 63 31
0.4358688684807624 0.10966706071657367 -2.0927298081580585 84 62 31
0.44016124119559047 0.1173164667328761 -2.09223997171981 107 85 54
0.4440040924622827 0.12408922803295891 -2.0924679151910657 109 86 55
0.4468835159740483 0.12897796175203702 -2.094279888242066 112 89 58
0.4487461263242474 0.13187638353067033 -2.0977803079228234 114 90 59
0.44982156084688907 0.13323277464797928 -2.102598539595409 97 73 41
0.45050047797752235 0.13381163073099972 -2.108087471007563 83 61 30
0.44906378514812506 0.13024096832935245 -2.1171637022093583 77 55 28
0.44738454427092034 0.12619137146692344 -2.1266794791107877 73 51 25
0.4485050796005425 0.12763224558274028 -2.13145631670621 73 50 25
0.45626633483287404 0.14210778577795719 -2.124887536131972 72 48 25
0.4579651000688931 0.14468768986185637 -2.1286406803680604 69 46 24
0.45877651565412836 0.14552537253573677 -2.1339142353831475 65 45 22
0.461071506465711 0.14927726894726184 -2.1366337606500556 59 39 17
0.46410361547543777 0.1544790693085134 -2.1380669383491435 59 40 19
0.4660975725624469 0.15764220573754045 -2.1412820693059085 55 36 18
0.466521003180551 0.1577179346062435 -2.1472220366693175 47 30 14
0.46796426465472124 0.1597987631371679 -2.1513902077754845 42 26 13
0.4691079657304938 0.16129044123812797 -2.1560804211660747 38 23 13
0.4710649180614991 0.16438271361556311 -2.159343158225021 36 21 13
0.47229174233583676 0.16603837311644815 -2.163884088459359 34 21 13
0.4758738407063945 0.17233265665065456 -2.1642634478096423 33 20 12
0.47830895698153575 0.1763701904199917 -2.1666501232733864 34 21 13
0.4764666552785119 0.17197983595057842 -2.176627043472813 33 20 12
0.47882931764286385 0.1758749210702803 -2.1791395635220505 34 21 13
0.4812752597168503 0.17993562933370988 -2.1814907609982552 35 22 14
0.48206921896823884 0.18073931140833144 -2.1867918167448903 36 23 14
0.4847169533438784 0.18520019250250602 -2.188762202310678 37 24 15
0.4852183254202666 0.1854265057590221 -2.1945901969570154 37 24 15
0.4864410841733864 0.18707621334581231 -2.1991201835732026 39 26 17
0.4884757917565207 0.1903295028183642 -2.2021760146257594 43 30 21
0.4901185097343398 0.19280940671544033 -2.205936602601632 44 31 22
0.49110725493508145 0.19399747086512564 -2.2108867976620803 45 32 23
