ply
format ascii 1.0
element vertex 842
property float x
property float y
property float z
property float nx
property float ny
property float nz
property uchar diffuse_red
property uchar diffuse_green
property uchar diffuse_blue
property uchar class
property uchar detection
end_header
0.1604 -0.0022 -1.2237 0.557 -0.623 0.550 133 109 74 0 0
0.1431 -0.0871 -1.3878 -0.167 -0.793 0.586 129 104 73 0 0
0.1388 -0.1073 -1.3990 0.040 -0.626 0.779 93 73 46 0 0
0.1375 -0.1136 -1.4063 0.058 -0.792 0.608 129 105 70 0 0
0.1186 -0.2033 -1.5016 -0.154 -0.957 0.245 156 124 81 0 0
0.1040 -0.2728 -1.5891 0.271 -0.092 0.958 145 113 69 0 0
0.0935 -0.3211 -1.5972 0.294 -0.947 0.133 152 124 83 0 0
0.0902 -0.3362 -1.5986 -0.123 -0.869 0.479 146 121 82 0 0
0.0895 -0.3393 -1.6019 -0.256 -0.932 0.256 104 77 41 0 0
0.0893 -0.3405 -1.6064 -0.230 -0.938 0.260 109 84 49 0 0
0.1033 -0.2803 -1.7085 -0.433 -0.898 0.075 105 86 47 0 0
0.1031 -0.2812 -1.7134 -0.398 -0.917 0.033 124 103 58 0 0
0.1018 -0.2887 -1.7525 0.434 -0.881 0.190 131 108 66 0 0
0.1007 -0.2942 -1.7655 -0.258 -0.923 0.284 101 78 36 0 0
0.0963 -0.3164 -1.8173 0.190 -0.916 0.354 91 68 34 0 0
0.0918 -0.3384 -1.8636 0.105 -0.628 0.771 83 62 31 0 0
0.0858 -0.3705 -1.9883 -0.156 -0.986 0.050 83 62 31 0 0
0.0791 -0.4034 -2.0555 -0.179 -0.871 0.457 87 66 35 0 0
0.0764 -0.4167 -2.0858 -0.131 -0.947 0.294 86 63 30 0 0
0.1739 0.0914 -0.9326 0.518 -0.539 0.664 180 180 181 0 0
0.1728 0.0863 -0.9359 0.518 -0.539 0.664 180 181 179 0 0
0.1676 0.0611 -0.9766 0.253 -0.850 0.462 107 87 50 0 0
0.1657 0.0483 -1.0959 0.020 -0.952 0.304 87 63 28 0 0
0.1585 0.0119 -1.2085 0.172 -0.879 0.444 115 94 61 0 0
0.1569 0.0040 -1.2156 0.220 -0.575 0.788 126 100 67 0 0
0.1559 -0.0008 -1.2187 0.220 -0.575 0.788 109 83 52 0 0
0.1522 -0.0177 -1.2271 0.638 -0.529 0.559 124 102 67 0 0
0.1514 -0.0218 -1.2305 0.687 -0.527 0.501 127 109 78 0 0
0.1333 -0.1106 -1.4022 0.030 -0.794 0.607 111 91 61 0 0
0.1150 -0.1974 -1.4939 -0.098 -0.759 0.643 127 101 62 0 0
0.1138 -0.2033 -1.5012 0.082 -0.841 0.534 148 115 71 0 0
0.1130 -0.2073 -1.5043 0.026 -0.662 0.749 115 89 49 0 0
0.0886 -0.3222 -1.5960 0.461 -0.843 0.277 142 115 72 0 0
0.0885 -0.3226 -1.6011 0.357 -0.869 0.342 158 134 92 0 0
0.0851 -0.3383 -1.6020 -0.272 -0.862 0.428 114 85 51 0 0
0.0970 -0.2883 -1.7411 0.208 -0.937 0.282 107 85 47 0 0
0.0902 -0.3233 -1.8568 -0.065 -0.952 0.300 86 66 33 0 0
0.0836 -0.3545 -1.8740 -0.124 -0.847 0.516 82 61 28 0 0
0.0580 -0.4822 -2.1833 -0.137 -0.715 0.685 105 81 37 0 0
0.0531 -0.5052 -2.2046 -0.088 -0.881 0.465 123 100 51 0 0
0.0452 -0.5426 -2.2303 -0.195 -0.979 -0.053 106 90 41 0 0
0.1667 0.0803 -0.9338 0.505 -0.590 0.630 171 165 155 0 0
0.1651 0.0730 -0.9363 0.021 -0.995 0.097 145 129 106 0 0
0.1650 0.0723 -0.9410 -0.008 -0.991 0.135 151 127 90 0 0
0.1647 0.0708 -0.9454 0.059 -0.975 0.216 163 136 91 0 0
0.1644 0.0693 -0.9497 0.071 -0.879 0.472 167 139 94 0 0
0.1605 0.0500 -0.9922 0.116 -0.932 0.343 84 63 33 0 0
0.1602 0.0484 -0.9966 0.116 -0.932 0.343 91 68 33 0 0
0.1601 0.0480 -1.0013 -0.002 -0.975 0.220 96 74 36 0 0
0.1600 0.0473 -1.0060 -0.098 -0.965 0.245 86 63 30 0 0
0.1598 0.0462 -1.0105 -0.098 -0.965 0.245 89 66 34 0 0
0.1615 0.0508 -1.1266 -0.092 -0.889 0.449 83 60 27 0 0
0.1196 -0.1520 -1.4228 -0.065 -0.861 0.505 175 143 97 0 0
0.1090 -0.2033 -1.5007 -0.153 -0.891 0.427 145 113 68 0 0
0.1082 -0.2072 -1.5038 -0.144 -0.669 0.729 126 98 54 0 0
0.1076 -0.2101 -1.5075 -0.137 -0.799 0.586 121 91 46 0 0
0.0916 -0.2905 -1.7118 0.010 -0.979 0.203 117 96 61 0 0
0.0914 -0.2915 -1.7166 0.019 -0.977 0.212 106 85 48 0 0
0.0861 -0.3169 -1.7438 -0.063 -0.984 0.166 108 84 41 0 0
0.0870 -0.3137 -1.7846 0.013 -0.697 0.717 115 94 51 0 0
0.0865 -0.3163 -1.7883 0.149 -0.985 0.084 114 92 50 0 0
0.0387 -0.5514 -2.2573 0.239 -0.963 0.128 85 73 49 0 0
0.1614 0.0780 -0.9327 0.138 -0.728 0.671 145 130 107 0 0
0.1604 0.0731 -0.9506 -0.443 -0.878 0.184 172 145 97 0 0
0.1559 0.0508 -0.9922 -0.162 -0.935 0.315 86 65 33 0 0
0.1556 0.0494 -0.9966 -0.273 -0.913 0.302 80 57 26 0 0
0.1553 0.0480 -1.0010 -0.273 -0.913 0.302 87 64 33 0 0
0.1546 0.0439 -1.0241 0.183 -0.848 0.496 107 84 50 0 0
0.1550 0.0438 -1.0985 0.198 -0.877 0.439 99 77 40 0 0
0.1556 0.0450 -1.1444 -0.368 -0.819 0.440 84 62 28 0 0
0.1547 0.0403 -1.1731 -0.105 -0.850 0.517 95 73 36 0 0
0.0762 -0.3366 -1.5968 -0.197 -0.783 0.590 158 133 92 0 0
0.0755 -0.3398 -1.6001 -0.206 -0.899 0.386 125 99 61 0 0
0.0831 -0.3098 -1.7865 -0.090 -0.986 0.142 105 84 39 0 0
0.0829 -0.3110 -1.7913 -0.261 -0.964 0.041 119 97 55 0 0
0.0836 -0.3079 -1.7990 -0.090 -0.947 -0.308 89 66 31 0 0
0.0808 -0.3224 -1.8505 -0.189 -0.981 0.044 82 61 30 0 0
0.0810 -0.3214 -1.8569 -0.409 -0.900 0.149 84 62 31 0 0
0.1568 0.0792 -0.9280 0.251 -0.653 0.715 139 125 106 0 0
0.1549 0.0702 -0.9348 0.296 -0.849 0.438 161 133 91 0 0
0.1545 0.0681 -0.9391 0.296 -0.932 0.206 153 124 82 0 0
0.1547 0.0687 -0.9537 -0.223 -0.964 0.148 110 87 47 0 0
0.1516 0.0535 -0.9781 -0.207 -0.922 0.328 111 90 49 0 0
0.1502 0.0464 -1.0099 0.047 -0.960 0.277 93 70 39 0 0
0.1535 0.0602 -1.0640 0.072 -0.796 0.601 92 69 36 0 0
0.1500 0.0419 -1.1478 0.079 -0.945 0.318 90 70 35 0 0
0.1502 0.0422 -1.1683 -0.181 -0.857 0.483 87 65 28 0 0
0.1294 -0.0603 -1.3621 0.313 -0.577 0.754 111 94 68 0 0
0.0976 -0.2128 -1.5103 -0.211 -0.891 0.403 109 79 36 0 0
0.0819 -0.2913 -1.7101 0.003 -0.972 0.236 103 83 44 0 0
0.0756 -0.3235 -1.8268 -0.199 -0.943 0.268 82 59 28 0 0
0.0731 -0.3358 -1.8517 -0.091 -0.866 0.492 81 58 27 0 0
0.0729 -0.3367 -1.8567 -0.059 -0.760 0.648 82 59 28 0 0
0.0728 -0.3374 -1.8619 -0.215 -0.853 0.476 82 59 28 0 0
0.0732 -0.3359 -1.8742 -0.065 -0.979 0.193 79 58 27 0 0
0.0544 -0.4291 -2.0787 -0.149 -0.820 0.553 97 73 34 0 0
0.0539 -0.4315 -2.0825 -0.085 -0.937 0.338 90 67 28 0 0
0.0443 -0.4790 -2.1780 0.085 -0.865 0.495 112 88 44 0 0
0.0399 -0.5001 -2.2070 -0.168 -0.736 0.656 121 97 49 0 0
0.0396 -0.5020 -2.2113 -0.167 -0.692 0.702 121 97 47 0 0
0.0296 -0.5495 -2.2575 -0.118 -0.988 0.098 84 73 45 0 0
0.1532 0.0845 -0.9244 0.472 -0.366 0.802 139 128 110 0 0
0.1518 0.0780 -0.9273 0.251 -0.653 0.715 141 120 87 0 0
0.1497 0.0675 -0.9482 0.021 -0.874 0.485 138 113 71 0 0
0.1498 0.0679 -0.9532 -0.009 -0.956 0.292 105 80 42 0 0
0.1473 0.0563 -0.9592 0.213 -0.903 0.374 91 65 31 0 0
0.1460 0.0491 -0.9909 -0.139 -0.990 0.004 73 52 25 0 0
0.1458 0.0478 -1.0052 0.023 -0.997 0.077 78 55 23 0 0
0.1454 0.0462 -1.0095 0.047 -0.960 0.277 81 58 27 0 0
0.1437 0.0344 -1.1853 -0.104 -0.883 0.458 95 76 41 0 0
0.1242 -0.0617 -1.3610 0.453 -0.454 0.767 99 82 57 0 0
0.0896 -0.2282 -1.5171 0.216 -0.742 0.635 115 90 48 0 0
0.0888 -0.2322 -1.5254 0.211 -0.895 0.393 127 100 61 0 0
0.0884 -0.2341 -1.5295 0.211 -0.895 0.393 112 85 40 0 0
0.0687 -0.3339 -1.8525 -0.045 -0.830 0.556 80 57 26 0 0
0.0684 -0.3357 -1.8568 0.001 -0.914 0.405 81 58 27 0 0
0.0681 -0.3369 -1.8616 -0.111 -0.967 0.231 82 59 28 0 0
0.0679 -0.3381 -1.8664 -0.111 -0.967 0.231 84 61 30 0 0
0.0493 -0.4309 -2.0999 -0.278 -0.848 0.451 84 61 29 0 0
0.0484 -0.4355 -2.1138 0.009 -0.961 0.275 86 63 29 0 0
0.0481 -0.4369 -2.1186 0.009 -0.961 0.275 86 64 30 0 0
0.0250 -0.5489 -2.2573 -0.118 -0.988 0.098 83 71 43 0 0
0.1468 0.0770 -0.9267 0.359 -0.695 0.623 146 122 83 0 0
0.1418 0.0529 -0.9385 -0.059 -0.757 0.651 133 106 62 0 0
0.1413 0.0497 -0.9908 -0.139 -0.990 0.004 84 60 27 0 0
0.1410 0.0482 -1.0049 -0.108 -0.985 0.137 103 80 45 0 0
0.1406 0.0461 -1.0091 0.047 -0.960 0.277 96 73 40 0 0
0.1399 0.0404 -1.1213 -0.065 -0.945 0.319 93 70 37 0 0
0.1396 0.0389 -1.1308 0.032 -0.865 0.501 89 66 33 0 0
0.1200 -0.0586 -1.3568 0.188 -0.479 0.857 112 95 71 0 0
0.0996 -0.1567 -1.4186 0.212 -0.756 0.619 164 136 92 0 0
0.0896 -0.2051 -1.4820 -0.334 -0.608 0.721 117 87 51 0 0
0.0877 -0.2142 -1.4928 -0.037 -0.820 0.571 135 105 65 0 0
0.0567 -0.3637 -1.6204 -0.125 -0.919 0.373 97 74 36 0 0
0.0707 -0.3003 -1.7635 -0.177 -0.830 0.529 89 67 30 0 0
0.0700 -0.3034 -1.7669 0.092 -0.894 0.439 91 69 32 0 0
0.0690 -0.3082 -1.7693 0.141 -0.964 0.225 88 66 29 0 0
0.0527 -0.3893 -1.9584 0.037 -0.803 0.595 83 62 31 0 0
0.0446 -0.4306 -2.0995 -0.004 -0.931 0.365 85 62 30 0 0
0.1569 0.1479 -0.9184 0.497 -0.107 0.861 178 178 181 0 0
0.1361 0.0473 -0.9994 0.201 -0.915 0.351 101 80 42 0 0
0.1357 0.0456 -1.0038 0.201 -0.915 0.351 96 73 38 0 0
0.1352 0.0431 -1.0078 0.271 -0.923 0.275 92 69 36 0 0
0.1352 0.0413 -1.1213 -0.200 -0.950 0.241 87 63 34 0 0
0.1350 0.0402 -1.1259 -0.200 -0.950 0.241 89 66 34 0 0
0.1343 0.0367 -1.1296 -0.062 -0.959 0.277 92 70 36 0 0
0.1343 0.0365 -1.1346 -0.184 -0.982 0.044 96 74 37 0 0
0.1360 0.0444 -1.1477 -0.010 -0.937 0.350 89 69 37 0 0
0.0946 -0.1578 -1.4280 -0.236 -0.892 0.386 173 142 95 0 0
0.0940 -0.1606 -1.4318 -0.169 -0.965 0.202 154 125 83 0 0
0.0816 -0.2211 -1.4938 -0.310 -0.720 0.621 124 92 47 0 0
0.0795 -0.2315 -1.5143 0.051 -0.818 0.572 117 87 45 0 0
0.0792 -0.2328 -1.5188 0.049 -0.874 0.484 101 74 41 0 0
0.0788 -0.2350 -1.5228 0.049 -0.874 0.484 107 83 49 0 0
0.0655 -0.2995 -1.5855 0.188 -0.208 0.960 133 107 67 0 0
0.0550 -0.3496 -1.6077 -0.032 -0.847 0.530 88 64 26 0 0
0.0663 -0.2983 -1.7643 0.206 -0.879 0.430 94 72 35 0 0
0.0652 -0.3036 -1.7663 0.092 -0.894 0.439 89 67 30 0 0
0.0588 -0.3363 -1.8721 -0.201 -0.880 0.429 82 58 27 0 0
0.0583 -0.3383 -1.8763 -0.210 -0.897 0.388 78 54 23 0 0
0.0529 -0.3651 -1.9191 -0.335 -0.852 0.403 80 57 26 0 0
0.0526 -0.3664 -1.9238 -0.079 -0.943 0.323 72 49 18 0 0
0.0436 -0.4119 -2.0614 -0.337 -0.939 0.075 78 57 26 0 0
0.0389 -0.4347 -2.1071 0.038 -0.905 0.423 84 61 27 0 0
0.0161 -0.5459 -2.2466 -0.036 -0.790 0.612 98 82 40 0 0
0.0156 -0.5486 -2.2501 -0.036 -0.790 0.612 85 70 38 0 0
0.0155 -0.5490 -2.2556 0.078 -0.973 0.218 84 70 42 0 0
0.1297 0.0402 -0.9725 0.184 -0.887 0.425 95 72 37 0 0
0.1304 0.0413 -1.1259 -0.208 -0.960 0.188 84 60 32 0 0
0.1240 0.0091 -1.2149 0.263 -0.877 0.402 116 90 56 0 0
0.1167 -0.0257 -1.2209 0.154 -0.652 0.742 131 101 58 0 0
0.1085 -0.0654 -1.2145 0.569 -0.675 0.471 140 116 80 0 0
0.1123 -0.0485 -1.3502 0.038 -0.690 0.723 106 91 70 0 0
0.0990 -0.1130 -1.3770 -0.269 -0.720 0.640 100 81 50 0 0
0.0984 -0.1158 -1.3808 -0.238 -0.891 0.387 122 96 58 0 0
0.0970 -0.1227 -1.3827 0.179 -0.838 0.516 143 111 72 0 0
0.0943 -0.1361 -1.4020 0.257 -0.809 0.528 172 149 100 0 0
0.0794 -0.2085 -1.4792 -0.100 -0.781 0.616 139 108 68 0 0
0.0786 -0.2125 -1.4927 -0.234 -0.855 0.462 113 83 41 0 0
0.0739 -0.2358 -1.5323 0.051 -0.970 0.236 77 53 20 0 0
0.0555 -0.3277 -1.7992 0.078 -0.845 0.528 80 57 26 0 0
0.0549 -0.3307 -1.8083 -0.046 -0.897 0.439 82 59 28 0 0
0.0148 -0.5294 -2.2251 0.075 -0.923 0.378 120 99 49 0 0
0.0124 -0.5410 -2.2443 -0.200 -0.761 0.617 103 87 37 0 0
0.0119 -0.5435 -2.2480 -0.168 -0.873 0.457 103 87 45 0 0
0.0111 -0.5475 -2.2503 0.168 -0.722 0.671 87 72 40 0 0
0.1427 0.1267 -0.9115 0.407 -0.127 0.905 177 179 181 0 0
0.1251 0.0401 -1.0159 0.106 -0.956 0.272 91 68 35 0 0
0.1249 0.0387 -1.0498 0.110 -0.994 -0.013 96 70 32 0 0
0.1249 0.0388 -1.0548 0.110 -0.994 -0.013 107 84 46 0 0
0.1255 0.0412 -1.1255 -0.036 -0.992 0.123 76 53 27 0 0
0.1113 -0.0288 -1.2193 0.073 -0.960 0.270 131 106 62 0 0
0.1045 -0.0618 -1.2156 0.120 -0.884 0.452 150 125 86 0 0
0.1035 -0.0665 -1.2187 0.163 -0.924 0.345 135 111 76 0 0
0.1032 -0.0682 -1.2230 0.163 -0.924 0.345 136 111 78 0 0
0.1029 -0.0692 -1.2276 0.164 -0.968 0.188 142 112 72 0 0
0.0909 -0.1294 -1.3893 -0.076 -0.646 0.760 173 144 102 0 0
0.0901 -0.1330 -1.3979 0.129 -0.919 0.372 135 117 85 0 0
0.0897 -0.1352 -1.4020 0.183 -0.907 0.379 160 136 90 0 0
0.0885 -0.1412 -1.4042 -0.050 -0.801 0.596 190 160 106 0 0
0.0499 -0.3295 -1.5875 -0.168 -0.473 0.865 149 125 81 0 0
0.0525 -0.3191 -1.7768 0.183 -0.820 0.542 95 73 41 0 0
0.0507 -0.3282 -1.8038 -0.046 -0.897 0.439 80 57 25 0 0
0.0528 -0.3180 -1.8275 -0.092 -0.870 0.485 79 56 25 0 0
0.0453 -0.3553 -1.8967 -0.156 -0.709 0.688 83 60 29 0 0
0.0433 -0.3649 -1.8953 0.345 -0.785 0.514 84 60 30 0 0
0.0360 -0.4021 -2.0445 0.108 -0.816 0.567 80 57 26 0 0
0.0354 -0.4047 -2.0483 0.225 -0.800 0.556 78 55 24 0 0
0.0100 -0.5295 -2.2243 0.075 -0.923 0.378 121 99 47 0 0
0.0073 -0.5426 -2.2481 -0.127 -0.898 0.421 107 89 48 0 0
0.0063 -0.5477 -2.2493 0.175 -0.685 0.707 88 71 39 0 0
0.1400 0.1366 -0.9093 0.321 -0.139 0.937 179 179 181 0 0
0.1373 0.1235 -0.9103 0.321 -0.139 0.937 178 179 180 0 0
0.1211 0.0442 -0.9925 -0.070 -0.930 0.361 99 76 42 0 0
0.1208 0.0426 -0.9969 -0.070 -0.930 0.361 93 70 36 0 0
0.1203 0.0397 -1.0498 -0.201 -0.977 -0.071 90 67 33 0 0
0.1204 0.0401 -1.0549 -0.201 -0.977 -0.071 80 60 28 0 0
0.0988 -0.0662 -1.2235 -0.207 -0.600 0.773 132 107 75 0 0
0.0998 -0.0617 -1.2915 0.156 -0.861 0.485 107 90 65 0 0
0.0993 -0.0642 -1.2955 -0.024 -0.863 0.504 92 75 49 0 0
0.1004 -0.0592 -1.3132 0.330 -0.904 -0.270 82 69 51 0 0
0.0952 -0.0848 -1.3636 -0.189 -0.899 0.395 121 100 73 0 0
0.0901 -0.1096 -1.3777 -0.265 -0.628 0.732 133 107 68 0 0
0.0839 -0.1402 -1.3991 0.216 -0.742 0.635 152 125 88 0 0
0.0830 -0.1445 -1.4021 -0.160 -0.901 0.403 195 162 111 0 0
0.0824 -0.1474 -1.4111 0.293 -0.824 0.485 182 150 100 0 0
0.0729 -0.1943 -1.4650 0.536 -0.630 0.561 142 112 71 0 0
0.0396 -0.3573 -1.6118 0.001 -0.964 0.267 88 64 30 0 0
0.0467 -0.3243 -1.7893 0.287 -0.839 0.462 76 56 22 0 0
0.0461 -0.3272 -1.7983 0.205 -0.976 0.071 80 57 25 0 0
0.0340 -0.3882 -2.0142 -0.309 -0.949 0.055 85 65 32 0 0
0.0057 -0.5276 -2.2253 0.004 -0.899 0.439 126 104 53 0 0
0.0029 -0.5414 -2.2485 -0.351 -0.703 0.618 104 86 44 0 0
0.0018 -0.5464 -2.2498 -0.145 -0.814 0.562 90 73 39 0 0
0.0007 -0.5519 -2.2507 0.199 -0.490 0.849 89 73 47 0 0
0.1196 0.0595 -1.1064 -0.390 -0.878 0.279 36 25 11 0 0
0.1161 0.0423 -1.1504 -0.174 -0.933 0.315 84 61 33 0 0
0.1158 0.0408 -1.1550 -0.174 -0.933 0.315 85 62 30 0 0
0.1155 0.0393 -1.1595 -0.174 -0.933 0.315 99 77 42 0 0
0.0946 -0.0641 -1.2952 0.109 -0.879 0.465 86 69 44 0 0
0.0947 -0.0634 -1.3109 0.253 -0.964 0.086 91 76 52 0 0
0.0906 -0.0840 -1.3635 -0.153 -0.761 0.630 123 103 73 0 0
0.0817 -0.1274 -1.3842 0.126 -0.685 0.717 169 137 90 0 0
0.0785 -0.1433 -1.4023 -0.352 -0.862 0.365 189 155 110 0 0
0.0355 -0.3552 -1.5969 -0.178 -0.833 0.524 110 87 45 0 0
0.0324 -0.3702 -1.6242 0.086 -0.911 0.404 85 62 28 0 0
0.0409 -0.3295 -1.8073 -0.046 -0.897 0.439 77 54 23 0 0
0.0295 -0.3865 -2.0091 -0.309 -0.949 0.055 85 63 32 0 0
0.0251 -0.4084 -2.1025 0.167 -0.978 0.125 86 63 29 0 0
0.0020 -0.5222 -2.2116 0.241 -0.830 0.502 117 93 49 0 0
0.0016 -0.5244 -2.2155 0.271 -0.895 0.354 117 92 50 0 0
0.0016 -0.5245 -2.2214 0.024 -0.926 0.377 120 96 48 0 0
0.0008 -0.5281 -2.2241 -0.185 -0.960 0.209 128 104 55 0 0
0.1157 0.0645 -1.0777 -0.345 -0.894 0.285 39 25 10 0 0
0.1087 0.0295 -1.1756 -0.023 -0.834 0.551 121 96 53 0 0
0.1082 0.0270 -1.1797 0.110 -0.865 0.489 107 80 39 0 0
0.0867 -0.0791 -1.2323 -0.226 -0.675 0.702 124 98 66 0 0
0.0854 -0.0854 -1.2346 0.458 -0.889 0.035 179 152 111 0 0
0.0872 -0.0766 -1.3562 0.231 -0.889 0.395 109 90 67 0 0
0.0378 -0.3209 -1.5858 -0.205 -0.333 0.920 159 136 87 0 0
0.0301 -0.3593 -1.5991 0.060 -0.898 0.435 96 72 32 0 0
0.0398 -0.3114 -1.7637 -0.220 -0.817 0.533 81 57 24 0 0
0.0319 -0.3507 -1.8587 -0.305 -0.901 0.308 80 56 26 0 0
0.0316 -0.3522 -1.8632 -0.229 -0.826 0.515 80 55 25 0 0
0.0041 -0.4887 -2.1814 -0.092 -0.700 0.708 105 82 41 0 0
-0.0029 -0.5232 -2.2099 -0.184 -0.849 0.496 123 98 55 0 0
-0.0032 -0.5248 -2.2144 0.216 -0.858 0.465 116 92 51 0 0
0.1062 0.0411 -0.9327 0.055 -0.925 0.376 102 79 41 0 0
0.1101 0.0605 -1.1363 -0.562 -0.814 0.145 23 16 7 0 0
0.1098 0.0590 -1.1408 -0.553 -0.814 0.178 24 17 7 0 0
0.1096 0.0580 -1.1455 -0.553 -0.814 0.178 30 23 11 0 0
0.0940 -0.0195 -1.2165 -0.316 -0.216 0.924 121 91 59 0 0
0.0817 -0.0802 -1.2314 0.255 -0.494 0.831 122 98 65 0 0
0.0600 -0.1880 -1.4357 0.154 -0.912 0.380 152 122 80 0 0
0.0335 -0.3196 -1.5861 0.083 -0.443 0.892 154 128 83 0 0
0.0324 -0.3250 -1.5881 -0.123 -0.274 0.954 152 126 79 0 0
0.0279 -0.3470 -1.8551 -0.330 -0.906 0.264 81 56 26 0 0
0.0274 -0.3493 -1.8591 -0.305 -0.901 0.308 79 56 25 0 0
0.0271 -0.3507 -1.8637 -0.305 -0.901 0.308 81 58 27 0 0
0.0248 -0.3621 -1.9288 -0.098 -0.900 0.424 80 57 26 0 0
0.0181 -0.3953 -1.9779 -0.454 -0.843 0.289 81 58 27 0 0
0.0035 -0.4679 -2.1632 0.161 -0.889 0.429 108 85 43 0 0
-0.0075 -0.5223 -2.2100 -0.184 -0.849 0.496 126 102 56 0 0
-0.0079 -0.5245 -2.2139 -0.184 -0.849 0.496 114 91 49 0 0
-0.0086 -0.5279 -2.2227 -0.278 -0.941 0.194 110 87 42 0 0
-0.0121 -0.5454 -2.2484 0.019 -0.934 0.357 83 65 34 0 0
-0.0126 -0.5475 -2.2584 0.124 -0.992 0.029 81 69 43 0 0
0.1013 0.0404 -0.9900 0.049 -0.915 0.400 87 67 32 0 0
0.1017 0.0420 -0.9954 -0.024 -0.979 0.200 100 79 48 0 0
0.1011 0.0392 -1.0042 0.132 -0.991 0.035 64 44 18 0 0
0.1065 0.0669 -1.1282 -0.341 -0.935 0.101 39 33 21 0 0
0.0952 0.0104 -1.1977 0.022 -0.966 0.259 113 88 54 0 0
0.0800 -0.0649 -1.3400 0.276 -0.899 0.342 81 66 42 0 0
0.0679 -0.1250 -1.3840 -0.108 -0.819 0.563 164 137 96 0 0
0.0219 -0.3546 -1.5957 -0.189 -0.717 0.671 117 89 53 0 0
0.0220 -0.3539 -1.6066 -0.141 -0.919 0.368 86 64 29 0 0
0.0290 -0.3178 -1.7914 -0.007 -0.970 0.244 89 67 34 0 0
0.0200 -0.3623 -1.9337 -0.135 -0.940 0.314 83 60 29 0 0
0.0197 -0.3640 -1.9381 -0.241 -0.901 0.361 84 61 30 0 0
0.0190 -0.3673 -1.9642 -0.231 -0.790 0.568 85 62 31 0 0
-0.0035 -0.4790 -2.1706 -0.232 -0.781 0.580 119 94 53 0 0
-0.0100 -0.5111 -2.2194 0.130 -0.665 0.736 122 98 52 0 0
-0.0187 -0.5547 -2.2629 0.277 -0.706 0.652 111 104 89 0 0
0.0964 0.0390 -0.9362 -0.155 -0.911 0.382 90 68 33 0 0
0.0951 0.0327 -0.9438 0.112 -0.910 0.399 71 49 22 0 0
0.1020 0.0680 -1.0480 -0.650 -0.740 0.173 51 38 21 0 0
0.1014 0.0657 -1.1426 -0.308 -0.864 0.399 42 35 25 0 0
0.1012 0.0649 -1.1474 0.085 -0.945 0.316 34 27 16 0 0
0.1007 0.0624 -1.1515 -0.205 -0.875 0.439 35 27 17 0 0
0.1002 0.0601 -1.1557 -0.091 -0.811 0.578 38 27 15 0 0
0.0851 -0.0160 -1.2171 -0.276 -0.349 0.896 119 95 55 0 0
0.0240 -0.3209 -1.5895 -0.156 -0.216 0.964 131 106 67 0 0
0.0267 -0.3059 -1.7382 -0.184 -0.980 0.075 86 64 26 0 0
0.0160 -0.3586 -1.8792 -0.297 -0.793 0.532 83 60 29 0 0
0.0146 -0.3655 -1.9137 -0.157 -0.950 0.271 83 60 29 0 0
-0.0080 -0.4776 -2.1711 -0.280 -0.822 0.496 123 98 57 0 0
-0.0091 -0.4829 -2.1783 -0.246 -0.862 0.443 108 85 44 0 0
-0.0123 -0.4990 -2.1878 -0.023 -0.920 0.391 121 94 49 0 0
0.0936 0.0483 -0.9053 -0.265 -0.934 0.240 118 97 63 0 0
0.0907 0.0342 -0.9487 0.005 -0.901 0.434 85 63 33 0 0
0.0911 0.0368 -0.9881 -0.222 -0.973 0.057 87 66 35 0 0
0.0911 0.0364 -0.9928 -0.260 -0.964 0.051 77 56 27 0 0
0.1000 0.0827 -1.0828 -0.560 -0.819 0.124 9 8 5 0 0
0.0984 0.0753 -1.1306 -0.637 -0.675 0.373 16 15 13 0 0
0.0866 0.0158 -1.1991 -0.397 -0.840 0.369 163 138 100 0 0
0.0682 -0.0755 -1.3497 0.110 -0.534 0.839 132 116 92 0 0
0.0427 -0.2041 -1.4414 -0.257 -0.857 0.447 129 102 58 0 0
0.0159 -0.3382 -1.5995 0.128 -0.640 0.758 162 137 96 0 0
0.0106 -0.3620 -1.8818 0.227 -0.542 0.809 83 60 29 0 0
0.0100 -0.3647 -1.9136 -0.157 -0.950 0.271 84 61 30 0 0
0.0020 -0.4041 -2.0382 -0.391 -0.730 0.560 79 55 24 0 0
0.0011 -0.4083 -2.0756 0.035 -0.993 0.112 81 57 27 0 0
-0.0052 -0.4396 -2.1143 0.312 -0.859 0.406 92 70 33 0 0
-0.0057 -0.4424 -2.1178 -0.024 -0.958 0.285 95 73 35 0 0
-0.0173 -0.5004 -2.1977 -0.183 -0.949 0.255 126 99 54 0 0
-0.0279 -0.5536 -2.2624 -0.244 -0.823 0.514 105 97 79 0 0
0.0898 0.0527 -0.9016 0.044 -0.787 0.615 115 97 67 0 0
0.0893 0.0503 -0.9152 -0.077 -0.977 0.197 181 153 106 0 0
0.0855 0.0317 -0.9428 0.012 -0.945 0.326 68 45 19 0 0
0.0866 0.0378 -0.9881 -0.222 -0.973 0.057 90 70 37 0 0
0.0947 0.0799 -1.0515 -0.179 -0.984 -0.004 34 25 11 0 0
0.0926 0.0703 -1.1334 -0.200 -0.979 0.048 7 5 6 0 0
0.0890 0.0528 -1.1726 -0.200 -0.878 0.435 78 57 26 0 0
0.0825 0.0195 -1.1951 -0.397 -0.840 0.369 103 79 39 0 0
0.0821 0.0178 -1.1995 -0.397 -0.840 0.369 139 116 73 0 0
0.0662 -0.0623 -1.2832 0.757 -0.575 0.309 64 47 22 0 0
0.0640 -0.0726 -1.3403 -0.098 -0.983 0.157 87 71 47 0 0
0.0541 -0.1229 -1.3785 0.145 -0.898 0.415 149 125 96 0 0
0.0287 -0.2504 -1.5459 -0.209 -0.893 0.399 84 61 30 0 0
0.0128 -0.3275 -1.8162 -0.080 -0.995 0.062 81 56 26 0 0
0.0077 -0.3526 -1.8767 -0.300 -0.636 0.711 81 58 27 0 0
0.0058 -0.3620 -1.9093 -0.471 -0.799 0.374 83 60 29 0 0
0.0054 -0.3639 -1.9136 -0.157 -0.950 0.271 84 61 30 0 0
0.0052 -0.3651 -1.9184 -0.215 -0.939 0.267 85 62 31 0 0
-0.0105 -0.4421 -2.1173 -0.024 -0.958 0.285 89 67 30 0 0
-0.0219 -0.4993 -2.1979 -0.120 -0.942 0.314 124 97 51 0 0
0.0808 0.0312 -0.9424 0.131 -0.865 0.484 70 48 20 0 0
0.0820 0.0383 -0.9831 -0.023 -0.992 0.126 84 64 30 0 0
0.0820 0.0386 -0.9929 -0.222 -0.973 0.057 109 88 54 0 0
0.0902 0.0816 -1.0368 -0.325 -0.928 -0.183 58 47 27 0 0
0.0903 0.0822 -1.0419 -0.228 -0.965 0.127 39 29 13 0 0
0.0902 0.0816 -1.0467 -0.228 -0.965 0.127 30 21 9 0 0
0.0904 0.0828 -1.0521 -0.325 -0.912 0.252 20 14 5 0 0
0.0840 0.0521 -1.1719 -0.054 -0.884 0.464 72 52 22 0 0
0.0823 0.0435 -1.1839 -0.393 -0.836 0.383 87 66 29 0 0
0.0588 -0.0745 -1.3441 0.193 -0.823 0.534 109 89 62 0 0
0.0582 -0.0778 -1.3478 0.127 -0.751 0.648 124 106 79 0 0
0.0576 -0.0809 -1.3515 -0.005 -0.812 0.584 105 86 61 0 0
0.0487 -0.1260 -1.3818 0.009 -0.865 0.502 165 133 101 0 0
0.0242 -0.2493 -1.5460 0.074 -0.870 0.487 84 61 29 0 0
0.0240 -0.2502 -1.5507 0.170 -0.891 0.422 83 60 27 0 0
0.0141 -0.2986 -1.7085 0.016 -0.970 0.241 68 47 23 0 0
0.0134 -0.3019 -1.7173 0.030 -0.911 0.412 96 77 39 0 0
0.0131 -0.3026 -1.7496 0.227 -0.898 0.378 80 57 23 0 0
-0.0265 -0.4987 -2.1977 -0.120 -0.942 0.314 123 96 51 0 0
-0.0267 -0.4994 -2.2030 -0.054 -0.972 0.228 122 94 47 0 0
-0.0269 -0.5007 -2.2078 -0.145 -0.971 0.191 120 93 47 0 0
-0.0273 -0.5026 -2.2181 -0.150 -0.978 0.143 111 87 43 0 0
0.0756 0.0286 -0.9413 0.052 -0.936 0.349 72 50 22 0 0
0.0775 0.0395 -0.9929 -0.327 -0.894 -0.306 109 88 60 0 0
0.0776 0.0404 -0.9980 -0.233 -0.782 -0.578 99 82 59 0 0
0.0859 0.0845 -1.0573 -0.269 -0.963 0.016 10 7 3 0 0
0.0797 0.0549 -1.1675 -0.164 -0.898 0.409 97 80 37 0 0
0.0794 0.0532 -1.1720 -0.272 -0.871 0.408 75 56 25 0 0
0.0790 0.0513 -1.1763 -0.272 -0.871 0.408 63 45 18 0 0
0.0731 0.0214 -1.2002 -0.328 -0.802 0.499 94 76 37 0 0
0.0545 -0.0743 -1.2315 0.167 -0.417 0.893 142 116 87 0 0
0.0441 -0.1252 -1.3817 -0.125 -0.882 0.454 165 132 91 0 0
0.0265 -0.2143 -1.4865 -0.026 -0.654 0.756 97 74 36 0 0
0.0264 -0.2147 -1.4915 -0.185 -0.972 0.143 100 77 44 0 0
0.0210 -0.2417 -1.5288 -0.046 -0.994 -0.097 90 65 32 0 0
0.0208 -0.2428 -1.5334 0.202 -0.957 0.207 82 61 30 0 0
0.0192 -0.2508 -1.5499 0.170 -0.891 0.422 91 68 36 0 0
0.0182 -0.2556 -1.5577 -0.036 -0.898 0.439 81 57 24 0 0
0.0052 -0.3185 -1.7879 -0.176 -0.816 0.550 83 60 29 0 0
0.0047 -0.3211 -1.7917 -0.186 -0.823 0.537 77 54 23 0 0
-0.0020 -0.3527 -1.9319 -0.371 -0.727 0.578 85 62 31 0 0
-0.0264 -0.4742 -2.1651 -0.274 -0.857 0.437 114 90 49 0 0
-0.0276 -0.4801 -2.1897 -0.189 -0.852 0.488 112 88 45 0 0
0.0731 0.0412 -0.9931 -0.327 -0.894 -0.306 84 65 41 0 0
0.0820 0.0895 -1.0537 -0.466 -0.789 0.401 41 34 27 0 0
0.0750 0.0556 -1.1674 -0.141 -0.953 0.267 92 75 38 0 0
0.0743 0.0524 -1.1764 -0.224 -0.823 0.521 74 58 32 0 0
0.0738 0.0499 -1.1805 -0.268 -0.787 0.556 64 48 21 0 0
0.0141 -0.2538 -1.5163 0.737 -0.674 0.050 125 97 60 0 0
0.0137 -0.2548 -1.5577 -0.157 -0.928 0.339 85 62 28 0 0
-0.0007 -0.3290 -1.5926 -0.275 -0.421 0.864 161 133 88 0 0
0.0016 -0.3132 -1.7689 -0.124 -0.957 0.263 85 62 30 0 0
0.0008 -0.3168 -1.7830 -0.000 -0.900 0.435 89 66 35 0 0
0.0004 -0.3189 -1.7870 -0.209 -0.848 0.487 84 61 30 0 0
-0.0176 -0.4061 -2.0454 -0.041 -0.865 0.500 79 56 25 0 0
-0.0241 -0.4389 -2.1062 -0.193 -0.960 0.204 82 59 27 0 0
-0.0250 -0.4429 -2.1322 -0.115 -0.969 0.218 87 65 28 0 0
-0.0364 -0.5005 -2.2184 -0.393 -0.842 0.369 110 86 42 0 0
0.0671 0.0334 -0.9373 -0.205 -0.903 0.377 88 65 34 0 0
0.0689 0.0441 -0.9938 -0.279 -0.811 -0.514 96 78 53 0 0
0.0747 0.0759 -1.0338 0.088 -0.981 -0.173 80 73 64 0 0
0.0781 0.0967 -1.1367 -0.060 -0.895 -0.442 75 76 75 0 0
0.0704 0.0571 -1.1727 -0.279 -0.949 0.148 73 58 30 0 0
0.0697 0.0534 -1.1764 -0.260 -0.774 0.578 67 53 29 0 0
0.0692 0.0511 -1.1806 -0.224 -0.823 0.521 79 65 37 0 0
0.0449 -0.0737 -1.2918 -0.589 -0.698 0.408 64 44 17 0 0
0.0343 -0.1267 -1.3904 0.080 -0.880 0.468 183 155 111 0 0
0.0084 -0.2578 -1.5765 -0.190 -0.857 0.479 104 80 40 0 0
0.0080 -0.2594 -1.5808 -0.209 -0.857 0.471 104 82 41 0 0
-0.0030 -0.3121 -1.7690 -0.061 -0.892 0.448 86 63 31 0 0
-0.0035 -0.3144 -1.7840 -0.148 -0.988 -0.053 84 61 30 0 0
-0.0038 -0.3158 -1.7886 -0.146 -0.989 0.033 85 62 31 0 0
-0.0051 -0.3222 -1.8063 0.077 -0.952 0.297 81 58 27 0 0
-0.0172 -0.3815 -1.9718 -0.211 -0.947 0.242 87 64 33 0 0
-0.0174 -0.3824 -1.9768 -0.048 -0.745 0.665 80 57 26 0 0
-0.0414 -0.5019 -2.2164 0.083 -0.901 0.427 112 88 44 0 0
0.0622 0.0322 -0.9414 -0.152 -0.897 0.416 76 55 23 0 0
0.0621 0.0319 -0.9509 0.003 -0.978 0.210 92 71 40 0 0
0.0701 0.0767 -1.0238 -0.165 -0.926 -0.340 34 26 16 0 0
0.0706 0.0796 -1.0298 0.213 -0.965 0.152 57 51 44 0 0
0.0743 0.1000 -1.0516 -0.128 -0.985 -0.120 180 182 183 0 0
0.0759 0.1095 -1.0851 -0.922 -0.365 -0.129 182 183 185 0 0
0.0761 0.1108 -1.0957 -0.725 -0.583 -0.367 182 185 187 0 0
0.0643 0.0510 -1.1853 -0.261 -0.726 0.636 99 79 44 0 0
0.0535 -0.0051 -1.2188 -0.041 -0.494 0.869 136 110 68 0 0
0.0445 -0.0529 -1.2243 -0.078 -0.474 0.877 93 72 40 0 0
0.0377 -0.0847 -1.3428 0.000 -0.897 0.442 52 37 21 0 0
0.0190 -0.1817 -1.4193 0.019 -0.775 0.631 193 161 119 0 0
0.0122 -0.2155 -1.4896 -0.127 -0.881 0.457 92 70 34 0 0
0.0098 -0.2280 -1.4932 -0.359 -0.875 0.325 89 64 33 0 0
0.0040 -0.2565 -1.5557 -0.062 -0.921 0.386 84 61 28 0 0
-0.0053 -0.3009 -1.7156 -0.156 -0.946 0.284 88 68 31 0 0
-0.0064 -0.3062 -1.7395 -0.167 -0.934 0.315 87 64 30 0 0
-0.0065 -0.3063 -1.7448 -0.166 -0.944 0.284 86 65 32 0 0
-0.0091 -0.3185 -1.8083 -0.255 -0.820 0.513 80 57 26 0 0
-0.0199 -0.3711 -1.9505 -0.118 -0.839 0.532 82 59 28 0 0
-0.0217 -0.3799 -1.9723 -0.106 -0.966 0.237 82 59 28 0 0
-0.0240 -0.3901 -2.0394 -0.114 -0.971 0.211 79 55 25 0 0
-0.0277 -0.4088 -2.0710 0.098 -0.875 0.474 83 59 28 0 0
-0.0310 -0.4256 -2.0807 -0.435 -0.889 0.147 133 105 69 0 0
-0.0314 -0.4277 -2.0847 -0.413 -0.865 0.284 97 73 42 0 0
-0.0412 -0.4767 -2.1785 -0.030 -0.931 0.364 106 83 41 0 0
0.0655 0.0778 -1.0239 -0.006 -0.977 -0.214 41 33 25 0 0
0.0696 0.1006 -1.0515 -0.128 -0.985 -0.120 180 182 184 0 0
0.0726 0.1172 -1.0723 -0.944 -0.329 -0.030 180 183 184 0 0
0.0715 0.1115 -1.0753 -0.832 -0.552 -0.052 181 183 186 0 0
0.0597 0.0524 -1.1855 -0.261 -0.726 0.636 96 76 44 0 0
0.0491 -0.0027 -1.2194 0.265 -0.478 0.837 133 109 68 0 0
0.0407 -0.0477 -1.2261 0.464 -0.348 0.815 120 99 63 0 0
0.0357 -0.0715 -1.2970 -0.442 -0.844 0.304 65 48 20 0 0
0.0332 -0.0842 -1.3220 0.071 -0.995 0.068 49 34 17 0 0
0.0330 -0.0843 -1.3426 -0.090 -0.939 0.331 46 33 18 0 0
0.0256 -0.1230 -1.3758 -0.327 -0.912 0.249 150 123 91 0 0
0.0143 -0.1813 -1.4242 -0.035 -0.861 0.507 186 154 112 0 0
-0.0008 -0.2568 -1.5708 0.126 -0.976 0.177 103 80 37 0 0
-0.0202 -0.3582 -1.6306 -0.132 -0.810 0.571 76 54 25 0 0
-0.0093 -0.2974 -1.7119 -0.372 -0.908 0.193 88 68 31 0 0
-0.0339 -0.4162 -2.0702 -0.060 -0.891 0.450 85 62 29 0 0
-0.0344 -0.4187 -2.0740 -0.113 -0.890 0.442 96 75 33 0 0
-0.0348 -0.4208 -2.0781 -0.205 -0.935 0.288 131 107 64 0 0
-0.0351 -0.4221 -2.0828 -0.205 -0.935 0.288 143 117 79 0 0
-0.0358 -0.4259 -2.0856 -0.413 -0.865 0.284 98 75 43 0 0
-0.0502 -0.4983 -2.2122 -0.045 -0.983 0.177 116 91 50 0 0
-0.0507 -0.5008 -2.2160 -0.289 -0.840 0.459 116 91 49 0 0
0.0549 0.0527 -1.1852 -0.101 -0.889 0.446 83 68 42 0 0
0.0547 0.0517 -1.1899 -0.373 -0.837 0.400 110 95 63 0 0
0.0543 0.0498 -1.1943 -0.373 -0.837 0.400 73 54 22 0 0
0.0354 -0.0508 -1.2244 0.464 -0.348 0.815 121 99 66 0 0
0.0289 -0.0833 -1.2863 -0.043 -0.973 -0.228 54 37 17 0 0
0.0293 -0.0804 -1.3029 -0.000 -0.884 0.467 83 66 40 0 0
0.0290 -0.0816 -1.3074 -0.084 -0.854 0.513 70 52 27 0 0
0.0285 -0.0843 -1.3113 -0.048 -0.953 0.299 84 64 41 0 0
0.0284 -0.0845 -1.3215 0.071 -0.995 0.068 40 23 10 0 0
0.0283 -0.0849 -1.3264 0.071 -0.995 0.068 33 20 11 0 0
0.0249 -0.1015 -1.3599 0.441 -0.765 0.469 142 115 69 0 0
0.0246 -0.1034 -1.3641 0.408 -0.820 0.401 152 121 80 0 0
0.0242 -0.1051 -1.3685 -0.046 -0.780 0.624 146 119 78 0 0
0.0219 -0.1172 -1.3782 -0.002 -0.885 0.465 161 134 100 0 0
0.0214 -0.1198 -1.3821 -0.183 -0.802 0.569 165 132 95 0 0
0.0088 -0.1859 -1.4265 -0.229 -0.778 0.585 173 142 97 0 0
-0.0246 -0.3576 -1.6304 -0.115 -0.745 0.657 77 56 27 0 0
-0.0146 -0.3000 -1.7206 -0.226 -0.867 0.444 77 54 20 0 0
-0.0170 -0.3112 -1.7679 -0.026 -0.879 0.476 82 59 27 0 0
-0.0288 -0.3687 -1.9226 -0.295 -0.850 0.436 88 66 35 0 0
-0.0292 -0.3707 -1.9268 -0.295 -0.850 0.436 84 62 31 0 0
-0.0394 -0.4198 -2.0782 0.370 -0.673 0.640 128 105 61 0 0
-0.0407 -0.4260 -2.0906 -0.291 -0.882 0.370 85 64 32 0 0
-0.0411 -0.4281 -2.0947 -0.131 -0.879 0.459 81 58 26 0 0
-0.0414 -0.4289 -2.1117 -0.457 -0.762 0.459 84 61 28 0 0
-0.0477 -0.4622 -2.1306 0.070 -0.941 0.330 89 64 28 0 0
-0.0543 -0.4955 -2.1842 -0.188 -0.901 0.392 108 85 43 0 0
-0.0551 -0.4989 -2.2169 -0.235 -0.915 0.327 117 92 51 0 0
0.0477 0.0298 -0.9397 0.017 -0.952 0.305 96 73 40 0 0
0.0528 0.0608 -1.0175 0.500 -0.817 0.287 174 171 166 0 0
0.0498 0.0521 -1.1948 -0.047 -0.877 0.477 92 75 39 0 0
0.0301 -0.0536 -1.2228 0.513 -0.361 0.779 120 98 67 0 0
0.0247 -0.0792 -1.3030 -0.127 -0.851 0.509 78 59 33 0 0
0.0243 -0.0816 -1.3070 -0.134 -0.746 0.653 74 55 29 0 0
0.0237 -0.0843 -1.3109 -0.126 -0.915 0.384 87 66 42 0 0
0.0206 -0.0994 -1.3604 -0.218 -0.855 0.471 143 115 70 0 0
0.0201 -0.1016 -1.3645 -0.218 -0.855 0.471 138 107 61 0 0
0.0197 -0.1036 -1.3688 -0.171 -0.971 0.169 149 122 78 0 0
-0.0196 -0.3021 -1.7132 -0.041 -0.962 0.272 81 59 25 0 0
-0.0197 -0.3005 -1.7579 -0.220 -0.811 0.542 79 56 24 0 0
-0.0209 -0.3072 -1.7645 -0.200 -0.934 0.296 81 58 26 0 0
-0.0437 -0.4176 -2.0734 -0.264 -0.909 0.322 95 73 35 0 0
-0.0441 -0.4191 -2.0781 -0.229 -0.948 0.219 112 89 45 0 0
-0.0443 -0.4201 -2.0831 -0.191 -0.965 0.177 151 126 85 0 0
-0.0448 -0.4230 -2.0866 -0.291 -0.882 0.370 96 75 42 0 0
-0.0452 -0.4247 -2.0910 -0.291 -0.882 0.370 87 66 34 0 0
-0.0581 -0.4912 -2.1754 -0.126 -0.942 0.310 104 82 36 0 0
-0.0585 -0.4930 -2.1798 -0.172 -0.906 0.387 107 84 41 0 0
-0.0588 -0.4945 -2.1843 -0.278 -0.875 0.397 105 82 39 0 0
0.0444 0.0393 -0.9809 -0.141 -0.771 -0.621 91 70 31 0 0
0.0125 -0.1166 -1.3828 -0.154 -0.661 0.735 172 144 103 0 0
-0.0152 -0.2590 -1.5627 -0.204 -0.773 0.601 84 64 28 0 0
-0.0217 -0.2934 -1.5951 0.178 -0.603 0.778 145 121 79 0 0
-0.0270 -0.3221 -1.5936 -0.061 -0.432 0.900 171 143 92 0 0
-0.0242 -0.3019 -1.7074 0.076 -0.984 0.163 86 66 31 0 0
-0.0236 -0.2967 -1.7434 0.064 -0.936 0.345 85 63 27 0 0
-0.0242 -0.2994 -1.7581 -0.220 -0.811 0.542 83 60 28 0 0
-0.0456 -0.4031 -2.0379 -0.484 -0.774 0.408 85 62 31 0 0
-0.0483 -0.4164 -2.0737 -0.255 -0.905 0.339 97 74 40 0 0
-0.0486 -0.4180 -2.0782 -0.255 -0.905 0.339 108 85 41 0 0
-0.0490 -0.4196 -2.0828 -0.255 -0.905 0.339 145 121 78 0 0
-0.0504 -0.4271 -2.0942 -0.159 -0.690 0.706 82 59 27 0 0
-0.0631 -0.4921 -2.1798 -0.172 -0.906 0.387 106 83 41 0 0
-0.0634 -0.4939 -2.1842 -0.120 -0.903 0.412 102 79 37 0 0
-0.0641 -0.4971 -2.1931 -0.039 -0.912 0.409 118 94 50 0 0
-0.0648 -0.5007 -2.1959 -0.127 -0.807 0.576 112 88 45 0 0
-0.0703 -0.5294 -2.2294 -0.031 -0.758 0.652 122 99 58 0 0
0.0463 0.0706 -0.8849 0.383 -0.520 0.764 133 127 117 0 0
0.0448 0.0631 -0.8922 0.187 -0.655 0.732 98 85 59 0 0
0.0432 0.0546 -0.8991 0.088 -0.753 0.652 128 108 79 0 0
0.0373 0.0247 -0.9566 0.247 -0.917 0.313 118 94 55 0 0
0.0407 0.0554 -1.1902 -0.043 -0.867 0.496 74 65 45 0 0
0.0403 0.0530 -1.1944 -0.043 -0.867 0.496 71 59 32 0 0
0.0388 0.0447 -1.1962 0.025 -0.954 0.298 67 53 24 0 0
0.0141 -0.0861 -1.2889 0.232 -0.967 -0.107 29 15 5 0 0
0.0137 -0.0866 -1.3243 -0.012 -0.976 0.219 45 28 10 0 0
0.0095 -0.1078 -1.3607 -0.027 -0.699 0.714 126 96 54 0 0
0.0099 -0.1052 -1.3723 -0.240 -0.928 0.285 154 126 90 0 0
0.0079 -0.1155 -1.3828 -0.154 -0.661 0.735 176 147 104 0 0
0.0068 -0.1215 -1.3903 -0.268 -0.927 0.262 176 148 109 0 0
-0.0222 -0.2711 -1.5815 0.110 -0.460 0.881 180 155 107 0 0
-0.0230 -0.2757 -1.5841 0.089 -0.505 0.859 159 132 93 0 0
-0.0269 -0.2962 -1.5982 0.209 -0.668 0.714 148 120 72 0 0
-0.0501 -0.4018 -2.0383 -0.383 -0.612 0.692 86 63 31 0 0
-0.0647 -0.4758 -2.1639 -0.177 -0.784 0.595 102 79 37 0 0
-0.0723 -0.5152 -2.2178 -0.239 -0.742 0.626 120 95 55 0 0
-0.0745 -0.5269 -2.2249 -0.290 -0.583 0.759 119 96 55 0 0
-0.0757 -0.5319 -2.2502 -0.104 -0.823 0.558 116 95 49 0 0
0.0361 0.0564 -1.1902 0.038 -0.872 0.488 73 66 54 0 0
0.0327 0.0384 -1.2035 -0.188 -0.868 0.460 103 87 43 0 0
0.0323 0.0364 -1.2078 -0.117 -0.561 0.820 107 89 42 0 0
0.0241 -0.0086 -1.2150 -0.036 -0.284 0.958 126 104 66 0 0
0.0197 -0.0324 -1.2204 -0.141 -0.125 0.982 126 104 71 0 0
0.0185 -0.0390 -1.2227 0.229 -0.324 0.918 118 95 62 0 0
0.0045 -0.1093 -1.3595 0.138 -0.790 0.597 134 106 61 0 0
0.0050 -0.1062 -1.3714 0.118 -0.991 0.064 146 120 85 0 0
-0.0194 -0.2347 -1.4918 -0.140 -0.936 0.323 76 53 21 0 0
-0.0274 -0.2743 -1.5844 -0.255 -0.337 0.906 151 122 88 0 0
-0.0317 -0.2974 -1.5970 0.019 -0.563 0.826 141 114 65 0 0
-0.0335 -0.3010 -1.7123 -0.147 -0.982 0.123 98 77 46 0 0
-0.0332 -0.2983 -1.7357 0.056 -0.995 0.082 86 63 29 0 0
-0.0355 -0.3090 -1.7670 0.023 -0.981 0.195 80 57 25 0 0
-0.0551 -0.4031 -2.0366 -0.375 -0.692 0.617 83 60 28 0 0
-0.0601 -0.4274 -2.1042 -0.270 -0.917 0.292 83 60 27 0 0
-0.0595 -0.4236 -2.1132 -0.239 -0.824 0.513 85 62 27 0 0
0.0456 0.1195 -0.8937 -0.006 0.011 1.000 178 177 178 0 0
0.0325 0.0471 -0.9058 0.076 -0.722 0.688 123 105 79 0 0
0.0320 0.0604 -1.1811 0.109 -0.779 0.618 77 74 72 0 0
0.0291 0.0447 -1.1954 0.025 -0.954 0.298 95 81 56 0 0
0.0248 0.0217 -1.2117 -0.053 -0.369 0.928 98 78 31 0 0
0.0056 -0.0843 -1.2283 -0.023 -0.411 0.911 129 108 80 0 0
0.0031 -0.0978 -1.2325 -0.229 -0.887 0.400 141 117 93 0 0
0.0026 -0.1004 -1.2364 -0.192 -0.936 0.295 140 118 92 0 0
0.0024 -0.1014 -1.2409 -0.313 -0.789 0.530 83 60 34 0 0
0.0005 -0.1054 -1.3558 0.007 -0.706 0.708 125 102 60 0 0
-0.0001 -0.1084 -1.3596 0.049 -0.727 0.684 133 106 64 0 0
-0.0006 -0.1111 -1.3634 0.074 -0.657 0.750 110 84 45 0 0
-0.0017 -0.1170 -1.3709 0.087 -0.842 0.532 150 122 86 0 0
-0.0203 -0.2165 -1.4495 0.088 -0.946 0.311 120 95 55 0 0
-0.0247 -0.2375 -1.5054 -0.194 -0.751 0.632 73 50 19 0 0
-0.0320 -0.2736 -1.5843 -0.460 -0.420 0.782 119 90 51 0 0
-0.0354 -0.2922 -1.5943 -0.034 -0.696 0.717 156 128 83 0 0
-0.0451 -0.3450 -1.6199 -0.291 -0.889 0.354 91 68 40 0 0
-0.0366 -0.2930 -1.7006 -0.100 -0.899 0.426 59 42 17 0 0
-0.0370 -0.2949 -1.7048 -0.170 -0.856 0.489 68 48 19 0 0
-0.0374 -0.2968 -1.7090 -0.146 -0.901 0.409 96 75 44 0 0
-0.0381 -0.3002 -1.7176 -0.346 -0.879 0.329 58 37 9 0 0
-0.0380 -0.2994 -1.7236 -0.342 -0.873 0.348 68 46 16 0 0
-0.0393 -0.3059 -1.7303 -0.160 -0.806 0.569 86 63 31 0 0
-0.0394 -0.3057 -1.7522 0.104 -0.994 0.020 86 62 28 0 0
-0.0414 -0.3141 -1.7961 -0.062 -0.944 0.324 79 56 24 0 0
-0.0439 -0.3262 -1.8266 -0.059 -0.920 0.388 77 53 22 0 0
-0.0443 -0.3280 -1.8309 -0.059 -0.920 0.388 77 54 23 0 0
-0.0488 -0.3492 -1.9055 -0.255 -0.852 0.457 80 57 26 0 0
-0.0492 -0.3513 -1.9096 -0.255 -0.852 0.457 82 59 28 0 0
-0.0645 -0.4251 -2.1055 -0.362 -0.929 0.080 83 60 28 0 0
-0.0637 -0.4200 -2.1156 -0.162 -0.766 0.622 86 63 28 0 0
-0.0785 -0.4980 -2.2020 -0.046 -0.959 0.280 114 89 47 0 0
0.0272 0.0604 -1.1807 -0.006 -0.816 0.579 40 36 32 0 0
0.0263 0.0558 -1.1892 -0.157 -0.760 0.631 39 34 25 0 0
0.0233 0.0401 -1.2034 0.102 -0.994 0.041 91 72 30 0 0
0.0223 0.0346 -1.2063 -0.603 -0.677 0.422 81 59 15 0 0
0.0189 0.0159 -1.2141 -0.067 -0.338 0.939 124 100 63 0 0
-0.0004 -0.0915 -1.2298 0.168 -0.628 0.760 133 111 87 0 0
-0.0020 -0.1001 -1.2411 -0.092 -0.903 0.419 122 100 70 0 0
-0.0024 -0.1015 -1.2555 -0.436 -0.899 0.036 54 39 20 0 0
-0.0039 -0.1036 -1.3562 -0.175 -0.760 0.625 96 76 48 0 0
-0.0045 -0.1067 -1.3599 -0.109 -0.766 0.634 125 100 67 0 0
-0.0122 -0.1479 -1.3914 -0.333 -0.634 0.698 194 167 132 0 0
-0.0183 -0.1809 -1.4160 -0.381 -0.587 0.714 128 92 55 0 0
-0.0188 -0.1837 -1.4197 -0.379 -0.752 0.539 178 146 104 0 0
-0.0197 -0.1882 -1.4226 -0.478 -0.473 0.740 189 161 118 0 0
-0.0204 -0.1922 -1.4257 -0.478 -0.473 0.740 167 138 100 0 0
-0.0239 -0.2100 -1.4524 -0.255 -0.966 0.054 114 87 47 0 0
-0.0326 -0.2521 -1.5647 -0.382 -0.876 0.295 81 57 25 0 0
-0.0368 -0.2745 -1.5832 -0.419 -0.632 0.652 140 111 65 0 0
-0.0489 -0.3276 -1.8306 -0.059 -0.920 0.388 77 55 24 0 0
-0.0637 -0.3991 -2.0211 -0.078 -0.689 0.720 95 73 41 0 0
-0.0637 -0.3980 -2.0393 -0.290 -0.640 0.711 80 57 26 0 0
-0.0640 -0.3996 -2.0438 -0.165 -0.898 0.407 82 59 27 0 0
-0.0659 -0.4086 -2.0657 -0.155 -0.965 0.211 85 62 30 0 0
-0.0672 -0.4156 -2.0716 0.116 -0.896 0.429 81 58 27 0 0
-0.0733 -0.4478 -2.1092 -0.462 -0.832 0.308 94 72 36 0 0
-0.0773 -0.4673 -2.1572 0.095 -0.983 0.159 97 73 34 0 0
-0.0783 -0.4728 -2.1584 0.141 -0.933 0.331 107 83 40 0 0
-0.0866 -0.5162 -2.2146 -0.204 -0.811 0.548 127 103 60 0 0
-0.0900 -0.5329 -2.2469 -0.292 -0.793 0.535 109 90 47 0 0
-0.0904 -0.5351 -2.2509 -0.334 -0.799 0.499 104 85 50 0 0
0.0260 0.0633 -0.9005 0.099 -0.670 0.736 140 120 93 0 0
-0.0024 -0.0729 -1.2880 0.490 -0.867 0.088 41 31 21 0 0
-0.0090 -0.1051 -1.3602 -0.309 -0.681 0.664 96 76 44 0 0
-0.0102 -0.1116 -1.3675 -0.215 -0.754 0.621 142 111 70 0 0
-0.0231 -0.1815 -1.4204 -0.627 -0.554 0.548 162 134 87 0 0
-0.0374 -0.2532 -1.5635 -0.375 -0.833 0.406 81 58 24 0 0
-0.0375 -0.2533 -1.5687 -0.290 -0.938 0.189 98 75 35 0 0
-0.0411 -0.2723 -1.5840 -0.184 -0.700 0.690 139 108 63 0 0
-0.0445 -0.2913 -1.5938 -0.275 -0.750 0.601 155 127 85 0 0
-0.0535 -0.3266 -1.8307 -0.090 -0.801 0.592 87 66 35 0 0
-0.0538 -0.3283 -1.8350 -0.221 -0.927 0.304 82 57 27 0 0
-0.0747 -0.4299 -2.0942 -0.151 -0.938 0.313 83 60 28 0 0
-0.0781 -0.4474 -2.1147 -0.192 -0.953 0.236 93 70 36 0 0
-0.0816 -0.4649 -2.1586 -0.278 -0.943 0.182 101 78 39 0 0
-0.0820 -0.4668 -2.1629 -0.191 -0.981 0.011 110 87 45 0 0
-0.0905 -0.5116 -2.2120 -0.350 -0.889 0.293 134 107 64 0 0
-0.0945 -0.5322 -2.2468 -0.067 -0.855 0.514 116 96 53 0 0
-0.0947 -0.5330 -2.2521 -0.020 -0.880 0.474 108 88 50 0 0
0.0130 0.0209 -0.9777 -0.181 -0.981 -0.073 102 82 51 0 0
0.0023 -0.0238 -1.2123 0.202 -0.246 0.948 94 75 43 0 0
-0.0098 -0.0918 -1.2289 -0.264 -0.781 0.566 124 104 79 0 0
-0.0083 -0.0794 -1.2898 -0.166 -0.985 0.058 22 14 6 0 0
-0.0451 -0.2686 -1.5857 -0.562 -0.543 0.625 145 116 72 0 0
-0.0544 -0.3212 -1.5963 0.408 -0.708 0.576 176 148 95 0 0
-0.0575 -0.3377 -1.6124 -0.135 -0.777 0.614 75 54 28 0 0
-0.0580 -0.3405 -1.6159 -0.135 -0.777 0.614 66 46 22 0 0
-0.0511 -0.2939 -1.7145 -0.182 -0.939 0.292 93 71 35 0 0
-0.0522 -0.2997 -1.7271 -0.303 -0.848 0.435 77 56 25 0 0
-0.0539 -0.3066 -1.7663 -0.107 -0.958 0.264 64 40 15 0 0
-0.0543 -0.3084 -1.7706 -0.179 -0.957 0.227 66 42 18 0 0
-0.0588 -0.3292 -1.8394 -0.276 -0.927 0.254 77 51 21 0 0
-0.0630 -0.3483 -1.9156 -0.034 -0.863 0.504 89 66 35 0 0
-0.0715 -0.3904 -2.0036 -0.150 -0.962 0.229 81 58 26 0 0
-0.0763 -0.4134 -2.0662 -0.310 -0.834 0.456 85 62 30 0 0
-0.0767 -0.4157 -2.0701 -0.308 -0.706 0.638 89 66 34 0 0
-0.0792 -0.4281 -2.0950 -0.154 -0.869 0.470 81 58 26 0 0
-0.0798 -0.4314 -2.0981 -0.199 -0.955 0.220 83 60 27 0 0
-0.0963 -0.5170 -2.2242 -0.169 -0.858 0.484 107 84 43 0 0
-0.0971 -0.5207 -2.2327 -0.230 -0.868 0.440 106 86 45 0 0
-0.0977 -0.5242 -2.2355 -0.220 -0.782 0.583 103 83 42 0 0
-0.0991 -0.5316 -2.2466 -0.067 -0.855 0.514 104 87 46 0 0
-0.0996 -0.5339 -2.2504 -0.067 -0.855 0.514 100 82 44 0 0
-0.0027 -0.0255 -1.2111 -0.444 -0.139 0.885 96 77 48 0 0
-0.0138 -0.0879 -1.2302 -0.413 -0.869 0.272 122 102 77 0 0
-0.0145 -0.0870 -1.3012 -0.177 -0.935 0.307 56 39 21 0 0
-0.0150 -0.0883 -1.3159 -0.310 -0.948 0.069 54 33 15 0 0
-0.0461 -0.2497 -1.5593 0.062 -0.896 0.439 76 52 24 0 0
-0.0507 -0.2745 -1.5817 0.121 -0.945 0.302 140 111 65 0 0
-0.0624 -0.3391 -1.6162 -0.179 -0.916 0.359 63 43 17 0 0
-0.0627 -0.3407 -1.6205 -0.166 -0.924 0.344 62 40 17 0 0
-0.0640 -0.3483 -1.6210 0.027 -0.932 0.362 63 41 19 0 0
-0.0648 -0.3521 -1.6291 -0.011 -0.765 0.644 65 44 21 0 0
-0.0553 -0.2913 -1.7103 -0.380 -0.874 0.302 89 69 33 0 0
-0.0581 -0.3048 -1.7505 -0.295 -0.908 0.298 84 61 27 0 0
-0.0584 -0.3061 -1.7551 -0.295 -0.908 0.298 84 61 29 0 0
-0.0585 -0.3060 -1.7662 -0.107 -0.958 0.264 65 41 18 0 0
-0.0593 -0.3086 -1.7919 -0.207 -0.947 0.246 72 46 18 0 0
-0.0633 -0.3281 -1.8396 -0.527 -0.803 0.280 77 52 22 0 0
-0.0635 -0.3290 -1.8445 -0.416 -0.884 0.212 77 52 22 0 0
-0.0652 -0.3362 -1.8786 0.006 -0.917 0.398 83 60 28 0 0
-0.0656 -0.3381 -1.8829 0.006 -0.917 0.398 80 57 25 0 0
-0.0681 -0.3501 -1.9193 -0.050 -0.887 0.458 81 57 27 0 0
-0.0696 -0.3580 -1.9248 -0.314 -0.879 0.358 92 69 38 0 0
-0.0725 -0.3709 -1.9777 -0.231 -0.800 0.553 81 58 27 0 0
-0.0743 -0.3795 -1.9999 -0.050 -0.945 0.323 84 60 32 0 0
-0.0745 -0.3806 -2.0047 -0.086 -0.916 0.392 84 61 31 0 0
-0.0810 -0.4136 -2.0653 -0.239 -0.844 0.480 86 63 31 0 0
-0.0812 -0.4141 -2.0708 -0.409 -0.548 0.730 86 63 31 0 0
-0.0821 -0.4193 -2.0723 -0.438 -0.861 0.257 86 63 27 0 0
-0.0824 -0.4206 -2.0771 -0.438 -0.861 0.257 109 85 43 0 0
-0.0829 -0.4233 -2.0807 -0.421 -0.896 0.142 94 69 32 0 0
-0.0831 -0.4239 -2.0861 -0.476 -0.876 0.071 83 59 28 0 0
-0.0840 -0.4293 -2.0875 -0.476 -0.596 0.647 79 56 24 0 0
-0.0945 -0.4811 -2.2022 0.180 -0.959 0.219 114 89 48 0 0
-0.0948 -0.4822 -2.2071 0.038 -0.953 0.300 122 96 55 0 0
-0.1001 -0.5123 -2.2159 -0.180 -0.785 0.593 120 96 53 0 0
-0.1045 -0.5360 -2.2358 -0.156 -0.782 0.604 90 71 34 0 0
-0.0073 -0.0248 -1.2111 -0.245 -0.223 0.944 95 76 47 0 0
-0.0186 -0.0889 -1.2293 -0.427 -0.716 0.551 124 102 77 0 0
-0.0207 -0.0995 -1.2448 0.041 -0.934 0.354 55 39 21 0 0
-0.0210 -0.1011 -1.2491 0.041 -0.934 0.354 50 37 19 0 0
-0.0184 -0.0843 -1.2715 -0.122 -0.960 -0.251 43 31 18 0 0
-0.0180 -0.0817 -1.2778 -0.405 -0.898 0.170 43 32 19 0 0
-0.0182 -0.0820 -1.2827 -0.313 -0.411 0.856 39 30 20 0 0
-0.0183 -0.0824 -1.2876 -0.133 -0.910 0.393 20 12 6 0 0
-0.0356 -0.1720 -1.4239 -0.533 -0.603 0.593 167 138 93 0 0
-0.0361 -0.1750 -1.4275 -0.533 -0.603 0.593 174 142 98 0 0
-0.0408 -0.2001 -1.4506 0.084 -0.908 0.412 117 89 49 0 0
-0.0444 -0.2183 -1.4875 -0.063 -0.790 0.610 79 57 21 0 0
-0.0461 -0.2276 -1.4980 -0.120 -0.803 0.584 67 43 15 0 0
-0.0487 -0.2395 -1.5331 -0.087 -0.917 0.389 82 59 27 0 0
-0.0505 -0.2482 -1.5597 -0.187 -0.734 0.653 75 51 22 0 0
-0.0544 -0.2686 -1.5899 -0.368 -0.419 0.830 171 142 97 0 0
-0.0588 -0.2936 -1.5909 0.136 -0.372 0.918 146 120 77 0 0
-0.0635 -0.3209 -1.5954 -0.145 -0.564 0.813 166 136 85 0 0
-0.0694 -0.3535 -1.6172 -0.350 -0.698 0.625 63 41 20 0 0
-0.0705 -0.3590 -1.6243 -0.245 -0.801 0.547 66 43 21 0 0
-0.0710 -0.3621 -1.6276 -0.182 -0.664 0.725 84 60 34 0 0
-0.0634 -0.3065 -1.7707 -0.221 -0.925 0.310 67 43 16 0 0
-0.0645 -0.3118 -1.7892 -0.127 -0.661 0.740 69 44 16 0 0
-0.0678 -0.3269 -1.8398 -0.239 -0.875 0.422 78 53 23 0 0
-0.0683 -0.3295 -1.8436 -0.095 -0.954 0.283 80 55 25 0 0
-0.0726 -0.3491 -1.9137 -0.214 -0.920 0.328 78 57 29 0 0
-0.0729 -0.3504 -1.9184 -0.154 -0.891 0.428 79 58 27 0 0
-0.0738 -0.3554 -1.9204 0.030 -0.940 0.341 75 53 25 0 0
-0.0740 -0.3563 -1.9254 -0.369 -0.856 0.362 70 49 20 0 0
-0.0742 -0.3569 -1.9306 -0.283 -0.799 0.530 91 70 41 0 0
-0.0792 -0.3801 -2.0045 -0.086 -0.916 0.392 85 60 31 0 0
-0.0916 -0.4430 -2.1221 -0.318 -0.868 0.381 93 71 34 0 0
-0.0934 -0.4510 -2.1507 -0.248 -0.825 0.508 95 73 37 0 0
-0.0254 -0.1002 -1.2441 0.091 -0.900 0.427 48 32 17 0 0
-0.0241 -0.0913 -1.2529 -0.227 -0.851 -0.474 48 34 19 0 0
-0.0235 -0.0878 -1.2595 -0.227 -0.851 -0.474 49 36 22 0 0
-0.0229 -0.0823 -1.2821 -0.175 -0.629 0.758 42 33 23 0 0
-0.0240 -0.0877 -1.2899 -0.104 -0.759 0.643 31 19 10 0 0
-0.0381 -0.1610 -1.4032 -0.165 -0.811 0.561 164 133 85 0 0
-0.0403 -0.1718 -1.4287 -0.431 -0.604 0.671 156 128 82 0 0
-0.0437 -0.1902 -1.4450 -0.343 -0.731 0.589 184 154 109 0 0
-0.0474 -0.2094 -1.4815 -0.604 -0.583 0.544 91 68 33 0 0
-0.0547 -0.2495 -1.5114 -0.211 -0.905 0.369 69 45 15 0 0
-0.0590 -0.2680 -1.5898 -0.026 -0.616 0.787 171 141 95 0 0
-0.0600 -0.2741 -1.5914 0.038 -0.294 0.955 164 133 86 0 0
-0.0641 -0.2882 -1.7057 -0.223 -0.832 0.509 76 55 25 0 0
-0.0663 -0.2985 -1.7371 -0.398 -0.798 0.453 92 67 33 0 0
-0.0705 -0.3169 -1.8128 -0.012 -0.854 0.520 72 47 17 0 0
-0.0729 -0.3288 -1.8434 -0.221 -0.865 0.451 79 54 24 0 0
-0.0741 -0.3334 -1.8682 -0.079 -0.844 0.530 76 53 22 0 0
-0.0830 -0.3769 -1.9776 -0.323 -0.835 0.445 79 55 27 0 0
-0.0046 0.0230 -0.9247 -0.096 -0.866 0.491 154 127 91 0 0
-0.0078 0.0275 -1.1960 0.554 -0.564 0.612 102 84 45 0 0
-0.0148 -0.0128 -1.2101 0.486 -0.452 0.748 82 66 42 0 0
-0.0158 -0.0186 -1.2128 0.398 -0.527 0.751 93 78 48 0 0
-0.0279 -0.0857 -1.2600 -0.257 -0.835 -0.486 47 33 20 0 0
-0.0430 -0.1623 -1.4073 -0.448 -0.571 0.688 166 135 88 0 0
-0.0443 -0.1679 -1.4250 -0.050 -0.844 0.534 156 125 80 0 0
-0.0447 -0.1704 -1.4290 -0.050 -0.844 0.534 173 143 96 0 0
-0.0482 -0.1906 -1.4340 -0.384 -0.809 0.445 172 142 104 0 0
-0.0486 -0.1927 -1.4381 -0.384 -0.809 0.445 157 128 92 0 0
-0.0497 -0.1982 -1.4455 -0.443 -0.748 0.494 122 94 53 0 0
-0.0542 -0.2217 -1.4847 -0.024 -0.965 0.263 78 55 24 0 0
-0.0557 -0.2288 -1.5016 -0.081 -0.944 0.321 66 42 16 0 0
-0.0571 -0.2360 -1.5132 -0.052 -0.998 -0.043 70 49 23 0 0
-0.0573 -0.2359 -1.5289 -0.254 -0.949 -0.189 79 55 24 0 0
-0.0575 -0.2365 -1.5338 -0.210 -0.975 0.073 79 56 24 0 0
-0.0587 -0.2416 -1.5571 -0.247 -0.697 0.673 71 47 21 0 0
-0.0636 -0.2675 -1.5895 -0.063 -0.685 0.726 160 127 83 0 0
-0.0648 -0.2748 -1.5905 -0.004 -0.403 0.915 158 129 82 0 0
-0.0744 -0.3254 -1.6601 0.206 -0.757 -0.620 92 68 32 0 0
-0.0707 -0.2966 -1.7378 -0.398 -0.798 0.453 93 69 35 0 0
-0.0713 -0.2994 -1.7469 -0.278 -0.947 0.162 71 43 17 0 0
-0.0737 -0.3097 -1.7950 -0.345 -0.923 0.170 78 53 23 0 0
-0.0752 -0.3165 -1.8180 -0.148 -0.881 0.450 73 48 18 0 0
-0.0761 -0.3214 -1.8258 -0.022 -0.811 0.584 75 50 20 0 0
-0.0775 -0.3275 -1.8437 -0.296 -0.869 0.396 78 53 23 0 0
-0.0789 -0.3352 -1.8550 -0.305 -0.898 0.317 82 59 28 0 0
-0.0787 -0.3328 -1.8680 -0.079 -0.844 0.530 78 55 24 0 0
-0.0949 -0.4105 -2.0716 -0.251 -0.876 0.412 89 66 35 0 0
-0.1023 -0.4472 -2.1525 -0.128 -0.922 0.366 97 74 40 0 0
-0.0062 0.0625 -1.1636 0.472 -0.840 -0.268 187 187 187 0 0
-0.0327 -0.0894 -1.2279 -0.214 -0.773 0.598 143 121 97 0 0
-0.0625 -0.2371 -1.5540 -0.110 -0.841 0.530 79 55 26 0 0
-0.0659 -0.2550 -1.5752 0.016 -0.832 0.555 85 60 25 0 0
-0.0668 -0.2599 -1.5829 -0.111 -0.489 0.865 134 110 72 0 0
-0.0681 -0.2668 -1.5894 -0.009 -0.816 0.578 159 127 84 0 0
-0.0783 -0.3266 -1.6009 -0.423 -0.837 0.349 167 142 100 0 0
-0.0817 -0.3432 -1.6378 -0.571 -0.810 0.133 84 61 34 0 0
-0.0779 -0.3183 -1.6641 0.085 -0.749 -0.657 93 70 33 0 0
-0.0728 -0.2846 -1.7015 -0.384 -0.770 0.510 95 76 40 0 0
-0.0777 -0.3060 -1.7858 0.042 -0.924 0.380 85 61 31 0 0
-0.0782 -0.3084 -1.7952 -0.335 -0.902 0.271 76 51 21 0 0
-0.0791 -0.3129 -1.8033 -0.334 -0.862 0.381 76 51 21 0 0
-0.0795 -0.3129 -1.8310 0.174 -0.983 0.060 73 48 19 0 0
-0.0798 -0.3138 -1.8360 0.230 -0.970 0.083 74 49 20 0 0
-0.0868 -0.3487 -1.9122 0.087 -0.976 0.199 77 52 26 0 0
-0.0870 -0.3496 -1.9172 -0.093 -0.947 0.306 80 55 28 0 0
-0.0902 -0.3642 -1.9688 -0.216 -0.901 0.376 76 53 27 0 0
-0.0930 -0.3775 -2.0045 -0.283 -0.889 0.361 82 58 29 0 0
-0.0934 -0.3792 -2.0089 -0.026 -0.935 0.353 83 59 29 0 0
-0.0988 -0.4071 -2.0562 0.044 -0.948 0.314 82 59 28 0 0
-0.0993 -0.4100 -2.0597 -0.522 -0.835 0.173 83 60 29 0 0
-0.0986 -0.4047 -2.0698 -0.139 -0.800 0.584 82 59 28 0 0
-0.1089 -0.4583 -2.1541 -0.094 -0.865 0.493 90 68 31 0 0
-0.1093 -0.4605 -2.1580 -0.094 -0.865 0.493 106 84 45 0 0
-0.1098 -0.4627 -2.1620 -0.094 -0.865 0.493 104 82 42 0 0
-0.1103 -0.4655 -2.1655 -0.181 -0.922 0.342 99 77 35 0 0
-0.0032 0.0842 -0.8950 -0.020 -0.193 0.981 142 134 123 0 0
-0.0164 0.0115 -0.9679 -0.246 -0.858 0.450 89 68 40 0 0
-0.0172 0.0073 -0.9713 -0.177 -0.983 0.044 95 72 41 0 0
-0.0095 0.0713 -1.1615 -0.298 -0.096 0.950 191 191 193 0 0
-0.0142 0.0455 -1.1871 -0.305 -0.843 0.442 53 42 29 0 0
-0.0439 -0.1154 -1.3677 -0.446 -0.691 0.570 174 146 111 0 0
-0.0614 -0.2106 -1.4690 -0.449 -0.790 0.417 113 86 50 0 0
-0.0611 -0.2077 -1.4758 -0.132 -0.972 0.193 108 82 52 0 0
-0.0869 -0.3497 -1.6123 -0.028 -0.930 0.367 62 43 21 0 0
