ply
format ascii 1.0
element vertex 857
property float x
property float y
property float z
property float nx
property float ny
property float nz
property uchar diffuse_red
property uchar diffuse_green
property uchar diffuse_blue
property uchar class
property uchar detection
end_header
0.0994 -0.0617 -1.3108 0.434 -0.833 0.344 60 40 17 0 0
0.1002 -0.0630 -1.3152 0.397 -0.853 0.339 73 56 38 0 0
0.0993 -0.0619 -1.3260 0.588 -0.809 0.017 31 22 12 0 0
0.1330 -0.1090 -1.3957 0.468 -0.629 0.620 224 194 147 0 0
0.1347 -0.1114 -1.3994 0.468 -0.629 0.620 191 164 124 0 0
0.1358 -0.1129 -1.4036 0.542 -0.581 0.608 240 219 177 0 0
0.1368 -0.1143 -1.4078 0.707 -0.632 0.318 240 219 173 0 0
0.1635 -0.1518 -1.4718 0.862 -0.398 0.312 94 69 35 0 0
0.1865 -0.1843 -1.5488 0.186 -0.810 0.556 72 51 22 0 0
0.2185 -0.2286 -1.5957 0.372 -0.108 0.922 144 114 71 0 0
0.2220 -0.2334 -1.5974 0.341 -0.275 0.899 156 125 79 0 0
0.2360 -0.2525 -1.6041 0.050 -0.464 0.884 150 125 82 0 0
0.2381 -0.2555 -1.6071 0.599 -0.707 0.375 212 188 143 0 0
0.2397 -0.2577 -1.6106 0.721 -0.646 0.253 210 185 138 0 0
0.2517 -0.2741 -1.6191 0.304 -0.634 0.711 79 54 27 0 0
0.2194 -0.2328 -1.7589 0.587 -0.720 0.371 59 37 15 0 0
0.2231 -0.2381 -1.7710 0.471 -0.761 0.447 63 41 19 0 0
0.2266 -0.2430 -1.7834 0.583 -0.665 0.467 62 43 17 0 0
0.2602 -0.2916 -1.9420 0.328 -0.877 0.351 79 52 25 0 0
0.2784 -0.3180 -2.0429 0.403 -0.908 0.117 83 58 28 0 0
0.2940 -0.3402 -2.0962 0.682 -0.651 0.333 72 49 21 0 0
0.2938 -0.3401 -2.1022 0.723 -0.544 0.426 75 55 25 0 0
0.2976 -0.3458 -2.1316 0.594 -0.670 0.445 70 49 22 0 0
0.3011 -0.3506 -2.1383 0.774 -0.549 0.316 71 51 24 0 0
0.3258 -0.3854 -2.2016 0.686 -0.692 0.227 91 70 28 0 0
0.3278 -0.3883 -2.2104 0.515 -0.800 0.309 107 85 44 0 0
0.0332 0.0265 -0.9745 0.272 -0.930 0.246 73 52 26 0 0
-0.0049 0.0743 -1.1683 0.338 -0.938 -0.071 172 170 173 0 0
0.0609 -0.0156 -1.2154 -0.019 -0.597 0.802 122 97 57 0 0
0.0948 -0.0625 -1.2663 0.704 -0.601 -0.378 52 34 13 0 0
0.0943 -0.0627 -1.3067 0.523 -0.774 0.356 66 48 24 0 0
0.0953 -0.0640 -1.3110 0.523 -0.774 0.356 71 54 30 0 0
0.0956 -0.0647 -1.3260 0.588 -0.809 0.017 35 26 15 0 0
0.1184 -0.0968 -1.3842 0.536 -0.741 0.404 179 157 116 0 0
0.1290 -0.1113 -1.3959 0.598 -0.519 0.611 233 203 155 0 0
0.1530 -0.1445 -1.4369 0.535 -0.677 0.505 103 78 38 0 0
0.1544 -0.1465 -1.4408 0.530 -0.723 0.442 93 68 30 0 0
0.1555 -0.1481 -1.4449 0.530 -0.723 0.442 95 72 34 0 0
0.1733 -0.1730 -1.4906 0.476 -0.673 0.566 85 62 30 0 0
0.1825 -0.1867 -1.5491 0.323 -0.788 0.524 77 56 26 0 0
0.2185 -0.2362 -1.5972 0.314 -0.370 0.874 137 106 61 0 0
0.2207 -0.2393 -1.6002 -0.006 -0.376 0.927 147 116 70 0 0
0.2358 -0.2599 -1.6057 0.554 -0.829 0.073 202 182 139 0 0
0.2142 -0.2333 -1.7442 0.507 -0.814 0.284 69 49 25 0 0
0.2183 -0.2391 -1.7614 0.488 -0.850 0.196 68 45 21 0 0
0.2177 -0.2386 -1.7728 0.497 -0.713 0.495 65 43 22 0 0
0.2201 -0.2419 -1.7756 0.578 -0.793 0.192 54 31 16 0 0
0.2226 -0.2455 -1.7836 0.660 -0.666 0.347 77 58 34 0 0
0.2243 -0.2477 -1.7872 0.630 -0.654 0.419 95 76 49 0 0
0.2398 -0.2718 -1.9401 -0.001 -0.996 0.094 76 49 22 0 0
0.2443 -0.2783 -1.9626 0.400 -0.821 0.406 78 51 24 0 0
0.2473 -0.2824 -1.9645 0.361 -0.763 0.536 77 52 23 0 0
0.2752 -0.3221 -2.0648 0.333 -0.441 0.834 79 54 24 0 0
0.2772 -0.3248 -2.0679 0.130 -0.828 0.545 81 55 26 0 0
0.2791 -0.3275 -2.0769 0.115 -0.824 0.555 123 96 52 0 0
0.2805 -0.3296 -2.0806 0.034 -0.808 0.588 135 108 60 0 0
0.2971 -0.3527 -2.1213 0.671 -0.618 0.410 70 49 22 0 0
0.2940 -0.3488 -2.1313 0.594 -0.670 0.445 70 49 22 0 0
0.3223 -0.3885 -2.2012 0.680 -0.662 0.316 99 77 36 0 0
0.3398 -0.4128 -2.2337 0.508 -0.620 0.597 82 62 27 0 0
0.3458 -0.4212 -2.2481 0.422 -0.840 0.342 74 60 25 0 0
0.3400 -0.4140 -2.2866 0.405 -0.856 0.320 105 100 85 0 0
-0.0426 0.1226 -0.9012 -0.039 0.083 0.996 175 179 182 0 0
-0.0065 0.0684 -1.1720 0.284 -0.749 0.598 47 42 39 0 0
-0.0046 0.0657 -1.1758 0.331 -0.844 0.423 20 14 8 0 0
-0.0034 0.0640 -1.1801 0.331 -0.844 0.423 28 22 15 0 0
0.0590 -0.0210 -1.2191 0.092 -0.671 0.736 111 93 54 0 0
0.0859 -0.0574 -1.2252 -0.015 -0.374 0.927 162 138 98 0 0
0.0917 -0.0673 -1.3260 0.572 -0.820 0.019 44 35 24 0 0
0.0946 -0.0718 -1.3542 0.601 -0.587 0.542 127 106 79 0 0
0.0956 -0.0732 -1.3586 0.466 -0.575 0.672 123 102 80 0 0
0.1225 -0.1100 -1.3880 0.492 -0.653 0.576 236 211 169 0 0
0.1367 -0.1297 -1.4119 0.566 -0.612 0.552 135 110 77 0 0
0.1382 -0.1318 -1.4157 0.566 -0.612 0.552 124 100 68 0 0
0.1565 -0.1574 -1.4612 0.593 -0.711 0.379 93 70 33 0 0
0.1600 -0.1624 -1.4735 0.716 -0.631 0.299 81 51 14 0 0
0.2036 -0.2235 -1.5875 0.333 -0.290 0.897 134 110 73 0 0
0.2075 -0.2289 -1.5888 0.448 -0.685 0.575 137 113 80 0 0
0.2172 -0.2458 -1.7746 0.602 -0.762 0.239 93 70 47 0 0
0.2587 -0.3061 -1.9905 0.760 -0.614 0.215 80 55 25 0 0
0.2672 -0.3186 -2.0418 0.366 -0.863 0.348 81 56 26 0 0
0.2681 -0.3199 -2.0464 0.544 -0.745 0.387 83 58 28 0 0
0.2691 -0.3214 -2.0507 0.544 -0.745 0.387 81 56 26 0 0
0.2754 -0.3304 -2.0767 0.130 -0.924 0.360 117 89 45 0 0
0.2765 -0.3319 -2.0810 0.130 -0.924 0.360 122 93 48 0 0
0.2939 -0.3562 -2.1204 0.478 -0.727 0.492 68 46 18 0 0
0.3006 -0.3661 -2.1572 0.468 -0.760 0.451 83 63 28 0 0
0.3410 -0.4224 -2.2497 0.473 -0.817 0.330 73 59 25 0 0
0.3377 -0.4186 -2.2843 0.432 -0.555 0.711 105 98 83 0 0
-0.0093 0.0641 -1.1763 0.445 -0.636 0.630 23 17 13 0 0
-0.0076 0.0617 -1.1803 0.540 -0.657 0.525 21 14 8 0 0
0.0542 -0.0223 -1.2197 0.049 -0.641 0.766 105 86 48 0 0
0.0873 -0.0670 -1.2315 0.172 -0.778 0.604 147 121 86 0 0
0.0889 -0.0693 -1.2353 0.207 -0.809 0.550 138 112 76 0 0
0.0855 -0.0660 -1.2925 0.646 -0.591 0.483 35 23 7 0 0
0.0859 -0.0666 -1.2973 0.717 -0.526 0.456 40 27 9 0 0
0.0881 -0.0701 -1.3208 0.563 -0.824 0.067 37 24 10 0 0
0.0879 -0.0699 -1.3260 0.572 -0.820 0.019 30 21 9 0 0
0.0878 -0.0699 -1.3312 0.535 -0.845 -0.025 31 21 7 0 0
0.1346 -0.1347 -1.4156 0.486 -0.692 0.534 140 114 72 0 0
0.1487 -0.1543 -1.4443 0.546 -0.625 0.558 89 65 25 0 0
0.1590 -0.1689 -1.4813 0.482 -0.690 0.540 84 60 20 0 0
0.1602 -0.1706 -1.4854 0.573 -0.674 0.467 82 61 28 0 0
0.1784 -0.1965 -1.5511 0.265 -0.836 0.480 69 48 18 0 0
0.1805 -0.1994 -1.5543 0.843 -0.398 0.361 68 46 17 0 0
0.1822 -0.2021 -1.5735 0.702 -0.709 0.063 83 55 22 0 0
0.1824 -0.2025 -1.5784 0.612 -0.742 0.273 81 54 17 0 0
0.1997 -0.2259 -1.5877 -0.041 -0.581 0.813 138 114 77 0 0
0.2100 -0.2400 -1.5983 0.261 -0.639 0.724 155 128 81 0 0
0.2120 -0.2428 -1.6015 0.357 -0.649 0.671 151 121 77 0 0
0.2049 -0.2356 -1.7139 0.507 -0.836 0.209 47 32 18 0 0
0.2108 -0.2447 -1.7667 0.604 -0.786 0.131 47 27 8 0 0
0.2117 -0.2459 -1.7712 0.648 -0.650 0.396 63 44 22 0 0
0.2126 -0.2472 -1.7756 0.547 -0.810 0.212 80 61 37 0 0
0.2159 -0.2518 -1.7828 0.595 -0.636 0.492 63 42 19 0 0
0.2173 -0.2538 -1.7866 0.506 -0.649 0.569 96 75 47 0 0
0.2564 -0.3109 -1.9943 0.610 -0.662 0.435 76 51 21 0 0
0.2586 -0.3141 -2.0027 0.640 -0.514 0.571 80 54 27 0 0
0.2693 -0.3298 -2.0683 0.288 -0.941 0.180 80 54 25 0 0
0.2691 -0.3297 -2.0743 0.253 -0.706 0.661 80 55 18 0 0
0.2703 -0.3314 -2.0785 0.306 -0.596 0.743 119 91 47 0 0
0.2723 -0.3341 -2.0815 0.306 -0.596 0.743 124 94 47 0 0
0.2743 -0.3369 -2.0846 0.306 -0.596 0.743 118 91 51 0 0
0.2937 -0.3642 -2.1443 0.556 -0.790 0.258 71 52 21 0 0
0.2944 -0.3653 -2.1491 0.556 -0.790 0.258 75 56 23 0 0
0.2954 -0.3668 -2.1534 0.565 -0.721 0.401 83 65 31 0 0
0.2965 -0.3683 -2.1577 0.565 -0.721 0.401 90 70 35 0 0
0.2980 -0.3705 -2.1614 0.559 -0.686 0.467 88 65 31 0 0
0.2992 -0.3721 -2.1655 0.622 -0.607 0.494 86 63 29 0 0
0.3371 -0.4249 -2.2501 0.473 -0.817 0.330 72 57 24 0 0
0.0502 -0.0247 -1.2199 0.205 -0.528 0.824 116 95 60 0 0
0.0852 -0.0721 -1.2402 0.065 -0.866 0.495 123 96 59 0 0
0.0822 -0.0691 -1.2872 0.341 -0.840 0.422 40 25 8 0 0
0.0845 -0.0726 -1.3056 0.712 -0.680 0.176 64 44 25 0 0
0.0841 -0.0724 -1.3159 0.563 -0.824 0.067 56 39 23 0 0
0.0833 -0.0714 -1.3216 0.552 -0.827 -0.105 43 29 15 0 0
0.1333 -0.1407 -1.4186 0.582 -0.651 0.487 105 75 37 0 0
0.1346 -0.1425 -1.4226 0.582 -0.651 0.487 127 97 59 0 0
0.1591 -0.1769 -1.4881 0.486 -0.804 0.343 80 59 23 0 0
0.1950 -0.2272 -1.5887 0.137 -0.433 0.891 140 115 77 0 0
0.2038 -0.2393 -1.5956 0.214 -0.471 0.856 137 108 67 0 0
0.2063 -0.2426 -1.5984 0.306 -0.709 0.635 144 116 74 0 0
0.2081 -0.2451 -1.6017 0.296 -0.681 0.669 147 117 73 0 0
0.2075 -0.2480 -1.7662 0.673 -0.677 0.298 57 38 21 0 0
0.2375 -0.2920 -1.9346 0.840 -0.532 0.111 72 46 21 0 0
0.2372 -0.2918 -1.9405 0.740 -0.528 0.416 71 45 20 0 0
0.2479 -0.3070 -1.9834 0.260 -0.692 0.674 77 50 23 0 0
0.2503 -0.3103 -1.9859 0.697 -0.585 0.414 77 51 22 0 0
0.2526 -0.3136 -1.9943 0.372 -0.818 0.439 76 51 21 0 0
0.2551 -0.3171 -2.0024 0.318 -0.754 0.575 89 66 35 0 0
0.2615 -0.3266 -2.0452 0.562 -0.772 0.298 81 56 26 0 0
0.2645 -0.3312 -2.0697 0.195 -0.971 0.139 83 57 27 0 0
0.2646 -0.3315 -2.0753 0.272 -0.795 0.542 82 58 22 0 0
0.2663 -0.3338 -2.0788 0.306 -0.596 0.743 119 93 49 0 0
0.2723 -0.3421 -2.0879 0.306 -0.596 0.743 95 71 36 0 0
0.2717 -0.3415 -2.0944 0.844 -0.512 0.161 80 57 27 0 0
0.2944 -0.3733 -2.1612 0.559 -0.686 0.467 88 65 31 0 0
0.2959 -0.3755 -2.1648 0.662 -0.597 0.453 90 67 33 0 0
0.2999 -0.3811 -2.1765 0.517 -0.596 0.614 89 66 31 0 0
0.3159 -0.4031 -2.2000 0.794 -0.549 0.263 105 82 41 0 0
0.3165 -0.4040 -2.2049 0.598 -0.722 0.348 103 80 39 0 0
-0.0219 0.0715 -0.8953 0.412 0.000 0.911 123 115 103 0 0
-0.0087 0.0512 -1.0129 0.026 -0.970 0.242 181 182 186 0 0
-0.0229 0.0666 -1.1698 0.629 -0.383 0.677 56 54 52 0 0
-0.0148 0.0555 -1.1799 0.605 -0.657 0.449 20 13 8 0 0
-0.0120 0.0515 -1.1882 0.395 -0.618 0.679 60 52 41 0 0
-0.0099 0.0486 -1.1919 0.408 -0.660 0.631 59 47 34 0 0
0.0420 -0.0214 -1.2179 0.180 -0.316 0.932 119 95 59 0 0
0.0456 -0.0264 -1.2204 0.262 -0.605 0.752 107 85 52 0 0
0.0804 -0.0734 -1.2409 0.361 -0.676 0.642 158 129 93 0 0
0.0812 -0.0770 -1.3507 0.584 -0.540 0.606 131 109 91 0 0
0.0828 -0.0792 -1.3546 0.559 -0.697 0.449 105 87 65 0 0
0.0854 -0.0828 -1.3576 0.522 -0.698 0.491 116 99 74 0 0
0.0869 -0.0848 -1.3616 0.418 -0.808 0.415 128 113 88 0 0
0.1438 -0.1631 -1.4524 0.450 -0.700 0.554 99 71 31 0 0
0.1444 -0.1640 -1.4569 0.369 -0.830 0.417 110 85 42 0 0
0.1619 -0.1887 -1.5079 0.448 -0.848 0.282 72 49 21 0 0
0.1564 -0.1817 -1.5284 0.052 -0.862 0.503 77 53 22 0 0
0.1928 -0.2319 -1.5872 0.404 -0.347 0.846 136 108 71 0 0
0.2353 -0.2968 -1.9327 0.836 -0.549 0.023 70 44 19 0 0
0.2463 -0.3127 -1.9862 0.510 -0.819 0.262 77 52 23 0 0
0.2478 -0.3148 -1.9900 0.465 -0.833 0.302 76 51 21 0 0
0.2484 -0.3158 -1.9948 0.372 -0.818 0.439 76 51 21 0 0
0.2490 -0.3167 -1.9997 0.206 -0.849 0.486 81 56 26 0 0
0.2560 -0.3266 -2.0247 0.388 -0.779 0.492 100 76 42 0 0
0.2594 -0.3315 -2.0429 0.694 -0.559 0.453 80 56 25 0 0
0.2582 -0.3303 -2.0558 0.649 -0.673 0.356 80 54 24 0 0
0.2659 -0.3413 -2.0857 0.634 -0.381 0.673 125 98 59 0 0
0.2771 -0.3571 -2.1222 0.329 -0.781 0.531 69 48 19 0 0
0.2818 -0.3637 -2.1388 0.422 -0.809 0.409 71 51 22 0 0
0.3072 -0.3989 -2.1898 0.288 -0.735 0.613 103 80 39 0 0
0.3220 -0.4196 -2.2263 0.739 -0.414 0.531 106 83 42 0 0
0.3294 -0.4300 -2.2503 0.463 -0.797 0.388 69 55 21 0 0
0.0074 0.0232 -0.9591 0.391 -0.905 0.168 73 53 28 0 0
-0.0282 0.0659 -1.1606 0.119 -0.835 0.538 190 190 195 0 0
-0.0262 0.0629 -1.1694 0.511 -0.598 0.618 50 46 43 0 0
-0.0224 0.0577 -1.1771 0.393 -0.665 0.635 19 14 11 0 0
-0.0158 0.0485 -1.1932 0.186 -0.809 0.558 58 46 30 0 0
0.0729 -0.0717 -1.2685 0.327 -0.868 -0.374 57 37 17 0 0
0.0730 -0.0733 -1.3287 0.750 -0.661 0.023 33 23 11 0 0
0.0778 -0.0803 -1.3504 0.584 -0.540 0.606 120 104 87 0 0
0.0791 -0.0820 -1.3545 0.559 -0.697 0.449 113 96 77 0 0
0.0815 -0.0853 -1.3577 0.492 -0.747 0.447 116 100 76 0 0
0.1279 -0.1489 -1.4271 0.346 -0.726 0.594 146 116 71 0 0
0.1528 -0.1846 -1.5283 0.850 -0.290 0.439 80 55 28 0 0
0.1547 -0.1872 -1.5317 0.872 -0.489 0.039 112 86 50 0 0
0.1582 -0.1920 -1.5388 0.733 -0.259 0.629 74 51 24 0 0
0.1608 -0.1956 -1.5416 0.557 -0.526 0.643 74 50 22 0 0
0.1891 -0.2345 -1.5872 0.365 -0.392 0.845 136 109 74 0 0
0.2028 -0.2530 -1.5945 0.879 0.037 0.476 135 106 65 0 0
0.2116 -0.2648 -1.6014 0.246 -0.643 0.725 162 131 86 0 0
0.2131 -0.2670 -1.6050 0.465 -0.709 0.531 157 125 79 0 0
0.2326 -0.2936 -1.6318 0.749 -0.590 0.301 76 52 25 0 0
0.2015 -0.2555 -1.7699 0.410 -0.812 0.415 54 33 12 0 0
0.2086 -0.2652 -1.7783 0.466 -0.810 0.356 87 67 42 0 0
0.2096 -0.2666 -1.7827 0.466 -0.810 0.356 96 75 47 0 0
0.2105 -0.2679 -1.7871 0.466 -0.810 0.356 67 42 16 0 0
0.2392 -0.3109 -1.9791 0.551 -0.705 0.446 78 51 24 0 0
0.2424 -0.3152 -1.9864 0.614 -0.742 0.269 77 51 22 0 0
0.2438 -0.3172 -1.9903 0.449 -0.782 0.432 77 52 22 0 0
0.2449 -0.3188 -1.9945 0.412 -0.747 0.522 77 52 22 0 0
0.2558 -0.3347 -2.0483 0.512 -0.717 0.474 82 56 27 0 0
0.2560 -0.3350 -2.0538 0.521 -0.785 0.336 80 53 24 0 0
0.2657 -0.3489 -2.0923 0.672 -0.652 0.352 83 61 29 0 0
0.2783 -0.3664 -2.1212 0.596 -0.768 0.234 71 51 22 0 0
0.2943 -0.3892 -2.1796 0.493 -0.605 0.626 91 69 33 0 0
0.3187 -0.4228 -2.2257 0.608 -0.582 0.541 104 81 39 0 0
-0.0040 0.0320 -0.9064 0.621 -0.772 0.140 118 100 73 0 0
0.0388 -0.0327 -1.2199 0.534 -0.270 0.801 135 108 75 0 0
0.0680 -0.0744 -1.3296 0.512 -0.837 0.192 32 21 9 0 0
0.0798 -0.0909 -1.3611 0.586 -0.748 0.310 110 96 76 0 0
0.1002 -0.1186 -1.3857 0.399 -0.702 0.589 166 138 96 0 0
0.1050 -0.1253 -1.3971 0.439 -0.669 0.600 171 145 114 0 0
0.1201 -0.1458 -1.4152 0.319 -0.633 0.706 157 131 87 0 0
0.1293 -0.1586 -1.4329 0.522 -0.715 0.465 122 96 58 0 0
0.1379 -0.1707 -1.4560 0.497 -0.625 0.602 106 83 40 0 0
0.1595 -0.2015 -1.5445 0.426 -0.857 0.290 77 54 23 0 0
0.2027 -0.2602 -1.5858 0.945 -0.318 -0.073 137 110 71 0 0
0.2012 -0.2582 -1.5925 0.868 -0.497 -0.012 140 114 77 0 0
0.2009 -0.2580 -1.5980 0.762 -0.474 0.440 128 101 62 0 0
0.2046 -0.2629 -1.5995 0.656 -0.498 0.568 142 115 72 0 0
0.2069 -0.2663 -1.6075 0.423 -0.664 0.616 146 114 70 0 0
0.2240 -0.2888 -1.6008 0.395 -0.702 0.593 178 149 106 0 0
0.2239 -0.2894 -1.6265 0.450 -0.787 0.423 75 51 23 0 0
0.1940 -0.2521 -1.7311 0.652 -0.634 0.415 56 39 22 0 0
0.2112 -0.2774 -1.8255 0.867 -0.450 0.216 70 44 19 0 0
0.2333 -0.3098 -1.9427 0.351 -0.847 0.399 77 51 26 0 0
0.2397 -0.3196 -1.9906 0.460 -0.828 0.321 76 51 21 0 0
0.2409 -0.3213 -1.9947 0.449 -0.782 0.432 77 52 22 0 0
0.2516 -0.3368 -2.0489 0.616 -0.715 0.331 83 57 27 0 0
0.2522 -0.3377 -2.0538 0.563 -0.766 0.310 80 53 24 0 0
0.2608 -0.3500 -2.0881 0.481 -0.708 0.518 86 65 28 0 0
0.2627 -0.3527 -2.0913 0.635 -0.582 0.508 77 58 26 0 0
0.2636 -0.3540 -2.0958 0.587 -0.795 0.154 76 55 23 0 0
0.2922 -0.3940 -2.1773 0.600 -0.744 0.293 88 65 30 0 0
0.3108 -0.4200 -2.2200 0.689 -0.611 0.390 105 83 41 0 0
0.3152 -0.4260 -2.2311 0.452 -0.685 0.572 104 81 40 0 0
-0.0078 0.0298 -0.8971 0.604 -0.797 -0.025 126 108 80 0 0
-0.0083 0.0302 -0.9067 0.656 -0.727 0.202 121 104 76 0 0
-0.0229 0.0420 -1.1978 0.434 -0.512 0.741 81 67 36 0 0
-0.0200 0.0380 -1.2010 0.432 -0.409 0.804 79 62 25 0 0
0.0434 -0.0467 -1.2241 0.118 -0.141 0.983 134 108 70 0 0
0.0470 -0.0516 -1.2265 0.171 -0.160 0.972 120 97 60 0 0
0.0516 -0.0578 -1.2284 0.171 -0.160 0.972 123 98 62 0 0
0.0667 -0.0783 -1.2476 0.309 -0.816 0.489 90 64 35 0 0
0.0730 -0.0868 -1.2530 0.590 -0.806 -0.053 49 27 6 0 0
0.0726 -0.0888 -1.3536 0.777 -0.512 0.366 115 99 83 0 0
0.0743 -0.0912 -1.3574 0.678 -0.558 0.479 120 103 81 0 0
0.1494 -0.1950 -1.5142 0.480 -0.758 0.442 68 44 20 0 0
0.1554 -0.2037 -1.5449 0.426 -0.857 0.290 81 58 26 0 0
0.1989 -0.2625 -1.5808 0.890 -0.446 0.097 145 116 75 0 0
0.1992 -0.2630 -1.5857 0.890 -0.446 0.097 138 112 74 0 0
0.1987 -0.2624 -1.5914 0.827 -0.544 -0.140 147 120 81 0 0
0.1981 -0.2617 -1.5971 0.762 -0.474 0.440 144 113 73 0 0
0.2006 -0.2652 -1.5998 0.657 -0.687 0.309 150 120 80 0 0
0.2015 -0.2665 -1.6040 0.423 -0.664 0.616 159 130 90 0 0
0.1978 -0.2636 -1.6807 0.498 -0.553 -0.667 72 55 34 0 0
0.1927 -0.2590 -1.7659 0.607 -0.732 0.308 55 34 16 0 0
0.1935 -0.2603 -1.7704 0.607 -0.732 0.308 54 33 15 0 0
0.1944 -0.2615 -1.7749 0.607 -0.732 0.308 48 27 10 0 0
0.2029 -0.2741 -1.8252 0.499 -0.867 -0.007 69 43 18 0 0
0.2028 -0.2741 -1.8308 0.475 -0.876 0.087 70 44 19 0 0
0.2289 -0.3126 -1.9769 0.550 -0.496 0.672 80 53 26 0 0
0.2342 -0.3198 -1.9873 0.527 -0.718 0.455 74 48 20 0 0
0.2346 -0.3206 -1.9923 0.577 -0.717 0.390 75 50 20 0 0
0.2389 -0.3265 -2.0038 0.599 -0.638 0.483 79 56 25 0 0
0.2480 -0.3398 -2.0487 0.616 -0.715 0.331 83 55 26 0 0
0.2489 -0.3411 -2.0532 0.616 -0.715 0.331 80 53 24 0 0
0.2630 -0.3614 -2.1145 0.480 -0.792 0.377 72 51 22 0 0
0.3097 -0.4264 -2.2278 0.480 -0.646 0.594 104 81 39 0 0
0.3113 -0.4285 -2.2314 0.480 -0.646 0.594 102 79 38 0 0
0.3128 -0.4307 -2.2349 0.480 -0.646 0.594 101 82 41 0 0
0.3264 -0.4493 -2.2554 0.683 -0.693 0.230 78 64 38 0 0
0.3271 -0.4503 -2.2603 0.683 -0.693 0.230 72 62 38 0 0
-0.0399 0.0572 -1.1706 0.331 -0.797 0.506 15 10 8 0 0
-0.0260 0.0382 -1.1973 0.481 -0.573 0.664 78 63 32 0 0
0.0255 -0.0305 -1.2187 0.004 -0.438 0.899 108 84 48 0 0
0.0325 -0.0399 -1.2189 0.356 -0.251 0.900 125 99 61 0 0
0.0363 -0.0449 -1.2213 0.363 -0.201 0.910 140 114 76 0 0
0.0492 -0.0622 -1.2274 0.352 -0.121 0.928 122 98 61 0 0
0.0516 -0.0655 -1.2307 0.206 -0.207 0.956 137 112 73 0 0
0.0635 -0.0819 -1.2571 0.347 -0.898 0.271 55 33 12 0 0
0.0677 -0.0900 -1.3494 0.613 -0.699 0.369 105 90 73 0 0
0.0687 -0.0914 -1.3537 0.613 -0.699 0.369 99 84 69 0 0
0.0700 -0.0932 -1.3578 0.616 -0.634 0.468 137 119 97 0 0
0.0909 -0.1216 -1.3820 0.338 -0.783 0.522 134 107 63 0 0
0.1214 -0.1633 -1.4332 0.460 -0.760 0.460 128 102 61 0 0
0.1362 -0.1839 -1.4715 0.486 -0.709 0.512 85 56 22 0 0
0.1459 -0.1979 -1.5141 0.534 -0.682 0.499 69 45 18 0 0
0.1513 -0.2058 -1.5452 0.426 -0.857 0.290 79 56 24 0 0
0.1906 -0.2591 -1.5853 -0.036 -0.424 0.905 141 113 73 0 0
0.1952 -0.2652 -1.5860 0.383 -0.912 0.144 133 106 70 0 0
0.1960 -0.2663 -1.5904 0.406 -0.907 -0.110 145 116 77 0 0
0.1946 -0.2646 -1.5969 0.479 -0.857 0.189 153 122 80 0 0
0.1964 -0.2671 -1.6003 0.243 -0.970 -0.033 149 119 79 0 0
0.1984 -0.2699 -1.6035 0.169 -0.899 0.403 151 122 83 0 0
0.2131 -0.2893 -1.6044 0.747 -0.627 0.221 161 132 94 0 0
0.2156 -0.2928 -1.6122 0.601 -0.653 0.462 79 57 24 0 0
0.1900 -0.2632 -1.7703 0.607 -0.732 0.308 44 25 10 0 0
0.1908 -0.2644 -1.7748 0.607 -0.732 0.308 42 24 9 0 0
0.1990 -0.2760 -1.8036 0.730 -0.582 0.360 69 43 18 0 0
0.1986 -0.2761 -1.8258 0.416 -0.878 -0.237 68 42 18 0 0
0.1980 -0.2755 -1.8319 0.371 -0.916 -0.152 69 43 20 0 0
0.1973 -0.2747 -1.8381 0.371 -0.916 -0.152 72 46 23 0 0
0.2269 -0.3176 -1.9748 0.337 -0.782 0.525 78 52 26 0 0
0.2315 -0.3241 -1.9915 0.548 -0.681 0.485 74 48 21 0 0
0.2328 -0.3260 -1.9954 0.584 -0.685 0.437 79 53 24 0 0
0.2354 -0.3296 -2.0035 0.656 -0.637 0.406 78 53 24 0 0
0.2564 -0.3601 -2.1010 0.482 -0.677 0.557 65 43 14 0 0
0.2579 -0.3622 -2.1047 0.482 -0.677 0.557 69 48 20 0 0
0.2610 -0.3664 -2.1120 0.430 -0.821 0.375 73 52 23 0 0
0.2620 -0.3679 -2.1164 0.430 -0.821 0.375 74 53 24 0 0
0.2625 -0.3687 -2.1215 0.552 -0.764 0.335 74 53 24 0 0
0.2634 -0.3700 -2.1260 0.552 -0.764 0.335 72 51 22 0 0
0.2646 -0.3717 -2.1301 0.527 -0.727 0.440 71 50 21 0 0
0.2650 -0.3728 -2.1526 0.636 -0.660 0.401 72 51 21 0 0
0.2671 -0.3759 -2.1612 0.613 -0.697 0.372 82 61 30 0 0
0.2680 -0.3771 -2.1659 0.365 -0.860 0.356 83 62 30 0 0
-0.0406 0.0499 -1.1837 0.529 -0.568 0.631 55 45 38 0 0
-0.0333 0.0402 -1.1893 0.525 -0.789 0.320 61 49 33 0 0
-0.0322 0.0385 -1.1936 0.623 -0.365 0.692 58 45 24 0 0
0.0296 -0.0438 -1.2183 0.347 -0.180 0.920 119 93 56 0 0
0.0389 -0.0559 -1.2170 0.927 -0.213 0.310 123 97 60 0 0
0.0466 -0.0663 -1.2266 0.431 -0.055 0.901 117 93 55 0 0
0.0480 -0.0684 -1.2306 0.311 -0.239 0.920 139 115 77 0 0
0.0533 -0.0755 -1.2368 0.417 -0.825 0.382 122 97 70 0 0
0.0557 -0.0813 -1.3302 0.347 -0.907 0.238 47 34 18 0 0
0.0637 -0.0923 -1.3496 0.456 -0.787 0.415 106 90 74 0 0
0.0651 -0.0943 -1.3535 0.587 -0.687 0.428 106 89 73 0 0
0.0663 -0.0960 -1.3577 0.436 -0.712 0.550 127 108 83 0 0
0.0882 -0.1257 -1.3863 0.284 -0.726 0.627 182 153 103 0 0
0.0932 -0.1327 -1.3974 0.392 -0.688 0.610 166 144 111 0 0
0.1063 -0.1503 -1.4122 0.414 -0.664 0.623 200 170 117 0 0
0.1085 -0.1534 -1.4155 0.689 -0.694 0.210 179 149 95 0 0
0.1117 -0.1578 -1.4229 0.498 -0.595 0.631 136 105 60 0 0
0.1164 -0.1642 -1.4292 0.661 -0.498 0.562 109 85 44 0 0
0.1344 -0.1891 -1.4698 0.671 -0.721 0.173 83 56 19 0 0
0.1380 -0.1946 -1.4973 0.648 -0.697 0.308 82 59 26 0 0
0.1501 -0.2120 -1.5480 0.512 -0.784 0.349 81 58 25 0 0
0.1849 -0.2591 -1.5873 0.091 -0.205 0.974 139 110 71 0 0
0.1915 -0.2678 -1.5912 0.300 -0.954 0.005 145 115 77 0 0
0.1927 -0.2695 -1.5952 0.581 -0.482 0.656 151 122 80 0 0
0.1963 -0.2744 -1.6020 0.589 -0.387 0.709 159 130 91 0 0
0.2028 -0.2830 -1.6007 0.576 -0.411 0.706 161 134 96 0 0
0.2098 -0.2923 -1.6041 0.268 -0.920 0.287 156 129 88 0 0
0.2193 -0.3057 -1.6304 0.528 -0.826 -0.199 85 58 31 0 0
0.1851 -0.2642 -1.7606 0.393 -0.919 0.016 59 37 15 0 0
0.1958 -0.2795 -1.8029 0.620 -0.751 0.225 68 42 17 0 0
0.2243 -0.3220 -1.9788 0.365 -0.751 0.551 75 49 24 0 0
0.2290 -0.3286 -1.9955 0.638 -0.687 0.348 79 54 25 0 0
0.2293 -0.3292 -2.0007 0.354 -0.843 0.405 80 55 25 0 0
0.2323 -0.3332 -2.0026 0.702 -0.617 0.355 79 54 24 0 0
0.2424 -0.3479 -2.0518 0.528 -0.844 0.089 75 49 22 0 0
0.2541 -0.3649 -2.1047 0.482 -0.677 0.557 71 50 21 0 0
0.2570 -0.3691 -2.1180 0.723 -0.549 0.419 74 53 24 0 0
0.2584 -0.3710 -2.1219 0.612 -0.623 0.487 78 57 28 0 0
0.2597 -0.3728 -2.1259 0.612 -0.623 0.487 76 55 26 0 0
0.2610 -0.3746 -2.1299 0.612 -0.623 0.487 71 50 21 0 0
0.2615 -0.3759 -2.1522 0.636 -0.660 0.401 70 49 18 0 0
0.2635 -0.3789 -2.1610 0.500 -0.780 0.376 75 54 23 0 0
0.2662 -0.3826 -2.1689 0.488 -0.695 0.529 73 52 26 0 0
0.3170 -0.4521 -2.2525 0.350 -0.882 0.314 80 66 39 0 0
-0.0197 0.0205 -0.9777 0.432 -0.808 -0.401 82 62 35 0 0
-0.0334 0.0379 -0.9993 0.395 -0.573 -0.719 87 77 68 0 0
-0.0479 0.0520 -1.1707 0.290 -0.734 0.614 52 48 47 0 0
-0.0373 0.0375 -1.1893 0.525 -0.789 0.320 65 53 37 0 0
-0.0162 0.0093 -1.2061 0.268 -0.333 0.904 109 90 45 0 0
0.0205 -0.0395 -1.2219 0.103 -0.423 0.900 122 99 61 0 0
0.0258 -0.0466 -1.2233 0.293 -0.699 0.652 125 101 63 0 0
0.0334 -0.0565 -1.2231 0.179 -0.863 0.472 112 89 51 0 0
0.0356 -0.0595 -1.2266 0.024 -0.933 0.359 115 92 54 0 0
0.0387 -0.0637 -1.2294 -0.176 -0.413 0.894 117 93 55 0 0
0.0514 -0.0808 -1.2405 0.545 -0.821 0.170 151 124 95 0 0
0.0515 -0.0813 -1.2553 0.542 -0.822 0.175 76 53 26 0 0
0.1141 -0.1689 -1.4382 0.224 -0.804 0.551 103 80 40 0 0
0.1163 -0.1719 -1.4414 0.405 -0.812 0.419 112 89 45 0 0
0.1289 -0.1894 -1.4714 0.831 -0.506 0.232 90 64 25 0 0
0.1325 -0.1948 -1.4937 0.740 -0.598 0.307 87 63 27 0 0
0.1342 -0.1971 -1.4973 0.508 -0.759 0.407 84 60 27 0 0
0.1351 -0.1984 -1.5017 0.562 -0.740 0.370 79 54 23 0 0
0.1361 -0.1998 -1.5059 0.546 -0.826 0.139 76 51 23 0 0
0.1372 -0.2015 -1.5100 0.539 -0.768 0.346 72 48 21 0 0
0.1379 -0.2025 -1.5145 0.537 -0.799 0.269 69 45 17 0 0
0.1410 -0.2068 -1.5220 0.574 -0.522 0.631 72 47 19 0 0
0.1463 -0.2145 -1.5480 0.512 -0.784 0.349 81 58 25 0 0
0.1889 -0.2718 -1.5902 0.537 -0.843 0.001 135 105 67 0 0
0.1894 -0.2727 -1.5948 0.776 -0.427 0.464 147 118 78 0 0
0.1925 -0.2769 -1.6021 0.436 -0.488 0.757 145 116 78 0 0
0.1999 -0.2866 -1.5999 0.666 -0.564 0.488 157 132 92 0 0
0.2064 -0.2951 -1.5987 0.348 -0.937 0.024 194 169 127 0 0
0.2162 -0.3089 -1.6299 0.773 -0.504 0.385 77 54 27 0 0
0.1726 -0.2541 -1.7163 0.555 -0.769 0.317 52 37 21 0 0
0.1842 -0.2702 -1.7469 0.431 -0.592 0.680 52 32 15 0 0
0.1979 -0.2915 -1.8618 0.713 -0.538 0.449 68 41 17 0 0
0.2114 -0.3110 -1.9232 0.056 -0.969 0.242 71 45 20 0 0
0.2385 -0.3505 -2.0520 0.649 -0.749 0.133 74 48 21 0 0
0.2518 -0.3698 -2.1143 0.419 -0.796 0.437 71 50 21 0 0
0.2554 -0.3749 -2.1266 0.435 -0.782 0.445 80 60 30 0 0
0.2626 -0.3855 -2.1687 0.665 -0.616 0.422 79 58 33 0 0
0.2747 -0.4018 -2.1807 0.561 -0.740 0.371 93 69 31 0 0
0.2757 -0.4033 -2.1851 0.561 -0.740 0.371 90 68 33 0 0
0.2967 -0.4321 -2.2245 0.405 -0.700 0.588 98 76 35 0 0
0.3067 -0.4455 -2.2332 0.353 -0.693 0.629 96 78 40 0 0
0.3083 -0.4477 -2.2366 0.353 -0.693 0.629 90 72 34 0 0
0.3112 -0.4518 -2.2439 0.547 -0.724 0.421 80 66 33 0 0
0.3141 -0.4558 -2.2513 0.527 -0.773 0.352 77 62 37 0 0
0.3153 -0.4574 -2.2554 0.472 -0.765 0.438 76 63 42 0 0
0.3167 -0.4594 -2.2591 0.553 -0.695 0.460 81 72 53 0 0
0.3104 -0.4517 -2.2803 0.346 -0.938 -0.031 152 149 143 0 0
-0.0270 0.0223 -0.9843 0.538 -0.507 -0.674 82 66 41 0 0
-0.0421 0.0359 -1.1899 0.353 -0.671 0.652 69 57 41 0 0
-0.0291 0.0185 -1.2018 0.468 -0.267 0.843 118 102 56 0 0
0.0267 -0.0555 -1.2250 -0.109 -0.418 0.902 114 92 53 0 0
0.0321 -0.0626 -1.2263 0.618 0.063 0.784 123 100 62 0 0
0.0348 -0.0663 -1.2294 0.377 -0.046 0.925 124 100 62 0 0
0.0649 -0.1100 -1.3732 0.139 -0.853 0.503 124 99 70 0 0
0.0853 -0.1376 -1.4028 0.277 -0.809 0.518 185 155 111 0 0
0.1316 -0.2014 -1.5014 0.686 -0.590 0.426 83 58 27 0 0
0.1339 -0.2046 -1.5097 0.507 -0.791 0.343 72 48 21 0 0
0.1347 -0.2058 -1.5141 0.584 -0.659 0.475 74 50 22 0 0
0.1364 -0.2082 -1.5176 0.446 -0.686 0.576 78 55 26 0 0
0.1372 -0.2093 -1.5221 0.542 -0.580 0.608 64 39 13 0 0
0.1388 -0.2116 -1.5257 0.542 -0.580 0.608 114 90 52 0 0
0.1405 -0.2139 -1.5294 0.542 -0.580 0.608 81 56 22 0 0
0.1431 -0.2176 -1.5373 0.610 -0.723 0.324 80 57 26 0 0
0.1403 -0.2141 -1.5450 0.500 -0.823 0.268 76 53 21 0 0
0.2020 -0.2967 -1.5994 0.348 -0.937 0.024 178 154 113 0 0
0.2104 -0.3087 -1.6321 0.422 -0.779 0.464 88 68 39 0 0
0.1789 -0.2713 -1.7646 0.545 -0.767 0.338 58 37 14 0 0
0.2084 -0.3151 -1.9332 0.405 -0.800 0.441 71 45 20 0 0
0.2104 -0.3179 -1.9364 0.151 -0.936 0.318 76 50 25 0 0
0.2342 -0.3522 -2.0413 0.426 -0.689 0.586 79 52 25 0 0
0.2349 -0.3535 -2.0517 0.649 -0.749 0.133 74 48 21 0 0
0.2477 -0.3721 -2.1147 0.419 -0.796 0.437 74 53 24 0 0
0.2488 -0.3737 -2.1188 0.413 -0.770 0.486 73 52 23 0 0
0.3044 -0.4502 -2.2369 0.302 -0.674 0.674 91 74 36 0 0
0.3075 -0.4545 -2.2439 0.547 -0.724 0.421 80 67 34 0 0
0.3103 -0.4584 -2.2513 0.527 -0.773 0.352 75 61 36 0 0
0.3115 -0.4601 -2.2554 0.527 -0.833 0.167 72 59 40 0 0
0.3125 -0.4616 -2.2597 0.472 -0.765 0.438 71 62 44 0 0
0.3059 -0.4536 -2.2813 0.330 -0.908 0.259 155 151 146 0 0
0.0790 -0.1369 -1.3998 0.141 -0.773 0.619 141 120 86 0 0
0.1178 -0.1896 -1.4592 0.384 -0.852 0.355 99 75 37 0 0
0.1263 -0.2018 -1.4977 0.587 -0.770 0.249 82 58 23 0 0
0.1279 -0.2041 -1.5014 0.507 -0.671 0.541 93 68 37 0 0
0.1293 -0.2060 -1.5053 0.598 -0.568 0.565 72 46 23 0 0
0.1341 -0.2129 -1.5215 0.446 -0.686 0.576 61 37 9 0 0
0.1383 -0.2186 -1.5332 0.459 -0.770 0.444 72 49 20 0 0
0.1384 -0.2190 -1.5381 0.526 -0.780 0.339 76 55 23 0 0
0.1369 -0.2172 -1.5447 0.522 -0.845 0.113 76 54 22 0 0
0.1386 -0.2195 -1.5483 0.603 -0.679 0.418 79 56 23 0 0
0.1419 -0.2242 -1.5607 0.358 -0.824 0.439 92 66 31 0 0
0.1461 -0.2301 -1.5723 0.215 -0.770 0.601 91 69 30 0 0
0.1487 -0.2337 -1.5802 0.378 -0.777 0.504 128 103 64 0 0
0.1652 -0.2557 -1.5904 0.276 -0.258 0.926 143 115 75 0 0
0.1709 -0.2631 -1.5901 0.134 -0.132 0.982 136 108 70 0 0
0.1717 -0.2643 -1.5945 0.187 -0.289 0.939 139 113 73 0 0
0.1911 -0.2898 -1.5963 0.242 -0.731 0.638 154 128 82 0 0
0.1686 -0.2647 -1.7394 0.573 -0.786 0.234 38 21 8 0 0
0.1693 -0.2657 -1.7440 0.322 -0.815 0.482 83 67 47 0 0
0.1789 -0.2799 -1.7983 0.534 -0.837 0.118 70 44 19 0 0
0.1804 -0.2823 -1.8074 0.491 -0.657 0.573 68 44 18 0 0
0.1899 -0.2964 -1.8622 0.471 -0.878 0.079 67 41 16 0 0
0.1915 -0.2987 -1.8714 0.526 -0.776 0.347 66 39 11 0 0
0.1924 -0.3001 -1.8758 0.526 -0.776 0.347 67 39 15 0 0
0.2173 -0.3362 -1.9903 0.680 -0.600 0.421 77 51 25 0 0
0.2130 -0.3312 -2.0126 0.152 -0.875 0.460 77 52 24 0 0
0.2297 -0.3538 -2.0366 0.232 -0.936 0.265 80 55 25 0 0
0.2296 -0.3538 -2.0424 0.452 -0.669 0.589 79 54 24 0 0
0.2291 -0.3534 -2.0486 0.492 -0.855 0.166 74 49 21 0 0
0.2425 -0.3729 -2.1108 0.514 -0.735 0.441 72 53 23 0 0
0.2453 -0.3770 -2.1242 0.197 -0.807 0.556 72 52 22 0 0
0.2962 -0.4473 -2.2434 0.664 -0.692 0.283 94 76 41 0 0
0.3051 -0.4589 -2.2419 0.557 -0.741 0.375 82 69 35 0 0
-0.0526 0.0347 -1.1663 0.904 -0.288 0.315 13 12 8 0 0
-0.0516 0.0331 -1.1758 0.782 -0.577 0.235 39 31 26 0 0
-0.0461 0.0253 -1.1925 0.626 -0.375 0.683 35 25 16 0 0
-0.0138 -0.0175 -1.2170 0.267 -0.304 0.914 94 77 50 0 0
0.0432 -0.0925 -1.2334 0.166 -0.759 0.629 134 110 77 0 0
0.0331 -0.0813 -1.2952 0.792 -0.493 0.361 43 28 8 0 0
0.0335 -0.0820 -1.3000 0.821 -0.552 0.145 62 47 24 0 0
0.0334 -0.0826 -1.3253 0.573 -0.816 0.080 34 21 10 0 0
0.0532 -0.1101 -1.3764 0.562 -0.417 0.715 121 96 60 0 0
0.1015 -0.1751 -1.4393 0.658 -0.706 0.263 107 82 41 0 0
0.1172 -0.1970 -1.4820 0.205 -0.902 0.381 83 58 19 0 0
0.1189 -0.1994 -1.4855 0.320 -0.764 0.560 96 71 35 0 0
0.1226 -0.2046 -1.4977 0.587 -0.770 0.249 86 63 27 0 0
0.1236 -0.2059 -1.5019 0.452 -0.778 0.436 90 67 35 0 0
0.1345 -0.2217 -1.5486 0.453 -0.842 0.293 85 62 29 0 0
0.1649 -0.2628 -1.5923 0.276 -0.258 0.926 134 106 68 0 0
0.1680 -0.2669 -1.5945 0.281 -0.221 0.934 126 100 61 0 0
0.1619 -0.2624 -1.7052 0.410 -0.886 0.217 79 56 26 0 0
0.1771 -0.2856 -1.8070 0.765 -0.635 0.108 67 43 17 0 0
0.2032 -0.3235 -1.9305 0.540 -0.841 0.015 70 44 19 0 0
0.2083 -0.3318 -1.9799 0.458 -0.714 0.530 74 48 23 0 0
0.2140 -0.3395 -1.9897 0.450 -0.562 0.694 82 56 29 0 0
0.3014 -0.4617 -2.2418 0.557 -0.741 0.375 84 71 37 0 0
-0.0394 0.0179 -0.9183 0.104 -0.801 0.589 88 68 42 0 0
-0.0368 0.0142 -0.9265 0.072 -0.745 0.663 116 93 64 0 0
-0.0300 -0.0038 -1.2049 0.620 -0.280 0.732 65 51 24 0 0
-0.0217 -0.0149 -1.2146 0.668 -0.228 0.709 91 74 49 0 0
0.0252 -0.0764 -1.2283 0.099 -0.319 0.943 133 111 71 0 0
0.0227 -0.0750 -1.2849 0.241 -0.809 0.537 57 40 23 0 0
0.0290 -0.0841 -1.3106 0.334 -0.913 0.233 53 35 16 0 0
0.1056 -0.1883 -1.4479 0.364 -0.757 0.543 98 72 33 0 0
0.1183 -0.2063 -1.4930 0.587 -0.770 0.249 64 43 11 0 0
0.1190 -0.2073 -1.4976 0.587 -0.770 0.249 84 64 29 0 0
0.1211 -0.2104 -1.5059 0.653 -0.633 0.416 61 39 12 0 0
0.1297 -0.2228 -1.5444 0.453 -0.842 0.293 67 44 16 0 0
0.1305 -0.2240 -1.5489 0.453 -0.842 0.293 67 43 14 0 0
0.1330 -0.2277 -1.5620 0.593 -0.737 0.325 91 65 30 0 0
0.1362 -0.2323 -1.5745 0.679 -0.425 0.599 94 71 31 0 0
0.1580 -0.2612 -1.5902 0.217 -0.256 0.942 141 113 75 0 0
0.1613 -0.2655 -1.5923 0.249 -0.239 0.939 135 107 68 0 0
0.1646 -0.2698 -1.5943 0.249 -0.239 0.939 131 104 64 0 0
0.1803 -0.2904 -1.5945 0.352 -0.331 0.876 132 109 72 0 0
0.1588 -0.2662 -1.7151 0.538 -0.819 0.201 69 47 24 0 0
0.1714 -0.2856 -1.8037 0.524 -0.841 0.138 71 45 20 0 0
0.1991 -0.3260 -1.9364 0.627 -0.769 -0.123 73 47 22 0 0
0.2192 -0.3559 -2.0516 0.202 -0.938 0.282 78 53 25 0 0
0.2539 -0.4044 -2.1540 0.549 -0.753 0.362 78 57 26 0 0
0.2662 -0.4216 -2.1888 0.750 -0.606 0.265 105 82 40 0 0
0.2675 -0.4236 -2.1985 0.571 -0.717 0.400 103 80 38 0 0
0.2870 -0.4496 -2.2170 0.595 -0.663 0.455 91 72 33 0 0
-0.0393 0.0080 -0.9827 0.612 -0.776 0.154 79 59 33 0 0
-0.0556 0.0229 -1.1683 0.841 -0.475 0.259 33 26 20 0 0
-0.0268 -0.0157 -1.2054 0.404 -0.449 0.797 94 76 51 0 0
-0.0252 -0.0180 -1.2093 0.314 -0.492 0.812 90 73 48 0 0
-0.0219 -0.0223 -1.2122 0.519 -0.140 0.843 87 70 44 0 0
0.0415 -0.1100 -1.3693 0.348 -0.710 0.612 113 89 54 0 0
0.1000 -0.1886 -1.4495 0.664 -0.700 0.262 98 73 34 0 0
0.1139 -0.2080 -1.4937 0.401 -0.844 0.355 76 53 21 0 0
0.1157 -0.2107 -1.5023 0.452 -0.778 0.436 77 55 25 0 0
0.1178 -0.2136 -1.5055 0.653 -0.633 0.416 63 41 14 0 0
0.1368 -0.2408 -1.5809 0.689 -0.527 0.497 130 106 65 0 0
0.1577 -0.2683 -1.5922 0.206 -0.116 0.972 144 118 79 0 0
0.1774 -0.2940 -1.5938 0.795 -0.275 0.540 143 120 88 0 0
0.1794 -0.2966 -1.5970 0.837 -0.345 0.424 120 97 68 0 0
0.1846 -0.3035 -1.6022 0.309 -0.624 0.718 172 149 110 0 0
0.1675 -0.2881 -1.8039 0.524 -0.841 0.138 70 45 19 0 0
0.2159 -0.3593 -2.0510 0.401 -0.693 0.599 80 55 26 0 0
0.2183 -0.3630 -2.0707 0.363 -0.886 0.289 78 52 24 0 0
0.2432 -0.3981 -2.1520 0.717 -0.616 0.326 78 55 24 0 0
0.2596 -0.4202 -2.1754 0.543 -0.719 0.434 91 68 35 0 0
0.2607 -0.4218 -2.1797 0.645 -0.644 0.412 86 63 29 0 0
0.2618 -0.4233 -2.1839 0.645 -0.644 0.412 96 73 34 0 0
0.2625 -0.4244 -2.1887 0.661 -0.654 0.369 104 81 39 0 0
0.2632 -0.4255 -2.1934 0.676 -0.689 0.263 103 80 39 0 0
0.2640 -0.4266 -2.1982 0.676 -0.689 0.263 107 84 42 0 0
-0.0620 0.0238 -1.1548 0.756 -0.598 0.265 11 8 7 0 0
-0.0626 0.0241 -1.1702 0.719 -0.426 0.550 34 25 19 0 0
-0.0336 -0.0146 -1.2022 0.312 -0.636 0.705 91 70 49 0 0
0.0390 -0.1145 -1.3734 0.629 -0.555 0.545 114 90 54 0 0
0.1086 -0.2084 -1.4848 0.339 -0.836 0.432 90 66 30 0 0
0.1118 -0.2131 -1.5025 0.452 -0.778 0.436 71 49 20 0 0
0.1130 -0.2149 -1.5065 0.454 -0.760 0.466 65 43 15 0 0
0.1249 -0.2321 -1.5627 0.580 -0.797 0.171 82 58 21 0 0
0.1733 -0.2960 -1.5942 0.315 -0.472 0.824 154 130 95 0 0
0.1763 -0.2999 -1.5964 0.473 -0.572 0.670 146 124 93 0 0
0.1512 -0.2735 -1.7741 0.383 -0.656 0.650 72 48 22 0 0
0.1666 -0.2950 -1.8170 0.506 -0.745 0.434 70 44 21 0 0
0.1894 -0.3285 -1.9334 0.480 -0.875 0.055 73 47 22 0 0
0.2399 -0.4013 -2.1455 0.690 -0.674 0.263 78 55 24 0 0
0.2431 -0.4058 -2.1585 0.706 -0.558 0.436 82 59 28 0 0
0.2527 -0.4188 -2.1740 0.554 -0.622 0.553 86 63 29 0 0
0.2539 -0.4205 -2.1781 0.248 -0.811 0.530 88 65 30 0 0
0.2581 -0.4264 -2.1895 0.365 -0.812 0.455 105 82 41 0 0
0.2594 -0.4281 -2.1935 0.365 -0.812 0.455 98 75 34 0 0
0.2656 -0.4367 -2.2078 0.496 -0.784 0.373 100 77 36 0 0
0.2757 -0.4502 -2.2225 0.489 -0.824 0.285 95 73 35 0 0
0.2816 -0.4584 -2.2370 0.344 -0.873 0.346 90 72 36 0 0
-0.0804 0.0426 -1.0786 0.816 -0.428 -0.389 56 45 29 0 0
-0.0773 0.0379 -1.0966 0.632 -0.199 0.749 35 30 23 0 0
-0.0748 0.0346 -1.1002 0.411 -0.187 0.892 22 19 13 0 0
-0.0436 -0.0091 -1.1961 0.499 -0.232 0.835 84 70 40 0 0
-0.0041 -0.0635 -1.2906 0.599 -0.795 -0.097 47 34 17 0 0
-0.0045 -0.0631 -1.2960 0.347 -0.866 0.360 59 44 30 0 0
0.0111 -0.0850 -1.3457 0.442 -0.443 0.780 68 54 27 0 0
0.0350 -0.1169 -1.3736 0.331 -0.634 0.699 124 99 64 0 0
0.1035 -0.2093 -1.4860 0.608 -0.597 0.523 93 69 33 0 0
0.1048 -0.2124 -1.5258 0.194 -0.838 0.510 71 47 22 0 0
0.1874 -0.3228 -1.6332 0.546 -0.676 0.495 102 81 48 0 0
0.1489 -0.2769 -1.7403 0.528 -0.773 0.352 55 43 25 0 0
0.1563 -0.2876 -1.7701 0.379 -0.892 0.246 75 51 25 0 0
0.1569 -0.2885 -1.7748 0.424 -0.899 0.107 67 43 17 0 0
0.1542 -0.2855 -1.7884 0.281 -0.615 0.737 85 64 38 0 0
0.1582 -0.2909 -1.7949 0.620 -0.579 0.530 69 45 17 0 0
0.1628 -0.2976 -1.8170 0.506 -0.745 0.434 72 46 23 0 0
0.1639 -0.2992 -1.8212 0.506 -0.745 0.434 69 43 20 0 0
0.1682 -0.3050 -1.8273 0.413 -0.715 0.564 70 44 21 0 0
0.1698 -0.3071 -1.8310 0.413 -0.715 0.564 72 46 23 0 0
0.1852 -0.3308 -1.9338 0.480 -0.875 0.055 77 51 26 0 0
0.1857 -0.3316 -1.9388 0.458 -0.882 0.110 77 51 26 0 0
0.1860 -0.3321 -1.9440 0.458 -0.882 0.110 77 51 26 0 0
0.1980 -0.3509 -2.0357 0.574 -0.768 0.285 80 58 26 0 0
0.2079 -0.3647 -2.0628 0.147 -0.852 0.502 80 55 25 0 0
0.2154 -0.3761 -2.1158 0.501 -0.806 0.315 78 58 27 0 0
0.2162 -0.3774 -2.1204 0.501 -0.806 0.315 77 58 27 0 0
0.2286 -0.3943 -2.1441 0.233 -0.968 0.090 76 53 22 0 0
0.2298 -0.3959 -2.1483 0.375 -0.869 0.324 76 53 22 0 0
0.2318 -0.3986 -2.1514 0.315 -0.691 0.651 77 54 23 0 0
0.2331 -0.4004 -2.1554 0.421 -0.706 0.570 78 55 24 0 0
0.2596 -0.4367 -2.2110 0.533 -0.800 0.277 99 76 35 0 0
0.2842 -0.4694 -2.2394 0.426 -0.793 0.436 76 61 28 0 0
0.2853 -0.4710 -2.2435 0.426 -0.793 0.436 73 59 30 0 0
-0.0620 0.0160 -0.9456 0.645 -0.526 0.555 62 44 22 0 0
-0.0613 0.0150 -0.9500 0.593 -0.716 0.368 65 46 22 0 0
-0.0717 0.0207 -1.1610 0.575 -0.737 0.355 38 29 19 0 0
0.0697 -0.1710 -1.4246 0.609 -0.670 0.425 150 118 75 0 0
0.1145 -0.2332 -1.5498 0.597 -0.756 0.268 81 58 25 0 0
0.1816 -0.3229 -1.6405 0.474 -0.817 -0.328 110 90 57 0 0
0.1445 -0.2785 -1.7303 0.394 -0.901 0.180 61 47 30 0 0
0.1595 -0.3006 -1.8056 0.382 -0.895 0.230 69 45 19 0 0
0.1588 -0.3003 -1.8226 0.517 -0.800 0.305 72 46 23 0 0
0.1596 -0.3015 -1.8271 0.517 -0.800 0.305 69 43 20 0 0
0.1612 -0.3036 -1.8309 0.506 -0.837 0.208 71 45 22 0 0
0.1814 -0.3336 -1.9395 0.562 -0.821 0.100 77 51 26 0 0
0.1924 -0.3507 -2.0211 0.422 -0.906 0.019 105 81 45 0 0
0.2114 -0.3787 -2.1160 0.599 -0.722 0.346 80 59 28 0 0
0.2220 -0.3933 -2.1421 0.511 -0.825 0.243 73 49 21 0 0
0.2287 -0.4022 -2.1505 0.498 -0.556 0.666 77 54 23 0 0
0.2302 -0.4042 -2.1542 0.415 -0.697 0.585 77 54 23 0 0
0.2506 -0.4320 -2.1953 0.379 -0.835 0.398 107 84 43 0 0
0.2531 -0.4353 -2.1976 0.644 -0.701 0.305 106 83 42 0 0
0.2808 -0.4725 -2.2389 0.560 -0.636 0.531 74 61 28 0 0
0.2812 -0.4732 -2.2441 0.429 -0.840 0.333 72 58 28 0 0
-0.0979 0.0562 -0.9039 -0.054 -0.990 0.130 142 136 127 0 0
-0.0971 0.0549 -0.9083 -0.264 -0.478 0.838 113 100 84 0 0
-0.0649 0.0121 -0.9499 0.593 -0.716 0.368 60 42 20 0 0
-0.0653 0.0095 -1.0317 0.900 -0.243 -0.362 75 60 39 0 0
-0.0671 0.0115 -1.0375 0.900 -0.243 -0.362 62 48 29 0 0
-0.0853 0.0312 -1.1366 0.307 -0.917 0.255 9 8 6 0 0
-0.0679 0.0078 -1.1663 0.809 -0.327 0.488 69 55 27 0 0
-0.0596 -0.0034 -1.1812 0.676 -0.296 0.675 59 44 20 0 0
-0.0486 -0.0182 -1.1994 0.214 -0.747 0.629 78 62 41 0 0
-0.0423 -0.0265 -1.2054 0.352 -0.512 0.784 98 86 69 0 0
0.0427 -0.1426 -1.3922 0.354 -0.674 0.649 179 144 99 0 0
0.0662 -0.1740 -1.4244 0.609 -0.670 0.425 141 108 65 0 0
0.0675 -0.1758 -1.4284 0.472 -0.739 0.480 124 93 50 0 0
0.1757 -0.3216 -1.6119 0.669 -0.649 0.362 65 44 18 0 0
0.1735 -0.3192 -1.6243 0.335 -0.766 0.549 83 62 33 0 0
0.1784 -0.3260 -1.6349 0.306 -0.861 0.405 107 88 57 0 0
0.1778 -0.3366 -1.9392 0.529 -0.726 0.440 77 51 26 0 0
0.1721 -0.3297 -1.9515 0.707 -0.557 0.436 77 53 25 0 0
0.2093 -0.3831 -2.1024 0.328 -0.838 0.435 73 51 22 0 0
0.2132 -0.3890 -2.1259 0.219 -0.907 0.360 70 50 19 0 0
0.2157 -0.3927 -2.1398 0.446 -0.812 0.376 72 48 20 0 0
0.2525 -0.4426 -2.2104 0.525 -0.699 0.486 99 76 35 0 0
0.2538 -0.4444 -2.2144 0.525 -0.699 0.486 102 79 38 0 0
-0.1026 0.0546 -0.9043 0.166 -0.938 -0.304 160 156 148 0 0
-0.0891 0.0284 -1.1366 0.461 -0.860 0.216 12 11 9 0 0
-0.0114 -0.0771 -1.2927 0.506 -0.466 0.726 44 32 16 0 0
-0.0062 -0.0838 -1.2941 0.546 -0.705 0.453 63 50 33 0 0
0.0342 -0.1390 -1.3858 0.334 -0.619 0.710 167 136 88 0 0
0.0368 -0.1424 -1.3888 0.354 -0.674 0.649 177 145 95 0 0
0.0632 -0.1777 -1.4237 0.156 -0.919 0.361 131 99 61 0 0
0.1064 -0.2377 -1.5504 0.538 -0.810 0.232 72 49 18 0 0
0.1396 -0.2819 -1.5918 0.401 -0.076 0.913 134 110 69 0 0
0.1431 -0.2864 -1.5937 0.401 -0.076 0.913 140 114 74 0 0
0.1707 -0.3225 -1.6132 0.413 -0.793 0.447 65 44 17 0 0
0.1704 -0.3224 -1.6186 0.458 -0.747 0.483 64 42 17 0 0
0.1426 -0.2922 -1.7619 0.408 -0.661 0.630 76 52 24 0 0
0.1749 -0.3402 -1.9326 0.459 -0.875 0.155 77 51 26 0 0
0.2051 -0.3853 -2.1030 0.403 -0.823 0.401 71 49 20 0 0
0.2194 -0.4053 -2.1470 0.728 -0.607 0.320 75 52 21 0 0
0.2389 -0.4319 -2.1895 0.460 -0.777 0.429 103 80 38 0 0
0.2504 -0.4476 -2.2138 0.544 -0.815 0.199 102 79 38 0 0
0.2595 -0.4596 -2.2241 0.555 -0.789 0.263 96 74 37 0 0
0.2616 -0.4624 -2.2268 0.275 -0.841 0.465 96 74 35 0 0
0.2729 -0.4778 -2.2511 0.406 -0.786 0.466 72 57 28 0 0
-0.0734 0.0064 -0.9885 0.458 -0.872 0.175 67 46 25 0 0
-0.0622 -0.0090 -1.0162 0.635 -0.743 -0.209 82 63 38 0 0
-0.0515 -0.0301 -1.2063 0.270 -0.615 0.740 102 90 73 0 0
-0.0196 -0.0739 -1.2856 -0.091 -0.994 -0.057 76 66 51 0 0
0.0301 -0.1414 -1.3859 0.334 -0.619 0.710 166 137 90 0 0
0.0341 -0.1467 -1.3930 0.289 -0.788 0.544 142 111 63 0 0
0.0694 -0.1941 -1.4512 0.553 -0.617 0.561 106 81 40 0 0
0.0824 -0.2120 -1.4861 0.757 -0.644 0.111 79 56 23 0 0
0.1219 -0.2665 -1.5895 -0.137 -0.680 0.720 154 127 80 0 0
0.1351 -0.2833 -1.5875 0.403 -0.242 0.883 138 112 76 0 0
0.1380 -0.2871 -1.5898 0.403 -0.242 0.883 134 110 69 0 0
0.1276 -0.2785 -1.7095 0.516 -0.752 0.411 86 67 35 0 0
0.1285 -0.2798 -1.7139 0.493 -0.819 0.294 86 68 35 0 0
0.1427 -0.3024 -1.8278 0.495 -0.827 0.267 67 41 18 0 0
0.1438 -0.3040 -1.8321 0.390 -0.863 0.322 67 41 18 0 0
0.1446 -0.3052 -1.8366 0.390 -0.863 0.322 68 42 19 0 0
0.1605 -0.3272 -1.8790 0.199 -0.739 0.644 75 49 24 0 0
0.1711 -0.3424 -1.9217 0.009 -0.923 -0.385 77 51 26 0 0
0.2015 -0.3884 -2.1026 0.533 -0.739 0.411 71 49 20 0 0
0.2148 -0.4069 -2.1423 0.705 -0.691 0.156 75 52 21 0 0
0.2257 -0.4215 -2.1622 0.404 -0.697 0.592 82 59 26 0 0
0.2283 -0.4251 -2.1701 0.631 -0.569 0.528 87 65 28 0 0
0.2309 -0.4293 -2.1895 0.517 -0.824 0.230 93 71 32 0 0
0.2373 -0.4375 -2.1922 0.520 -0.712 0.472 103 80 38 0 0
0.2676 -0.4784 -2.2476 0.466 -0.737 0.490 71 56 27 0 0
0.2689 -0.4802 -2.2515 0.466 -0.737 0.490 73 58 29 0 0
-0.0658 -0.0186 -1.1828 0.591 -0.487 0.643 51 37 14 0 0
-0.0218 -0.0781 -1.2694 0.144 -0.857 -0.495 67 56 40 0 0
-0.0157 -0.0893 -1.3563 0.572 -0.465 0.676 92 76 51 0 0
0.0219 -0.1383 -1.3843 0.210 -0.712 0.670 159 130 84 0 0
0.0236 -0.1407 -1.3880 0.164 -0.661 0.732 156 126 81 0 0
0.0259 -0.1437 -1.3913 0.238 -0.816 0.527 140 109 64 0 0
0.0297 -0.1486 -1.3935 0.289 -0.788 0.544 152 121 75 0 0
0.0310 -0.1505 -1.3975 0.249 -0.625 0.740 137 107 68 0 0
0.0653 -0.1961 -1.4463 0.432 -0.706 0.562 105 80 40 0 0
0.0734 -0.2071 -1.4651 0.611 -0.361 0.705 97 72 36 0 0
0.0755 -0.2099 -1.4684 0.568 -0.451 0.688 76 48 20 0 0
0.0793 -0.2154 -1.4856 0.594 -0.758 0.270 82 59 23 0 0
0.1320 -0.2867 -1.5868 0.556 -0.125 0.822 135 111 72 0 0
0.1349 -0.2904 -1.5893 0.556 -0.125 0.822 140 116 74 0 0
0.1655 -0.3314 -1.6368 0.369 -0.859 0.354 102 80 49 0 0
0.1356 -0.2998 -1.7989 0.463 -0.879 0.111 64 41 17 0 0
0.1395 -0.3061 -1.8326 0.450 -0.806 0.385 67 42 18 0 0
0.1987 -0.3925 -2.1071 0.730 -0.492 0.474 74 53 24 0 0
0.2104 -0.4086 -2.1375 0.417 -0.750 0.513 76 53 23 0 0
0.2116 -0.4103 -2.1416 0.715 -0.561 0.417 75 52 21 0 0
0.2296 -0.4350 -2.1861 0.522 -0.676 0.520 96 73 35 0 0
0.2307 -0.4366 -2.1904 0.449 -0.811 0.376 104 81 38 0 0
0.2318 -0.4382 -2.1946 0.439 -0.734 0.518 101 78 35 0 0
0.2588 -0.4743 -2.2375 0.451 -0.532 0.717 86 70 34 0 0
0.2653 -0.4831 -2.2513 0.456 -0.712 0.534 73 57 30 0 0
-0.0836 0.0015 -1.0576 0.791 -0.572 -0.217 61 47 30 0 0
-0.0738 -0.0153 -1.1654 0.627 -0.753 0.202 105 84 54 0 0
-0.0729 -0.0167 -1.1698 0.649 -0.645 0.404 119 99 70 0 0
-0.0718 -0.0183 -1.1741 0.649 -0.645 0.404 51 34 11 0 0
-0.0645 -0.0285 -1.1996 0.390 -0.800 0.455 85 71 51 0 0
-0.0509 -0.0463 -1.2109 0.224 -0.307 0.925 104 88 69 0 0
0.0145 -0.1364 -1.3819 0.144 -0.762 0.632 152 122 76 0 0
0.0172 -0.1399 -1.3849 0.025 -0.812 0.583 160 129 84 0 0
0.0351 -0.1637 -1.4117 0.732 -0.646 0.216 160 130 86 0 0
0.0371 -0.1666 -1.4203 0.585 -0.656 0.477 143 114 76 0 0
0.0668 -0.2059 -1.4573 0.576 -0.680 0.453 100 76 34 0 0
0.0704 -0.2105 -1.4594 0.104 -0.613 0.783 96 72 29 0 0
0.1563 -0.3257 -1.6063 0.513 -0.813 0.273 102 82 41 0 0
0.1595 -0.3307 -1.6288 0.357 -0.854 0.379 80 59 29 0 0
0.1360 -0.3091 -1.8323 0.368 -0.824 0.431 68 44 18 0 0
0.1364 -0.3099 -1.8373 0.468 -0.830 0.303 70 44 21 0 0
0.1879 -0.3855 -2.0876 0.651 -0.570 0.500 62 42 18 0 0
0.1893 -0.3874 -2.0916 0.651 -0.570 0.500 68 48 19 0 0
0.1995 -0.4015 -2.1182 0.377 -0.815 0.440 75 56 26 0 0
0.2077 -0.4129 -2.1417 0.417 -0.750 0.513 77 54 23 0 0
0.2208 -0.4309 -2.1758 0.553 -0.780 0.292 89 66 32 0 0
0.2280 -0.4406 -2.1889 0.852 -0.523 -0.023 102 79 37 0 0
0.2307 -0.4446 -2.2024 0.480 -0.637 0.603 101 78 36 0 0
0.2670 -0.4929 -2.2549 0.553 -0.690 0.467 76 66 49 0 0
-0.1663 0.1042 -0.9265 -0.462 -0.353 0.814 177 178 181 0 0
-0.0872 -0.0033 -1.1015 0.527 -0.788 0.318 38 28 18 0 0
-0.0843 -0.0071 -1.1048 0.617 -0.769 0.165 33 24 11 0 0
-0.0710 -0.0278 -1.1962 0.458 -0.747 0.482 47 31 19 0 0
-0.0660 -0.0344 -1.2031 0.396 -0.578 0.714 103 91 71 0 0
-0.0630 -0.0383 -1.2062 0.365 -0.473 0.802 96 83 62 0 0
-0.0303 -0.0859 -1.3510 0.264 -0.921 0.287 43 32 28 0 0
0.0156 -0.1455 -1.3883 0.376 -0.709 0.597 144 115 72 0 0
0.0635 -0.2091 -1.4569 0.670 -0.666 0.329 107 82 41 0 0
0.0843 -0.2392 -1.5464 0.581 -0.724 0.373 73 50 19 0 0
0.1028 -0.2645 -1.5916 0.150 -0.470 0.870 148 121 81 0 0
0.1532 -0.3296 -1.6211 0.448 -0.817 0.363 62 41 13 0 0
0.1556 -0.3329 -1.6291 0.557 -0.668 0.493 83 62 32 0 0
0.1303 -0.3096 -1.8343 0.401 -0.809 0.429 70 46 20 0 0
0.1315 -0.3112 -1.8385 0.401 -0.809 0.429 71 46 22 0 0
0.1605 -0.3539 -1.9817 0.318 -0.788 0.527 81 56 26 0 0
0.1719 -0.3702 -2.0238 0.228 -0.882 0.413 80 57 27 0 0
0.2114 -0.4262 -2.1661 0.270 -0.855 0.443 83 60 27 0 0
0.2203 -0.4383 -2.1885 0.538 -0.664 0.519 100 76 36 0 0
0.2645 -0.4970 -2.2532 0.479 -0.557 0.678 80 71 55 0 0
-0.0963 0.0053 -0.9923 0.199 -0.912 0.359 69 49 27 0 0
-0.0873 -0.0110 -1.1043 0.897 -0.397 0.196 35 22 7 0 0
-0.0897 -0.0088 -1.1255 0.855 -0.497 0.149 30 19 4 0 0
-0.0893 -0.0095 -1.1302 0.855 -0.497 0.149 42 27 11 0 0
-0.0880 -0.0114 -1.1343 0.608 -0.688 0.396 54 36 18 0 0
-0.0861 -0.0143 -1.1481 0.407 -0.854 0.324 86 66 41 0 0
-0.0699 -0.0371 -1.2031 0.396 -0.578 0.714 81 69 52 0 0
-0.0672 -0.0407 -1.2064 0.348 -0.485 0.802 79 66 43 0 0
-0.0380 -0.0834 -1.3436 0.165 -0.861 0.480 70 58 46 0 0
-0.0366 -0.0854 -1.3477 0.165 -0.861 0.480 32 22 12 0 0
-0.0359 -0.0865 -1.3523 0.528 -0.832 0.173 40 26 14 0 0
0.0664 -0.2207 -1.4717 -0.078 -0.812 0.578 110 84 41 0 0
0.1331 -0.3103 -1.5960 0.596 -0.434 0.676 140 116 78 0 0
0.1493 -0.3319 -1.6214 0.490 -0.833 0.257 70 49 22 0 0
0.1493 -0.3324 -1.6316 0.293 -0.833 0.469 66 45 15 0 0
0.1139 -0.2921 -1.7346 0.178 -0.844 0.507 75 54 24 0 0
0.1431 -0.3369 -1.9199 0.467 -0.725 0.506 74 48 23 0 0
0.1758 -0.3844 -2.0649 0.577 -0.763 0.290 79 56 25 0 0
0.1891 -0.4038 -2.1276 0.512 -0.718 0.473 77 56 27 0 0
0.1991 -0.4171 -2.1431 0.388 -0.684 0.617 72 49 18 0 0
0.2141 -0.4374 -2.1746 0.364 -0.633 0.684 87 65 29 0 0
0.2154 -0.4393 -2.1785 0.512 -0.701 0.497 87 65 28 0 0
0.2167 -0.4411 -2.1825 0.512 -0.701 0.497 91 67 30 0 0
0.2181 -0.4429 -2.1864 0.512 -0.701 0.497 101 78 37 0 0
0.2207 -0.4467 -2.1942 0.669 -0.519 0.532 101 77 37 0 0
0.2502 -0.4860 -2.2453 0.489 -0.686 0.539 76 61 30 0 0
0.2604 -0.4993 -2.2538 0.730 -0.502 0.464 82 74 58 0 0
-0.0996 0.0023 -0.9824 0.306 -0.945 0.113 69 51 27 0 0
-0.1003 0.0029 -0.9876 0.519 -0.841 0.151 67 49 25 0 0
-0.0922 -0.0095 -1.0413 0.320 -0.772 0.549 79 59 34 0 0
-0.0903 -0.0121 -1.0451 0.504 -0.743 0.441 80 60 35 0 0
-0.0891 -0.0138 -1.0493 0.504 -0.743 0.441 84 64 39 0 0
-0.0906 -0.0121 -1.0550 0.602 -0.794 0.087 88 68 43 0 0
-0.0933 -0.0116 -1.1203 0.823 -0.567 0.035 59 42 23 0 0
-0.0915 -0.0145 -1.1342 0.608 -0.688 0.396 74 52 30 0 0
-0.0741 -0.0395 -1.2033 0.178 -0.639 0.748 75 64 44 0 0
-0.0392 -0.0899 -1.3519 0.507 -0.651 0.566 65 49 27 0 0
0.0586 -0.2192 -1.4903 0.652 -0.736 0.180 85 61 27 0 0
0.0755 -0.2429 -1.5476 0.525 -0.681 0.511 73 50 17 0 0
0.1307 -0.3145 -1.5948 0.197 -0.679 0.708 145 119 84 0 0
0.1451 -0.3342 -1.6322 0.293 -0.833 0.469 74 53 22 0 0
0.1363 -0.3353 -1.9068 0.506 -0.817 0.276 71 47 23 0 0
0.1371 -0.3364 -1.9114 0.482 -0.827 0.288 71 47 23 0 0
0.1378 -0.3376 -1.9161 0.482 -0.827 0.288 73 48 23 0 0
0.1495 -0.3539 -1.9523 0.578 -0.683 0.446 84 61 31 0 0
0.1587 -0.3681 -2.0139 0.426 -0.727 0.539 84 62 31 0 0
0.1853 -0.4065 -2.1276 0.512 -0.718 0.473 71 52 22 0 0
0.2029 -0.4308 -2.1730 0.416 -0.873 0.254 79 56 24 0 0
-0.1049 0.0015 -0.9832 0.381 -0.843 0.381 70 52 28 0 0
-0.0928 -0.0175 -1.0687 0.381 -0.890 -0.250 81 61 36 0 0
-0.0939 -0.0171 -1.0889 0.863 -0.475 0.175 89 68 45 0 0
-0.0927 -0.0189 -1.0981 0.845 -0.475 0.247 67 47 24 0 0
-0.0926 -0.0226 -1.1773 0.631 -0.704 0.326 82 64 41 0 0
-0.0787 -0.0413 -1.2037 0.178 -0.639 0.748 86 76 50 0 0
0.0447 -0.2074 -1.4529 0.306 -0.745 0.593 90 65 25 0 0
0.1371 -0.3310 -1.6209 0.681 -0.608 0.409 72 48 20 0 0
0.1407 -0.3360 -1.6329 0.181 -0.744 0.643 77 56 25 0 0
0.1164 -0.3136 -1.8154 0.237 -0.658 0.715 69 45 21 0 0
0.1178 -0.3156 -1.8193 0.448 -0.743 0.497 69 44 20 0 0
0.1181 -0.3161 -1.8244 0.668 -0.580 0.466 69 44 20 0 0
0.1185 -0.3174 -1.8403 0.316 -0.935 0.163 70 46 22 0 0
0.1228 -0.3235 -1.8574 0.265 -0.834 0.484 68 43 19 0 0
0.1237 -0.3251 -1.8673 0.321 -0.916 0.241 65 40 16 0 0
0.1338 -0.3400 -1.9163 0.482 -0.827 0.288 71 47 22 0 0
0.1340 -0.3405 -1.9216 0.520 -0.743 0.421 73 47 22 0 0
0.1362 -0.3434 -1.9246 0.377 -0.668 0.642 74 48 23 0 0
0.1431 -0.3534 -1.9554 0.544 -0.655 0.524 82 59 28 0 0
0.1532 -0.3686 -2.0102 0.426 -0.727 0.539 81 58 27 0 0
0.1547 -0.3706 -2.0141 0.426 -0.727 0.539 81 60 30 0 0
0.1561 -0.3726 -2.0179 0.426 -0.727 0.539 73 52 23 0 0
0.1821 -0.4101 -2.1267 0.611 -0.645 0.459 68 48 18 0 0
0.2191 -0.4600 -2.2034 0.572 -0.509 0.643 103 80 39 0 0
