ply
format ascii 1.0
element vertex 664
property float x
property float y
property float z
property uchar diffuse_red
property uchar diffuse_green
property uchar diffuse_blue
end_header
0.022117081054398913 -0.6024442323300069 -2.30945898305002 209 209 209
0.024953679299593134 -0.6030160530359382 -2.3182457720116223 209 209 209
0.02411524930828024 -0.603409194932587 -2.3242126562734144 209 209 209
0.023745310046710766 -0.603825798767375 -2.3305494415921366 209 209 209
-0.13163555838946006 -0.5965990159728554 -2.2163169813969295 209 209 209
-0.1342820003921723 -0.5968817271449051 -2.2205533890388707 209 209 209
-0.14397025759725168 -0.5968150220330556 -2.219279176274866 209 209 209
-0.2469709468642054 -0.5997873242590053 -2.261816848955779 211 211 211
-0.2570822797149874 -0.5996652032928379 -2.259687151394991 210 210 210
-0.26692330868560843 -0.5995549796090036 -2.257745898305786 207 207 207
-0.2776524158923319 -0.5993953769579918 -2.2550287440528747 206 206 206
-0.2879881608039765 -0.5992540961643096 -2.252601184923629 209 209 209
-0.29968707626523705 -0.5990376864767945 -2.248992792028185 211 211 211
-0.30987787941627143 -0.5988989963755486 -2.2466085600987817 211 211 211
-1.5439252959743641 -0.565930945566425 -1.7115013716624463 216 216 216
-1.5488417702362804 -0.5658287588783405 -1.7098137038295382 216 216 216
-1.5539115530288168 -0.5657134398188541 -1.7079218916492223 216 216 216
-0.02430947665385097 -0.4506069271816756 -0.05327648295656871 179 178 182
-0.018515619966559593 -0.4508270491305171 -0.056930895139452334 178 178 180
-0.015689440120354184 -0.45105292927032753 -0.060535872740436064 178 178 180
-0.20551097180606315 -0.5180855226413701 -1.0825336932670293 191 191 193
-0.21537388611456193 -0.5181617971782365 -1.0832480575311263 192 192 194
-0.22363397946646024 -0.5182726332623278 -1.0845684314666424 192 192 194
0.31811452370560966 -0.5316033558547999 -1.3147564677106343 194 194 196
0.28263918585321557 -0.5311420537381838 -1.306013143162326 194 194 196
0.26952205835712306 -0.5311916964515895 -1.3061666582536378 195 195 197
0.2714234511061259 -0.5315886419577319 -1.3123592715339267 195 195 197
0.2554122743977022 -0.5315674840153901 -1.3112894575044618 196 196 198
0.09343445786868138 -0.5281132169394277 -1.2506386750326688 197 197 199
0.205705030981518 -0.5310986588619306 -1.301768723955372 198 198 200
0.07292147826297785 -0.5282971027926021 -1.2525126998870777 198 198 200
0.36349006811697426 -0.5362857762924517 -1.38887224197798 200 200 202
0.3411824603364418 -0.5361137405342518 -1.385189480912465 201 201 203
0.3111498886598547 -0.5357498832357135 -1.3781977219761086 201 201 203
-0.008573804233449778 -0.5882417231892981 -2.1705487344104077 210 210 210
0.003127395863490978 -0.5891771207746872 -2.1854772826212208 210 210 210
0.0012304775091536158 -0.589507869667393 -2.1904753233546943 210 210 210
-0.002333859965274132 -0.5897638725325427 -2.1942463960772423 210 210 210
0.0037554777643495907 -0.5904542126382284 -2.2051455367547623 210 210 210
-0.006562117973821335 -0.5904058053746308 -2.2039214102276 210 210 210
-0.016824390624187058 -0.5903576578417633 -2.2027038501027243 210 210 210
-0.03232882493867717 -0.5900690260100482 -2.197544398011789 210 210 210
-0.08106299427513208 -0.5882617881455056 -2.1674868681915607 209 209 209
-0.09838177138694437 -0.5878780934202943 -2.160781185104179 209 209 209
-0.08096164257623795 -0.589083609075089 -2.180129499378776 209 209 209
-0.10829247282585652 -0.588235647655734 -2.165818831806301 209 209 209
-0.11782141421289472 -0.5882021854300522 -2.1648611981918333 209 209 209
0.01703683995648031 -0.5948507017078049 -2.2733720372265624 209 209 209
0.014382596737880893 -0.5951527390246456 -2.277893340636354 209 209 209
0.009874168604277922 -0.595368317058043 -2.2809988664292185 208 208 208
0.00961317603684586 -0.595781698877081 -2.2873436951862782 209 209 209
0.06352143001603627 -0.5987340101190061 -2.335250674696478 208 208 208
0.0635935744439603 -0.5991719201773389 -2.3419881868045804 209 209 209
0.05834802496218405 -0.5993598197844038 -2.344633802366024 209 209 209
0.04243295583820039 -0.5990423602344472 -2.339011946461486 209 209 209
-0.2054301835552219 -0.5877196800831884 -2.1533678394275233 209 209 209
-0.13413235238566557 -0.5915102500201794 -2.2149740545974392 209 209 209
-0.130266261004519 -0.5921042592639434 -2.2242884533356095 209 209 209
-0.13945352751049 -0.592075272485116 -2.223415529264327 209 209 209
-0.14749503510939743 -0.592099278777304 -2.223410802515466 209 209 209
-0.15485753381668932 -0.5921542954739709 -2.2239145230116546 208 208 208
-0.1711930132921562 -0.59177449211884 -2.2173144001623735 209 209 209
-0.17416268107673927 -0.5920380035604913 -2.221228588865705 209 209 209
-0.1940423266989283 -0.5918850734344696 -2.2179525226135244 209 209 209
-0.2591929825810332 -0.5947230010189005 -2.2585648079521654 210 210 210
-0.27495591965059396 -0.5943237430381552 -2.2516921335677145 210 210 210
-0.28191902891373277 -0.5943712140719865 -2.252098387087923 207 207 207
-0.2926261309661312 -0.5942248949534698 -2.2493504669283104 209 209 209
-0.30233043696555506 -0.5941276827772927 -2.247404336274762 211 211 211
-0.3114934294953019 -0.5940561746015864 -2.245878649043069 211 211 211
-1.5505356180486296 -0.5625782167290564 -1.7042023419312369 216 216 216
-1.5554103792196994 -0.5624852074353632 -1.7025453952782241 216 216 216
-1.5604417051221662 -0.5623791525217179 -1.700680554209856 216 216 216
-0.027445863809162592 -0.44679165518895697 -0.053151849279377376 179 179 182
-0.020405060246882975 -0.4469983048186392 -0.05682993515031452 179 179 181
-0.01862564821885493 -0.4472212418561508 -0.06040968781537119 179 179 181
-0.12508771736237134 -0.515559611311152 -1.1142209521460584 191 191 193
-0.2134408132899745 -0.5140070845575317 -1.0842214067518232 192 192 194
-0.2305439743397445 -0.5139411195123801 -1.0820557344148913 192 192 194
-0.3058659486100512 -0.5129222236383033 -1.061210328451916 193 193 195
0.3326951940028214 -0.5269009051709762 -1.3208446314966864 193 193 195
0.28576019881089193 -0.526244777059991 -1.3075257753806766 194 194 196
0.2724689041903985 -0.5263076646604311 -1.3076149068210925 195 195 197
0.270560392903552 -0.5266158994896054 -1.312272701984456 196 196 198
0.2549893272037009 -0.5266253847573592 -1.3113806203255098 196 196 198
0.12402664608824576 -0.5240958944520335 -1.2633701286012964 197 197 199
0.061738644766847484 -0.52305541331979 -1.243059612748307 197 197 199
0.10302358091329855 -0.5243006135561296 -1.2651463755655548 198 198 200
0.35365651190388303 -0.5302239594178011 -1.373832430928073 198 198 200
0.3456571991954319 -0.5304060744464224 -1.376125734244572 199 199 201
0.3278804834430801 -0.5303667783225772 -1.3743291245962375 200 200 202
0.3188688643468892 -0.5305224372611458 -1.3761441416807279 201 201 203
0.28962795908895933 -0.5302167165293208 -1.3694462193513102 201 201 203
0.01597310700279042 -0.5833637269866576 -2.176259832416361 211 211 211
0.002811987515991543 -0.5832145052229745 -2.17306476602391 211 211 211
0.012633975239329298 -0.5840450845345444 -2.1866146714246515 210 210 210
0.006069878208084689 -0.584176044569077 -2.18820961784962 210 210 210
-0.021520942914761143 -0.583400911598865 -2.1743344560638733 210 210 210
-0.043429397438839334 -0.5828641314545931 -2.16453888288643 210 210 210
-0.07210478176011226 -0.5820288348392778 -2.149657319748981 210 210 210
-0.01237999566666459 -0.5850272569633074 -2.2001927545019058 209 209 210
-0.024967418949455422 -0.5848908219046255 -2.197234488004874 210 210 211
-0.0685696914773235 -0.583395320055541 -2.171107246524536 210 210 211
-0.07387206417314218 -0.5835684161654816 -2.173440550855591 209 209 210
-0.07598950235000024 -0.5838808118965905 -2.1781489964165126 208 208 209
-0.10680792293698216 -0.5829262364606883 -2.161272648977851 208 208 208
-0.10581654553839592 -0.5833723602476351 -2.1682646593586865 209 209 209
-0.11521085412733278 -0.5833580019398399 -2.1674147040633724 209 209 209
-0.11810268632678245 -0.5836314086485983 -2.1714661763284964 209 209 210
-0.1282608825819077 -0.5835797843484042 -2.16998669815154 208 208 210
-0.13765157687109442 -0.5835603441700866 -2.1690580907257653 208 208 210
-0.1384305591033147 -0.5839262801951848 -2.1746870603826216 208 208 210
0.06821887852651254 -0.5936530342744379 -2.339483231068902 208 208 209
0.06434842296506971 -0.593909076405591 -2.343199806339598 208 208 210
0.059313110751821885 -0.5941117949656123 -2.346010809406223 208 208 208
-0.12421172411997561 -0.5861835980910154 -2.2106798149708324 209 209 209
-0.12111376422378894 -0.5867311274925041 -2.219386704282106 208 208 208
-0.1469490501636821 -0.5871679365266801 -2.224443485365981 208 208 208
-0.15811094983873164 -0.5870558691914397 -2.221958665672832 208 208 208
-0.1606452383188881 -0.5873428202665281 -2.226244272410556 208 208 208
-0.16983665027152872 -0.5873188563762621 -2.2252587383984475 208 208 208
-0.18300094534214362 -0.5871068230147565 -2.22108834289575 209 209 209
-0.19265756805999135 -0.5870564132381546 -2.219661198526552 209 209 209
-0.19240784765214602 -0.5874706414683333 -2.2261085430753673 209 209 209
-0.11212927879798251 -0.5916680883529719 -2.296630130244086 209 209 209
-0.12170543249666577 -0.5916294321842093 -2.2953908256140663 209 209 209
-0.269822723814221 -0.5893663967606522 -2.2503718726294655 210 210 210
-0.2807860101876738 -0.5892264814238891 -2.2474679843181753 210 210 210
-0.28494914293639517 -0.58942025215076 -2.2501982930848805 211 211 211
-0.2980378112179507 -0.5891707051501479 -2.2454505659169857 211 211 211
-0.3072917189837392 -0.5891086898525109 -2.2438701322796133 211 211 211
-1.5569939141907645 -0.559260611665476 -1.6970793971515705 216 216 216
-1.5618435564588256 -0.5591754653095352 -1.695433841294743 216 216 216
-1.5669173162616143 -0.5590726935966034 -1.6934997016371296 216 216 216
-0.21608574451232299 -0.4441993194951318 -0.055883315594723065 179 179 181
-0.2026549080557486 -0.5097235874833304 -1.084077787518339 191 191 193
-0.1916540886999707 -0.5102314419259768 -1.0929993161020746 192 192 194
-0.17105038416902094 -0.5109303013299352 -1.1057539278818238 192 192 194
-0.2728589349657501 -0.5095077817068436 -1.0745594456258059 193 193 195
0.33502075552241983 -0.5219072995223658 -1.322036828623432 193 193 195
0.3105822459880661 -0.5217700117151798 -1.3177490705855426 194 194 196
0.277861516554595 -0.5214612306881544 -1.3100494803782916 195 195 197
0.3018830543713944 -0.5222946221436883 -1.3252114519207858 196 196 198
0.25227071600732076 -0.5216351597319185 -1.310538993052481 196 196 198
0.08894409679662069 -0.5186394297968747 -1.2493095020574845 197 197 199
0.05804468182420425 -0.5183324132340857 -1.2417967505689234 197 197 199
0.09118801986065905 -0.5193429840679032 -1.2605330577715879 198 198 200
0.3275577813973154 -0.5245834506910326 -1.3633302828855096 199 199 201
0.3145093236054765 -0.5246661968488916 -1.3634868038200834 199 199 201
0.3091757304462212 -0.524908566079248 -1.3668195186695264 200 200 202
0.3005228905687195 -0.5250802371141274 -1.3687540154882971 201 201 203
0.26382237033092365 -0.5246557491261358 -1.3588930130201349 201 201 203
0.002382001789262178 -0.5772628355704486 -2.160601199917446 211 211 211
0.011977936925294919 -0.5780596527751203 -2.1739291142996024 211 211 211
0.009041697880448174 -0.5783469694579052 -2.178175859374583 210 210 210
0.05674275120775718 -0.5807126808722749 -2.2194248430198673 210 210 210
0.04980703036840639 -0.5808418153194059 -2.2208427017689667 210 210 210
0.04105721607694257 -0.580894728992275 -2.2209073323908823 209 209 209
0.005999972599868397 -0.5798552463302286 -2.2015505890446203 209 209 209
0.07709958338692913 -0.5832223082261071 -2.2605396682659227 209 209 209
0.0470385673215209 -0.5823879255591784 -2.2448343108281343 208 208 209
0.01702574909063337 -0.5815479531462786 -2.229045552774078 209 209 211
-0.021205955981389635 -0.5803551285189562 -2.207007895677433 209 209 211
-0.015583537640018408 -0.5810005718257266 -2.2176159062556287 208 208 210
-0.02761473744234999 -0.5809017737261982 -2.215015829463429 207 207 209
-0.04536615347677586 -0.5805576341888516 -2.2080703499952556 208 208 208
-0.04646532605247522 -0.5809178892707872 -2.213620883427692 208 208 208
-0.05321382345957393 -0.5810372605049542 -2.2149020778916393 208 208 208
-0.05248420556688449 -0.5814757066477183 -2.2218380060373373 208 208 210
-0.06297387185363268 -0.5814328488798962 -2.220249462098264 207 207 209
-0.06935717550726384 -0.5815647350317464 -2.22175873198601 207 207 209
-0.08829391781746676 -0.5811525088124863 -2.213642471498829 207 207 209
-0.08860594405542677 -0.5815437758918591 -2.219747880285874 207 207 209
-0.09535325114889537 -0.5816554438464068 -2.220908438372869 207 207 209
-0.1065519172069107 -0.5815714519898807 -2.2186131964661846 207 207 209
-0.11029482934258994 -0.5818115907739104 -2.222049976880534 206 206 206
-0.11872906288091145 -0.5818451108969336 -2.221838216726338 206 206 206
-0.12708002029237708 -0.5818805551086681 -2.221663892864699 207 207 207
-0.13940548787318374 -0.5817384663761521 -2.218359564183829 208 208 208
-0.1421745770842091 -0.5820175795183326 -2.2224923366870084 208 208 208
-0.1507400088034968 -0.5820385063390192 -2.2220717237039467 208 208 208
-0.1618668356017594 -0.5823439253055175 -2.225886345617015 208 208 208
-0.17071615842582932 -0.5823475312283638 -2.225169434615626 208 208 208
-0.16942187343883197 -0.5828065438549151 -2.2324770715503526 208 208 208
-0.188787199162205 -0.5823322190320074 -2.223350025810194 208 208 208
-0.19259608193761135 -0.5825587523999614 -2.2265677905094097 208 208 208
-0.19821896480239087 -0.5827022636311373 -2.22832573138675 208 208 208
-0.18052179282886704 -0.5839094248622975 -2.2487933829464244 208 208 208
-0.0775139311288775 -0.5890292090175717 -2.3380432277873333 209 209 209
-0.08379157878560972 -0.5891586040873634 -2.339522687034602 209 209 209
-0.2861237128723184 -0.5845654368096719 -2.249846050081052 211 211 211
-0.30198373701882586 -0.5842027646337381 -2.2427753993949375 211 211 211
-1.563401939878912 -0.5559700960518106 -1.6900116485455159 216 216 216
-1.5683836556446726 -0.5558816633194541 -1.688190161596775 216 216 216
-1.5733391247609356 -0.5557937117406813 -1.6863785101540214 216 216 216
-0.2161938693065813 -0.4406153179612443 -0.05582513693451509 179 179 181
-0.09017358991493757 -0.5081238553131572 -1.1379038368504335 192 192 194
0.4425120962794251 -0.5188397047406019 -1.3652730260769823 194 194 196
0.31097100945703404 -0.5167648194203454 -1.3181678626399878 194 194 196
0.3753541146032551 -0.5183103589139002 -1.3496112487309595 195 195 197
0.2937989552045113 -0.5171375713983632 -1.322204603665527 196 196 198
0.25007729989609107 -0.5166603992158088 -1.3099105291925635 196 196 198
0.20131566035351472 -0.5167538480917623 -1.306100617852168 198 198 200
0.37775373732392004 -0.520488530572836 -1.3843439096778638 199 199 201
0.2888491017181471 -0.5191248614274668 -1.3531191651077787 199 199 201
0.27077333495861705 -0.5191213448619125 -1.3511029489280122 200 200 202
0.25606323535075226 -0.5191803173791356 -1.3504407557002533 201 201 203
0.24001918619380574 -0.5192103772924143 -1.3491762981314424 201 201 203
0.021246114617479828 -0.5720731296308038 -2.162068956286209 211 211 211
0.01611763051208681 -0.5722772453809075 -2.164743098925606 211 211 211
0.014834733857145843 -0.5726303082397332 -2.1701916286869225 210 210 210
0.014306831726037972 -0.5730131314445128 -2.1761930438833916 210 210 210
0.013216564946617715 -0.5733743803340658 -2.1817920215113826 210 210 210
0.07700933327387849 -0.5762880728919832 -2.2348241728879072 209 209 209
0.05826821144460237 -0.5759620504647374 -2.2276317167136304 209 209 209
0.04684617980470751 -0.5759214601592885 -2.225750448337566 209 209 209
0.04100643092801759 -0.5761002428510202 -2.227946516189935 209 209 209
0.07781263194739307 -0.5779785770663816 -2.2616657209081827 208 208 208
0.023093531379658527 -0.5762055321047015 -2.2276699582648933 207 207 208
0.016846646204101368 -0.5763642449054558 -2.229504234631256 207 207 209
0.01610614132694932 -0.5767436944241922 -2.2354291972236897 207 207 209
0.01524087909395977 -0.5771185246667075 -2.2412675221568463 207 207 209
0.011597673205529069 -0.5773810837146733 -2.2450277042848987 206 206 208
0.0034556674004728727 -0.577460206926214 -2.2453968207309933 206 206 209
-0.0015911220194132492 -0.5776641040794831 -2.2480763646884374 206 206 209
-0.00354899357726679 -0.5779937872222142 -2.253081669963953 206 205 208
0.07908495496966705 -0.5818006201238813 -2.322292506195423 207 206 209
-0.06379555406119652 -0.5763302546862321 -2.2202195554131627 206 206 208
-0.07299503173605038 -0.5763527943487902 -2.2195784667052463 206 206 208
-0.08362342967758951 -0.5763140893038785 -2.2178131153549163 205 205 207
-0.0857963823459611 -0.5766252819210185 -2.2225024556374815 206 206 208
-0.09346782158388567 -0.5767066871606124 -2.2229587274589897 206 206 208
-0.09942184355657158 -0.5768586003216617 -2.2247171556998815 206 206 207
-0.1090850226457486 -0.5768534287912968 -2.2235872067461675 206 206 206
-0.11723364929049196 -0.5769101188260499 -2.223600570977239 206 206 206
-0.126516325728541 -0.5769171303196745 -2.222704704838182 206 206 206
-0.134314926311075 -0.5769852276256598 -2.2229365689919156 207 207 207
-0.14370622069040995 -0.5769838679775191 -2.221896437597392 207 207 207
-0.14024384581022342 -0.5775302380797944 -2.230918994038426 206 206 206
-0.15468816696531917 -0.577309831224914 -2.225864087458788 207 207 207
-0.16034499650125744 -0.5774642870883981 -2.2276949918099938 207 207 207
-0.16891853504163656 -0.5774917960599371 -2.2272004404422185 208 208 208
-0.20919552813696862 -0.5761437612638511 -2.201497456824723 208 208 208
-0.21742674480436264 -0.576178082145911 -2.2011478422171686 208 208 208
-0.22582479650752763 -0.5762034111341823 -2.2006378237157174 208 208 208
-0.16521602059243 -0.5792463605332268 -2.255370284969966 208 208 208
-0.17826329329319845 -0.5790738446769186 -2.251224844353385 208 208 208
-0.18954245036804318 -0.578976114523329 -2.2484547605130945 208 208 208
-0.08746744109794669 -0.5838838619226666 -2.337197642026268 208 208 208
-0.10160924008115968 -0.5836702137900656 -2.332282513616816 209 209 209
-0.07948750322237419 -0.5850656582560897 -2.3567666330181685 209 209 209
-1.5698452056698335 -0.5527005519337939 -1.6828973827475582 216 216 216
-1.5747240930952218 -0.5526254730392299 -1.6811799804535077 216 216 216
-1.5797077824676942 -0.5525418670294102 -1.679316258317678 216 216 216
-0.21709888803476668 -0.43703529235364713 -0.05574894254067006 179 179 181
0.07524879489776998 -0.5061545273917336 -1.1983871577046508 192 192 194
-0.054596794323085285 -0.5043189553864557 -1.152177877626642 192 192 194
0.4337841609385259 -0.5134800895656362 -1.362054694379177 194 194 196
0.3478139088804899 -0.5123751622086861 -1.3332240611125823 194 194 196
0.3919206101294349 -0.5134767056063698 -1.356560390011257 195 195 197
0.29075074603863604 -0.5120890089034545 -1.3212353946859738 196 196 198
0.2571540075290908 -0.5118500432268926 -1.3130503620538967 196 196 198
0.22014285383166393 -0.5115450695191733 -1.3033666970085598 197 197 199
0.3461396446285964 -0.5140878218077394 -1.3603778086437792 198 198 200
0.36081975328480353 -0.5146961046676835 -1.3720069404993882 198 198 200
0.38992959344619427 -0.5155636975104289 -1.389655465450976 199 199 201
0.2680880180841248 -0.5137465028188619 -1.3447800192345025 199 199 201
0.2515471348724014 -0.5137926774499475 -1.3433684620297013 200 200 202
0.23515134610782745 -0.5138384462596617 -1.3419692742954117 201 201 203
0.20661006040594176 -0.5136608291950076 -1.335421663308384 201 201 203
0.12763711241104725 -0.5700345147858643 -2.226109926296011 211 211 211
0.11828560971753266 -0.5701023516787552 -2.225978839556345 211 211 211
0.02833421685216142 -0.5671898493230718 -2.167742616082924 210 210 210
0.021728481138604372 -0.567345117847466 -2.169365656964516 210 210 210
0.014011103679760661 -0.5674578634649113 -2.1701646475252163 210 210 210
0.00966256313039382 -0.5676949967553269 -2.173389357160345 210 210 211
0.021111518018464892 -0.5685237574283014 -2.1881222206153663 209 209 210
0.0839716690782758 -0.571290222907754 -2.240503975283708 209 209 209
0.08336872004757567 -0.5716781940802033 -2.2466260847242 208 208 209
0.07774807385734428 -0.5718765253579368 -2.2490653579985227 208 208 209
0.07512892110426372 -0.5721880945365021 -2.253704420567268 208 208 208
0.023535776369342676 -0.5706309920540744 -2.2221145811603207 207 207 208
0.015523757760582346 -0.5707293340105086 -2.2226450868203096 206 206 207
0.014135049534696242 -0.5710806300875273 -2.2280789531395824 205 205 207
0.025655378130608808 -0.5719299264108095 -2.2431492876031505 205 205 207
0.018926903599727374 -0.5720768370759424 -2.2446228050877295 204 204 206
0.01727130415990641 -0.5724195255566513 -2.249884423980657 204 205 207
0.010384856102532036 -0.5725585703370414 -2.2512117018923665 204 204 207
0.00048747630456791313 -0.5725786419772128 -2.250246304751477 204 204 207
0.05696854037803045 -0.5752010844279177 -2.2994973468345465 204 204 206
0.06217393470833188 -0.575820684174168 -2.3100760910715223 204 204 205
0.05639160500537155 -0.576008230025827 -2.3123219832369184 203 203 204
-0.029856110075037745 -0.5730047767833942 -2.253113501951103 203 203 203
-0.030563662209684206 -0.5733813231123799 -2.259039428938459 204 204 203
-0.042342867082924784 -0.5733163314484384 -2.2564700245952922 204 204 204
-0.0587929185403564 -0.5730616376004096 -2.2502618622741606 204 204 204
-0.0686544684591498 -0.5730678610610105 -2.2490798029443777 204 204 204
-0.07728025088962276 -0.5731218316131093 -2.248821415917761 204 204 204
-0.09675164077639065 -0.5727351382265728 -2.2401110413670953 204 204 205
-0.10463684712222343 -0.5728141667694682 -2.240349364041264 204 204 204
-0.009768728768845047 -0.5770783032799196 -2.3208260195128023 204 204 205
-0.12482391294296191 -0.5727869652851355 -2.2372913009674735 206 206 206
-0.1365617990743766 -0.5727026386188614 -2.2344182586175285 206 206 206
-0.14885352268681185 -0.5725928712355619 -2.23106665685057 205 205 205
-0.1577642976638648 -0.5726199320277887 -2.230341169259842 206 206 206
-0.16764429880894693 -0.5726049597025896 -2.2288179661374445 207 207 207
-0.20836579344238726 -0.5713054958030543 -2.202758430614877 207 207 207
-0.220367348562037 -0.5711934135819923 -2.199407541430731 207 207 207
-0.2318348821107742 -0.5711009301290566 -2.196439271915806 207 207 207
-0.24247011665476736 -0.5710407907416989 -2.194096075936728 207 207 207
-0.2551465242559786 -0.570892255060626 -2.1900748982274836 207 207 207
-0.17077122311152215 -0.574844046457808 -2.264196172820449 208 208 208
-0.09792488549293166 -0.578331138345438 -2.32939252607628 208 208 208
-0.1033946545052451 -0.5785061646569014 -2.3314789515807153 208 208 208
-0.09361767635901297 -0.579331357538899 -2.34593751989836 209 209 209
-0.10837766635223223 -0.5791086927851175 -2.3404608646600966 209 209 209
-1.5762349858999922 -0.5494581022197551 -1.6758421815061533 216 216 216
-1.5811422687980694 -0.549387271885852 -1.674072480096355 216 216 216
-1.5860239403673564 -0.5493168243549991 -1.6723122247796975 216 216 216
-0.1992452200328343 -0.4333056564598883 -0.05609596307958886 179 179 181
-0.043767896408489326 -0.4997292820675987 -1.1518126335327743 192 192 194
-0.05172908687341793 -0.4999111237157145 -1.153538514964173 192 192 194
0.46475133573573485 -0.5083989806597152 -1.368976862910469 193 193 195
0.44191931959814634 -0.5084033269037069 -1.3655793766211337 194 194 196
0.3932088767394898 -0.5080030509164487 -1.3517208155299358 194 194 196
0.38429404452688215 -0.5082130326581515 -1.3537560537773925 195 195 197
0.22574245960783101 -0.5060755510482787 -1.295176073535174 196 196 198
0.22098139737217232 -0.5063328679221142 -1.298606177561997 196 196 198
0.23217145115308208 -0.5068430374304853 -1.3085400148144768 197 197 199
0.32596738184608504 -0.5086767740822064 -1.35238259937645 198 198 200
0.3368996855703514 -0.5091969116498645 -1.3624381789584419 198 198 200
0.4139722675937926 -0.5107910557972188 -1.399873770357089 199 199 201
0.24265533750044932 -0.5083527066916441 -1.3344989204684194 199 199 201
0.2284772951522035 -0.5084570266168796 -1.3340293799712075 200 200 202
0.20281366462349126 -0.5083692189049117 -1.328714438259146 201 201 203
0.1910205619448852 -0.5085069475676395 -1.3291463431093773 201 201 203
0.15043051586874212 -0.5646887111215504 -2.229777402810793 211 211 211
0.13075077051507278 -0.5644128695055097 -2.2223363289130473 211 211 211
0.12213391457371969 -0.5645195016360613 -2.222748719329514 211 211 211
0.12985099767189467 -0.5651980258266334 -2.234872406171787 210 210 210
0.030931440612598227 -0.5621208820241207 -2.1701825860277224 210 210 210
0.028865835323895972 -0.562444619416992 -2.1750941186502817 210 210 210
0.08548151526819736 -0.5648520114558623 -2.2225489367861067 210 210 210
0.08211656562383396 -0.5651372900824091 -2.2266423905394523 209 209 210
0.10641714516885159 -0.5664119121078186 -2.2509059663067172 208 208 210
0.09195500721500915 -0.5663018793552326 -2.2469335421368486 208 208 210
0.09253798305997463 -0.5667307948871431 -2.253944947241366 207 207 209
0.04551935490555037 -0.565438838468878 -2.2259512601340083 206 206 208
0.03514669754440414 -0.5654652899777128 -2.22480283966425 206 206 208
0.02972411094135563 -0.5656699458528966 -2.2272825047966287 206 206 208
0.022159728431111803 -0.5657954522949271 -2.2281593795137424 205 205 207
0.014276116216149548 -0.5659078388214581 -2.228776010299161 204 204 206
0.011941937765771682 -0.5662231390023142 -2.2335105731778033 203 203 205
0.00591116482266929 -0.5664017741107739 -2.2354778839842986 203 203 205
0.005264887277063535 -0.5667791802444357 -2.24147121303665 202 202 204
0.07433124375319444 -0.5697528259661947 -2.2999565474162025 200 201 204
0.06021440998230432 -0.5696370886908535 -2.2959444934445807 201 201 204
0.05190902876769299 -0.5697361391720749 -2.2962818186154816 201 201 204
0.04521767214845929 -0.5698943313411984 -2.2978188455191595 201 200 204
0.038314129699872135 -0.570043331008672 -2.299175275892936 200 199 204
0.0325087870942099 -0.5702327258058986 -2.3013504897680748 200 199 203
0.026717054811902008 -0.570421695651536 -2.303520911839891 201 200 202
0.015434426754209363 -0.5704000771349376 -2.3014584195388683 201 201 201
0.009338638703127233 -0.5705747659350564 -2.303352161142146 201 201 201
0.00715721676435932 -0.5708989434971716 -2.3082532084939977 201 201 203
0.002406295683983206 -0.5711240015016303 -2.311164181905839 202 202 204
0.0006095395467922149 -0.5714627947996653 -2.3163595544938578 202 202 204
0.006040442572419202 -0.5720826108416551 -2.3271884527807947 202 202 204
-0.020273241975029777 -0.5714665343764544 -2.313248318407345 202 202 204
-0.06282183188039603 -0.5702085029224256 -2.28648108528112 203 203 205
-0.13175745958607488 -0.5679031018175049 -2.2388013358767997 203 203 205
-0.14028554978157926 -0.5679600899173948 -2.238425933543427 204 204 206
-0.15090932069822616 -0.5679324562740525 -2.236366419354403 205 205 205
-0.1664626386664706 -0.5677068621388625 -2.230363065002708 206 206 206
-0.18125892421517054 -0.5675077268293751 -2.22490174157503 206 206 206
-0.2235995003512513 -0.5662043375674308 -2.197434007934965 206 206 206
-0.23547776286536926 -0.566111416619813 -2.1941302038034625 206 206 206
-0.24241615925075133 -0.5662145792012984 -2.1947415121398564 207 207 207
-0.25416004552878757 -0.5661223626935344 -2.191469486475742 207 207 207
-0.10371657645018795 -0.5730017144116559 -2.325353682892196 208 208 208
0.018080760242031202 -0.5783740186905748 -2.4305628807433717 209 209 209
0.005809682248378856 -0.5782925022086248 -2.427383489901546 209 209 209
-0.004643803546750536 -0.5782828687047695 -2.4256403672602636 208 208 208
-0.012197996463919392 -0.5783904633912341 -2.4262296867671833 208 208 208
-0.020177084185474703 -0.5784790172886327 -2.42644714912134 208 208 208
-1.584157727800278 -0.5461403286270967 -1.6669568220526556 216 216 216
-1.5874428236643077 -0.5461801594867665 -1.6671007803852735 216 216 216
-1.592288334002666 -0.5461182478970292 -1.6653655860666465 216 216 216
-0.20073257346290815 -0.4297081390053108 -0.05600628644050287 179 179 181
-0.0015205910184987736 -0.4955274925936999 -1.1637248264389926 191 191 193
0.13334561964337027 -0.4976431325621167 -1.2217151932936248 192 192 194
0.48624642552481945 -0.503092633756429 -1.3720479095780391 193 193 195
0.4547124991056179 -0.5030126853569359 -1.365249741318506 193 193 195
0.42277399939820715 -0.5029211844722561 -1.3581927437866166 194 194 196
0.388100238396728 -0.5027854800941851 -1.349938505707564 194 194 196
0.1558064123002605 -0.4998659963378605 -1.261866765020132 195 195 197
0.1523885473176242 -0.5001392768184447 -1.2657262928644037 196 196 198
0.35280772044308595 -0.5033185389001167 -1.3524788137866235 196 196 198
0.30695810813820534 -0.5033413345088419 -1.3448610806560866 198 198 200
0.3329905739959033 -0.5040594528298029 -1.3611042377661438 198 198 200
0.3797820271200008 -0.5050878951365029 -1.3860236637582002 199 199 201
0.21973779573892138 -0.50307111607283 -1.325257652859487 199 199 201
0.2062519937811208 -0.503201820518323 -1.3250385152290114 199 199 201
0.19137976328092365 -0.5033094179070221 -1.324201092919941 201 201 203
0.16614604387975418 -0.5032581121754742 -1.3189676846077145 201 201 203
0.15833437721535232 -0.5034665839337118 -1.3210050568898042 202 202 204
0.14403108783554008 -0.559525837147743 -2.232406388966671 210 210 210
0.12987721906998895 -0.5594607741115587 -2.228879383344087 210 210 210
0.12388059792789041 -0.559665131260596 -2.231165952113064 210 210 210
0.0760080161765514 -0.558464311594681 -2.2032479939278766 209 209 209
0.07109897542353782 -0.5586979386377058 -2.206201241006421 209 209 209
0.12441384229203212 -0.5608984827826204 -2.251365313708684 208 208 208
0.04057100966713578 -0.560846069065296 -2.2359011298070213 203 203 205
0.03764482708512662 -0.5611438118742249 -2.2402451256886575 202 202 204
0.030312990706837906 -0.5612873028659293 -2.2413067742958246 201 201 202
0.02162338149514964 -0.5613817966824758 -2.2413330635336304 200 200 200
0.014810670455727148 -0.5615407406010802 -2.2427370883512374 198 198 199
0.008099360575244963 -0.5617020737050006 -2.2441977316207833 197 196 198
0.049560701954638686 -0.5635726375709722 -2.2819168811235584 196 195 199
0.03741963737093723 -0.5635445236536922 -2.2793429641215206 195 194 199
0.029429913699713928 -0.5636622952933263 -2.2798706909223925 194 194 198
0.02198124607597496 -0.5637979796876923 -2.28078471619224 194 193 197
0.015482844140324414 -0.5639665380934424 -2.2824002478440484 193 193 196
0.007600126007320185 -0.5640838995258364 -2.2829399331830342 194 193 196
0.00014148514051626204 -0.5642151625388915 -2.2837801420019894 194 194 195
-0.01628675486581832 -0.5640181716952898 -2.277706100095373 194 194 194
-0.011160537707568863 -0.5646057632135263 -2.288178432030966 195 195 195
-0.01569925624191637 -0.5648405422680547 -2.291214988644711 195 195 197
-0.0018700337177447457 -0.5657515033320638 -2.3084754915915426 196 196 198
-0.006438136996908872 -0.5659864657778558 -2.3115099175718563 197 197 199
-0.019872906047231464 -0.5658917140218659 -2.307624222141014 198 198 200
-0.02298257789741376 -0.5661785772823139 -2.311758883326649 199 199 201
-0.036633834180995084 -0.5660710891993292 -2.307627833537125 200 200 202
-0.041720015777419905 -0.5662819087061477 -2.310178398733135 200 200 202
-0.046464672843096744 -0.5665048271130753 -2.3129857146845345 202 202 204
-0.05722141160880734 -0.5664998363304407 -2.3110299780643278 202 202 204
-0.07056225555339468 -0.5663945051177639 -2.306988179927485 203 203 204
-0.052128067474066175 -0.5674958311183256 -2.3281544866966017 204 204 205
-0.25748429990624777 -0.5600523775604029 -2.171025629196814 205 205 206
-0.25062468997411624 -0.5606905185563522 -2.1826240788289617 205 205 206
-0.23999986864924472 -0.5614760240256282 -2.197280998412583 205 205 206
-0.10560982039416056 -0.5674426662698723 -2.31796851459059 206 206 206
-0.1059535719587068 -0.5678277339714455 -2.324186097316075 207 207 207
-0.1191913935896669 -0.5677100168465059 -2.3199603323269185 207 207 207
0.004787486697107601 -0.57296444190853 -2.4272229245413635 207 207 207
-0.03045685960569422 -0.5719945574045122 -2.4052702224265916 207 207 207
0.0198571788723515 -0.5743908714062366 -2.4531028921631326 208 208 208
-0.02694041973163408 -0.5729571880265205 -2.421576041468385 208 208 208
-0.027327336237688904 -0.5733549824591792 -2.4279935773939996 208 208 208
-1.590442007318504 -0.5429542492851938 -1.6600175531679928 216 216 216
-1.5936486991201546 -0.5430020238978628 -1.6602376181831178 216 216 216
-1.5985168970997 -0.5429448537315202 -1.6584573243460823 216 216 216
-0.2004562040532905 -0.4260941050938989 -0.05595636307985735 179 179 181
0.1325751887018125 -0.49289583267428294 -1.2216533306826864 192 192 194
0.1516204557867734 -0.49343851019599627 -1.2343435402531937 193 193 195
0.44159362177205225 -0.4976163881806344 -1.3602939785015637 193 193 195
0.42622183562088434 -0.49777296322253284 -1.3598427417890302 194 194 196
0.11632090915129534 -0.49426624853624634 -1.2410171229126359 194 194 196
0.13745030478411613 -0.4948451091858267 -1.2547139422508706 195 195 197
0.1307478169791212 -0.4950771207513439 -1.2572135995981248 196 196 198
0.1320095556601512 -0.495409604218661 -1.2629374585239603 196 196 198
0.28658325916306365 -0.49804351437025596 -1.336776542042892 198 198 200
0.3291870797784194 -0.4989325316866974 -1.3598132919319106 198 198 200
0.3602568942334754 -0.49967913341564957 -1.3782315598236956 199 199 201
0.19588393972306034 -0.49784454454750454 -1.3156239794049238 199 199 201
0.18094141366739336 -0.4979707967866144 -1.314758004327719 200 200 202
0.1661232113086113 -0.49809610147316413 -1.3139009284838203 201 201 203
0.14076392414149452 -0.49807598835925054 -1.3085716274880959 201 201 203
0.13527362082893168 -0.49832234667721725 -1.3115464510894748 202 202 204
0.05428953307034656 -0.5490212138998525 -2.1304703462382233 212 212 212
0.12417932905383844 -0.5571652498872319 -2.278357156416014 203 203 205
0.12271889475553754 -0.5575223602779861 -2.2839500441099907 201 201 203
0.10970136970469768 -0.5574999708716267 -2.281015708639294 199 199 200
0.09800948952700306 -0.5575185339757938 -2.279017032571324 196 196 197
0.046989573408744545 -0.556232173989335 -2.2477782934140524 194 193 194
0.04042857503955921 -0.5564113092025741 -2.249435094125609 190 190 189
0.031321382386073626 -0.5565043393827384 -2.2491721255779886 186 186 184
0.02472070691198114 -0.5566795839309626 -2.250757036644661 184 183 182
0.018138454759560108 -0.5568543200755005 -2.2523372066294236 182 180 179
0.025264565211911783 -0.5574909253356916 -2.264225015382255 180 178 176
0.01487233864381765 -0.5575360313725175 -2.2629195859125533 178 177 175
0.0070375948518931475 -0.5576660558415644 -2.2635166101768744 177 176 173
0.0008112671843863994 -0.557849578097645 -2.2653116152380357 176 175 173
-0.005614577443838531 -0.5580252159532444 -2.26693746069493 176 176 173
-0.012121622147683753 -0.558196961954971 -2.268483213124878 178 177 175
-0.016397862649347617 -0.5584447041668943 -2.2717201069152817 180 179 176
-0.021661055547809727 -0.5586576686937288 -2.274189778672269 181 181 180
-0.024438891933749485 -0.5589564176378863 -2.2785619493605602 182 182 182
-0.026995717790115226 -0.5592627635803983 -2.283102783039223 184 184 184
-0.029354580056064283 -0.5595759858480474 -2.2877958696555685 186 186 187
-0.03744964490208347 -0.5596870674197114 -2.288029644242436 189 189 191
-0.0402570296192557 -0.5599836166595953 -2.292359767523352 191 191 192
-0.044376731958546634 -0.5602334313332897 -2.2956616419062614 192 192 194
-0.048440642067022144 -0.5604847395090173 -2.298999106726615 193 193 195
-0.050533575079764415 -0.5608060756351019 -2.303878220819267 196 196 198
-0.05646224402071731 -0.5609897259111853 -2.3057339999146627 198 198 200
-0.06224042620680048 -0.5611778135030892 -2.3076925102301833 199 198 201
-0.06620378818736328 -0.5614306110913148 -2.3110743191286787 200 199 203
-0.047456020222122364 -0.5625076939634327 -2.332506230586649 201 200 204
-0.05817229303376403 -0.5625165110583797 -2.330539345264102 202 202 206
-0.053872555917313436 -0.5630724153545066 -2.340541155653782 203 203 205
-0.1058002244219648 -0.561565304831152 -2.3054882905046323 204 203 206
-0.11438701524156569 -0.5616421463268915 -2.3050613008323837 204 204 207
-0.10138895609167775 -0.5625157964224129 -2.3220099609266396 205 205 206
-0.11037087828932446 -0.5625774506065802 -2.3212549968962333 205 205 205
-0.10993505743822396 -0.5629882533186106 -2.328105799371581 206 206 206
-0.03562725818702128 -0.5661630871014427 -2.3950328705166335 207 207 207
-0.04206401400213233 -0.5663274958193024 -2.396471649310832 207 207 207
-0.045834126768833694 -0.5665912518812737 -2.4000720048915722 208 208 208
-0.03509025950210831 -0.5674035168463649 -2.415565522522084 208 208 208
-0.035697529213539525 -0.5677885237174414 -2.421785947426155 208 208 208
-0.341647243357342 -0.557275992843994 -2.1883705867817285 209 209 209
-0.3838050803160743 -0.5560204224742267 -2.1593855127588135 209 209 209
-1.5966747549457816 -0.5397942732250816 -1.6531351916684285 216 216 216
-1.5999648623495801 -0.539839909250698 -1.6532382536899566 216 216 216
-1.604795192440807 -0.5397912546981333 -1.651485018704888 216 216 216
-0.04039025342322208 -0.4201537145143171 -0.05246347845483749 179 179 182
-0.03578208191908402 -0.4203099754509837 -0.056078760377198174 179 179 181
-0.04921610802105939 -0.4206817735963968 -0.05930309376252599 179 179 181
0.20841281041209236 -0.48862789065826295 -1.2464553780724867 191 191 193
0.13013762945708712 -0.4881309415518894 -1.220935387288316 192 192 194
0.11817863704096382 -0.4883156090700127 -1.2213716814993412 192 192 194
0.005599724279343854 -0.48832849499826986 -1.196772550456941 195 195 197
0.017909529346102515 -0.4887639096795203 -1.2067294188966144 195 195 197
0.008129941587548262 -0.4889568649576836 -1.2077839526397733 196 196 198
0.15724815757376598 -0.4909289803537245 -1.273459677635692 196 196 198
0.265608468202508 -0.49279835289405455 -1.328442702218393 198 198 200
0.28959830580146606 -0.4934026131844972 -1.3437829223217903 198 198 200
0.2993383097136346 -0.49384672362938975 -1.353318046064524 199 199 201
0.17239962857566465 -0.4926926405581713 -1.3061398967374087 199 199 201
0.14944635395979244 -0.4927415810442365 -1.3018949542323632 200 200 202
0.14092798159462333 -0.49295826870688186 -1.3036222900965135 201 201 203
0.13955223256052574 -0.4932594747456454 -1.308329999209195 201 201 203
0.13523764818625128 -0.49352522281040473 -1.3118000723986805 202 202 204
0.14847657819833282 -0.5457811347196586 -2.184060274555824 212 212 212
0.13931667195461295 -0.5459107606942231 -2.1841978303459406 211 211 211
0.12959116046035024 -0.5511730329242261 -2.2695986874497436 200 200 203
0.1280340963534281 -0.5515255848487297 -2.275120635721078 198 198 198
0.1132107901756555 -0.5514687303780904 -2.2709075876371716 194 193 193
0.10181327491969072 -0.5515148866063777 -2.269163329054354 188 188 186
0.08759056715917146 -0.551470751918286 -2.2652942682277186 181 181 178
0.07344663976481525 -0.5514260143757013 -2.2614325421363235 172 171 168
0.05594781325166387 -0.5512729048668815 -2.2550284604351445 161 158 154
0.04919501998589637 -0.5514546064316059 -2.2565629100391695 152 150 142
0.04264133252070679 -0.5516414609868405 -2.2582269709468914 145 141 133
0.035985957337581254 -0.5518239836943327 -2.2597965531918796 139 133 126
0.029268263324382815 -0.5520033886704996 -2.2613005324054503 133 128 120
0.0009938475926303258 -0.5514909145654481 -2.2465429265247474 128 125 114
-0.006561858219149896 -0.5516382456683382 -2.2473286108098516 122 119 108
-0.014335396649612586 -0.5517771633647501 -2.2479263151330877 122 119 109
-0.019685613580496253 -0.5519932440559657 -2.2503418460264153 127 124 114
-0.02578121145439083 -0.5521842462657269 -2.2521758758069135 135 132 122
-0.03125870727540636 -0.552394456548833 -2.2544656916214203 138 134 124
-0.03596701398655133 -0.5526290765358441 -2.257331130156027 143 140 129
-0.04081806665341037 -0.5528583504368954 -2.2600761672700838 150 148 139
-0.04482984947230362 -0.5531147176235449 -2.263456918316732 158 155 150
-0.048964627761516555 -0.5533665383346479 -2.266734923660553 166 163 159
-0.05182170882525161 -0.5536604856179612 -2.270995374118014 170 167 164
-0.05354499552839209 -0.5539922472352652 -2.2761348126197998 173 171 169
-0.058692346126934414 -0.5542090283984907 -2.2786067104816023 178 176 173
-0.060916028677287404 -0.5545237334268167 -2.2833520991833334 182 180 177
-0.06384308928450944 -0.5548146133951845 -2.2875460968517634 184 183 181
-0.06701248985229236 -0.5550970722634327 -2.2915465849047623 189 188 186
-0.06842113137507011 -0.555439429428339 -2.2969316444501926 191 191 191
-0.07310624732642312 -0.5556696676644087 -2.299729298570302 193 193 194
-0.07077725101794119 -0.5561407068658692 -2.3080789564470696 195 195 197
-0.05852478102932224 -0.5569559104459922 -2.3243414492604133 197 197 201
-0.06454131860625278 -0.5571412291097175 -2.3260983518407525 199 198 202
-0.07155398788840461 -0.5572908493469168 -2.327041809343277 200 200 202
-0.12232048865862255 -0.5559094915497104 -2.292871762782281 202 200 205
-0.1156427208452423 -0.5565311318812908 -2.3046853703243744 202 201 206
-0.10601646639090845 -0.5572590640878181 -2.318917151240677 203 203 205
-0.1133136665412191 -0.5573916744687718 -2.319514915174249 204 204 205
-0.11856818975819527 -0.557595436524447 -2.3217466020548767 205 205 205
-0.3247898134011272 -0.5513621929216017 -2.1725955443463127 207 207 207
-0.3334678740454914 -0.5514132548155034 -2.171532292285312 207 207 207
-0.34733761497703497 -0.5512746546950632 -2.166169478653279 207 207 207
-0.33870121234345923 -0.5526782536020789 -2.1914236439670534 208 208 208
-0.36724421486074565 -0.5519946000307618 -2.1737590551758217 208 208 208
-0.35555118007279884 -0.5527872264477127 -2.1895226437014075 209 209 209
-1.602856705679987 -0.536660074599123 -1.6463089167885738 216 216 216
-1.6061137164903951 -0.5367107608159489 -1.6464342678081068 216 216 216
-1.610805233305983 -0.5366764559885517 -1.6448295076041102 216 216 216
-0.043827021155708745 -0.41638153494800456 -0.05233343363074119 179 179 182
-0.04106158264927666 -0.41655390326528335 -0.05590607713394348 178 178 180
-0.03823733882622239 -0.41672612646035423 -0.059490642961705864 178 178 180
0.13485427827185514 -0.48374215650971447 -1.228205150109496 192 192 194
0.16643469562814772 -0.4843371860497512 -1.2459193946431522 193 193 195
0.13393178584173693 -0.4843503092199766 -1.238202014521844 193 193 195
0.23211073424853518 -0.48557055630938795 -1.282690152248213 194 194 196
0.003830265630228369 -0.48374778069652624 -1.1963005937318005 195 195 197
0.14734792883149905 -0.4860285399064229 -1.2696871520380384 196 196 198
0.2504387563807455 -0.4876719266366039 -1.322487243156315 198 198 200
0.26317792485407615 -0.48812244020563345 -1.3331709171579416 198 198 200
0.29351259881280145 -0.4887532795399658 -1.351182832689135 199 199 201
0.14833645564275882 -0.4876041100963595 -1.2964116056567256 199 199 201
0.13163390956951582 -0.4877468909117997 -1.2947323949156373 200 200 202
0.12647108597623646 -0.48800652150696333 -1.2978355250354143 201 201 203
0.12101734908256356 -0.4882624893819432 -1.3008060424326906 201 201 203
0.11095370660220616 -0.4884690077956275 -1.301819541205326 202 202 204
0.11309053071592068 -0.5049941429587839 -1.5801047771695613 206 207 209
0.10279979431699793 -0.5051647956041709 -1.5804599632061234 207 208 210
0.10240539154127493 -0.5054931767643898 -1.5858832483816343 209 210 212
0.12986416872033113 -0.545422444817188 -2.2637419640139558 192 193 191
0.11474203629117985 -0.5453813152789607 -2.2593574624950823 186 187 185
0.10275989764753113 -0.5454280899904383 -2.257217361981554 176 176 171
0.08774987666299094 -0.5453841374548578 -2.252812790207091 161 158 150
0.07440234479641061 -0.5453856388421312 -2.2495782507032605 143 140 129
0.06044753210815179 -0.5453664697007473 -2.245847957812486 129 125 114
0.04925692639217616 -0.5454259771790636 -2.24411518712985 119 113 103
0.06776059205198393 -0.5463641223534774 -2.264403059230498 109 103 90
0.06033682429778209 -0.5465351217550843 -2.2654642537067478 107 101 86
0.05310559789257696 -0.5467105748429897 -2.2666473311869857 106 98 84
0.044597414538656066 -0.5468463925267838 -2.266852333056252 104 96 81
0.001659930998715975 -0.5459415334803994 -2.2411566493428556 101 94 78
-0.00976601648628983 -0.5459812825071537 -2.239034292065452 97 90 72
-0.016227076119477934 -0.5461697938589574 -2.2406249523977118 95 88 70
-0.025041763149121987 -0.5462852780284535 -2.240413322326387 98 92 73
-0.03244696231031785 -0.5464423358077706 -2.2412447133840097 104 98 80
-0.03868634090516443 -0.5466340007211941 -2.242942520109576 102 96 78
-0.046617542436810155 -0.546772258911047 -2.2433294556095604 100 94 76
-0.0524475494844856 -0.5469743634761444 -2.245302715613372 99 93 75
-0.058938921902066066 -0.5471548910299361 -2.246751776885437 100 94 77
-0.0646836785883661 -0.5473577188672833 -2.248758014146522 110 103 88
-0.07062337511160421 -0.547553497574189 -2.2505981570140903 122 115 102
-0.07342549011565624 -0.5478474921724876 -2.254855435384362 128 121 108
-0.07375053466507275 -0.5482199699598903 -2.2610368593062153 144 137 126
-0.07491786378837517 -0.5485661078786874 -2.26656984317589 156 150 142
-0.07608589676403787 -0.5489125093835078 -2.2721070856444325 163 158 153
-0.08128515185342144 -0.5491296456653751 -2.2744870510410533 169 165 160
-0.0835559225679392 -0.5494405041380115 -2.2791575530463652 176 172 168
-0.09567202537771857 -0.5494323547558746 -2.276061541634816 180 178 174
-0.09967461957465529 -0.5496855564655606 -2.279339966405791 183 184 180
-0.10480633691391028 -0.5499014072035977 -2.2817148179679734 187 188 186
-0.1071822790667879 -0.5502068786192844 -2.2862690861231285 191 191 190
-0.11288163206789104 -0.5504028656056947 -2.288171427305219 193 193 193
-0.13450614955685547 -0.5500713496445877 -2.2773179217086983 196 194 195
-0.1440149761422883 -0.5501368917404603 -2.276097313444198 199 196 200
-0.12155557247945137 -0.5512660897263633 -2.3005625867271267 201 199 203
-0.07192969628115242 -0.5533110832819181 -2.347055725476754 201 201 203
-0.07005735045591444 -0.5537654102321625 -2.3551495677135015 202 202 204
-0.07247468627760056 -0.5540761371749321 -2.359782064308914 203 203 205
-0.2864586107672894 -0.5472210152268527 -2.192297663940307 204 204 206
-0.2914792502557093 -0.5474146284876363 -2.194325863782407 205 205 205
-0.3205270875057774 -0.5467871684827907 -2.1766850250938425 206 206 206
-0.3290284929568903 -0.5468566586790568 -2.1757768141416034 206 206 206
-0.3374570302249743 -0.5469269204971535 -2.174899369118435 206 206 206
-0.3410801781074456 -0.5471614704236645 -2.17795695422559 207 207 207
-0.34882887726276823 -0.5472525188855023 -2.1775949344809145 207 207 207
-0.3383328263340768 -0.5479772737502377 -2.1923403827947228 208 208 208
-0.34870060056353624 -0.5479761719891183 -2.1897898138222303 209 209 209
-0.34829529473079446 -0.5483508469143228 -2.196186536855405 209 209 209
-0.32672620001104213 -0.5494717511106552 -2.2202949696438665 210 210 210
-1.6074281515729398 -0.5336393625420467 -1.6413986507270972 216 216 216
-1.6122127388897227 -0.5336069553377409 -1.6396854262249523 216 216 216
-1.616874757761367 -0.5335802746973561 -1.6380983909399924 216 216 216
-0.0441342421248946 -0.41257070823800146 -0.05226631992078608 179 178 182
-0.04478395897455671 -0.4127870730843489 -0.05576669440880069 178 178 180
-0.042046801640941434 -0.4129545098505364 -0.05934558224847729 178 178 180
0.16939149563370115 -0.4792487729614274 -1.2421030529778128 192 192 194
0.13698078899511185 -0.4793120003851261 -1.2344731563957672 193 193 195
0.15079844048604774 -0.4797234891862057 -1.2451727803899881 193 193 195
0.22538236313601928 -0.4806096086421088 -1.2802523535993733 194 194 196
0.1583490001280331 -0.48039800219839207 -1.258656739119837 195 195 197
