ply
format ascii 1.0
element vertex 687
property float x
property float y
property float z
property uchar diffuse_red
property uchar diffuse_green
property uchar diffuse_blue
end_header
-0.45301459962592117 0.10595124338283657 -2.1093034834055144 99 74 34
-0.4656622683086732 0.09956624883833473 -2.104186870507233 100 74 35
-0.45418948357049344 0.10590828578281117 -2.120559007375853 99 74 34
-0.46009119173974733 0.10308204240290034 -2.121436979041925 99 74 34
-0.46443366172277806 0.10107810916321072 -2.1236952432073988 98 74 34
-0.46393437491307954 0.10163061204617635 -2.130303422924511 97 74 33
-0.4651184609242794 0.10158418136379788 -2.1415802235668115 97 74 33
-0.4730277954368667 0.09769438497027041 -2.1405792196077096 96 73 32
-0.4742213216782957 0.09735315791751789 -2.145668068961776 98 75 34
-0.47541559633861646 0.09701172168290415 -2.150760211486096 98 75 34
-0.4766106206788693 0.0966700757870407 -2.1558556500230273 97 74 33
-0.4766588942778383 0.09693522311938266 -2.162009314031688 96 73 32
-0.4774922303978568 0.09678546363605775 -2.1674492282272766 95 72 31
-0.47461388765739226 0.0986002982011622 -2.1763269003431236 92 69 28
-0.4809569441193075 0.09553498596121285 -2.176679612847059 96 73 32
-0.4845958405771953 0.09390036688368181 -2.1795236886098075 98 75 33
-0.4873151891427103 0.09275232010662948 -2.1832163581204473 100 77 35
-0.4876781752270596 0.09285230303365538 -2.1891086663533903 98 75 34
-0.48982627145369656 0.09200684579387641 -2.1933352338666374 97 74 33
-0.49524300405623406 0.08942904956932443 -2.194486465142286 98 75 34
-0.5001492113588155 0.08712101440471537 -2.1961007300832955 105 82 41
-0.5069708564094477 0.08379662552558356 -2.195887370101499 103 81 40
-0.5093131689901236 0.08284662609717142 -2.199896882167303 101 79 38
-0.5139401464758274 0.08068456638967356 -2.2017309404078973 100 78 37
-0.5165914899743853 0.07957010600584802 -2.2054352363921814 97 75 34
-0.5183089344275739 0.07895111370825411 -2.2100291310524316 97 75 34
-0.5220385717543972 0.07726399491908573 -2.212693840840523 98 76 35
-0.5245004280861367 0.07624959207503021 -2.2165685621515485 97 75 34
-0.526048847861647 0.07572019160689836 -2.2213217145331496 91 71 27
-0.5285044017942322 0.07470898817782567 -2.225199363715181 86 68 24
-0.5317663218119932 0.07326917965591828 -2.2282918828871123 85 66 26
-0.5345270814805495 0.07209539630591016 -2.231864796198683 80 61 23
-0.5369154319151948 0.07111938295689177 -2.2357965702548115 81 63 23
-0.5383512385893072 0.07064976745987986 -2.240657836990418 91 75 36
-0.543950952586013 0.06796559817402917 -2.2414365831693384 91 76 43
-0.5455592280393098 0.06740395158509924 -2.2461222613535514 86 72 44
-0.5483175118728139 0.06623043144491356 -2.249675137932255 80 68 46
-0.5466533287474682 0.06741061225477188 -2.25759887058956 95 87 71
-0.5481857352298372 0.06688988567947352 -2.262371077298693 124 118 109
-0.5518072050903686 0.06525679392268985 -2.265067184272422 157 152 150
-0.5506904616342597 0.06614707868948363 -2.2724809811403857 178 176 176
-0.5515780223211985 0.06597030237279064 -2.277906585013101 190 190 190
-0.5515734671424579 0.06626921799935306 -2.284232976312947 196 197 199
-0.08881707792751437 0.25798989636420033 -1.4598706821434844 116 105 86
-0.10769434317413085 0.24857187364132913 -1.4553482302998446 112 99 83
-0.12099701113576711 0.2420108200834554 -1.4537519862817672 107 92 78
-0.13071499754372523 0.23728716377097314 -1.4540427745611673 104 89 73
-0.1244627161007944 0.24075922435723712 -1.4629473847205778 99 83 66
-0.1316202643781217 0.23734858047878227 -1.4645988525478884 99 82 64
-0.13272365915621043 0.23704558476550663 -1.4695312999840948 100 84 62
-0.13899565798862873 0.23408830306896128 -1.471637529891158 98 82 59
-0.14638709167050906 0.23055515869901072 -1.47311090472187 96 80 57
-0.15254610363769738 0.22765413208079519 -1.4752417884082043 96 80 57
-0.1529163594365628 0.22772693637475538 -1.4805604985671397 105 90 66
-0.15947370937564948 0.22514680574938734 -1.4935068231998594 105 87 62
-0.16258649896446242 0.22380995233524198 -1.4972995227575971 106 89 63
-0.1667790039593039 0.22191750901772545 -1.5004784663656054 108 91 62
-0.17327497150899646 0.21883958536797374 -1.5023441185691497 108 91 62
-0.18522699396895198 0.2129532991017315 -1.50109075034472 108 91 64
-0.19583041028992326 0.20775909868503448 -1.5005647776054805 104 87 60
-0.1946025474086192 0.20865342390874136 -1.5067746220356841 104 87 60
-0.1973659113489129 0.20749346798558582 -1.510704916695258 104 86 61
-0.2127434752886857 0.19983757054520485 -1.5073588573697996 105 88 63
-0.21196349028341777 0.20050105756796935 -1.513306269209012 105 87 63
-0.19573896735824292 0.20912146373911375 -1.5282348494581126 103 85 60
-0.19895851690395683 0.20772679784761855 -1.531906454085997 97 77 49
-0.20663707112426977 0.20403389200335084 -1.5329642780430828 81 61 32
-0.2076306545251304 0.2037856638703035 -1.5379226506072494 92 71 42
-0.20477103322320106 0.2055241861655578 -1.5451554259762061 114 93 61
-0.20800416987083176 0.20412188312327864 -1.5488057506569384 122 102 69
-0.2110574369405075 0.20281209163353478 -1.5525573956634722 109 88 59
-0.21464256112800645 0.2012277122860418 -1.5559876077211139 110 89 62
-0.22068076749190507 0.1983772993812921 -1.5579446571653686 101 82 54
-0.22804265329692802 0.19484295140346142 -1.5590903015501294 88 69 42
-0.23788296208117599 0.19002822189802318 -1.5587209069073042 90 71 43
-0.24123425052138386 0.1885619663554639 -1.5622378213030894 95 77 48
-0.2438047805798655 0.18749858393846403 -1.5662220215372797 102 84 57
-0.24926638742448576 0.18494190852644568 -1.568444604183124 104 87 61
-0.25056071958439435 0.18453722437057876 -1.5731963328263114 114 97 71
-0.255576409045107 0.18220992831319627 -1.5756707840897513 111 93 63
-0.25523965261821474 0.18264803979766286 -1.5814228738347629 122 102 71
-0.2603302549665542 0.18028130714991866 -1.5838360828745082 105 86 57
-0.26549787304585204 0.17787410915129645 -1.5861879735275037 114 97 68
-0.27092637854802226 0.1753313424946519 -1.588363771825409 134 115 82
-0.2824793362025135 0.1696203348437667 -1.5867058904589988 128 108 74
-0.28879095552983125 0.16661865891014896 -1.588285520723806 130 107 73
-0.29467779372413994 0.1638358553489805 -1.590112755274261 127 105 70
-0.3056920553926618 0.15839877338603953 -1.588692399035955 122 100 63
-0.30882574651071976 0.15703883654045214 -1.5922143590951956 129 107 71
-0.3163536808949828 0.15340369895941172 -1.5929433913225455 127 104 71
-0.32055164227677985 0.15149169917483726 -1.5957675529613506 124 101 66
-0.32367507908435483 0.15013573698862326 -1.5992680053395698 138 113 75
-0.3264243897286161 0.14897332528279023 -1.6030028827124392 138 110 72
-0.3322700517094276 0.1462064298240991 -1.6047426580147381 147 118 77
-0.3314047684423514 0.14691653796963405 -1.6107958617335114 161 133 90
-0.33821828906997997 0.1439088746514778 -1.6173873322140722 140 119 88
-0.3471898684764422 0.139518941819488 -1.6170450722444234 142 119 89
-0.35567117035705864 0.13538180143776082 -1.6169922155400829 95 75 47
-0.36673212262155563 0.12990505343875886 -1.615216910436375 96 76 47
-0.3725364150771952 0.12715385924364428 -1.6168629046390814 108 87 55
-0.37392105701420925 0.12669550100118326 -1.6214120464748683 98 77 47
-0.37586025576401133 0.12594938934546873 -1.6255956716685807 99 78 49
-0.37321847991996054 0.12758162603553888 -1.632826636180714 93 72 44
-0.37534029869086494 0.12674114174169945 -1.6368980171960523 86 66 37
-0.37243471223555236 0.1285118167627798 -1.6443354073567904 98 75 44
-0.3518590189225327 0.13946316985491486 -1.663668341778805 109 87 56
-0.33927408011693655 0.1462672545063513 -1.6777144181691575 124 103 77
-0.29489419916897514 0.17041530230267551 -1.7304790850208442 113 93 66
-0.2902186839359898 0.17312026407250478 -1.7394167147639843 109 89 62
-0.28742038877828147 0.17485002456687754 -1.7470932616275445 116 96 69
-0.2764400483837021 0.18083843286982693 -1.7604372524412508 116 97 70
-0.27212003543512947 0.18336314224264785 -1.769229044469509 120 100 71
-0.2701332086797329 0.18467460891908075 -1.776428865086544 130 107 73
-0.27612040242334 0.18239058286373344 -1.7897563804663612 100 81 54
-0.28202241974039993 0.1795940068549663 -1.791449806134241 105 88 66
-0.28522312352888196 0.1782042881030455 -1.7950323788945628 105 88 65
-0.2808670666702563 0.18075312273943048 -1.8039617858046302 110 92 70
-0.2964960816806252 0.17288430587474513 -1.7987188781895314 98 80 57
-0.29440801642105485 0.17425107828364786 -1.8060436773236503 97 80 54
-0.2923841020205948 0.1755852831041029 -1.8133413030683476 105 85 56
-0.2919613526832624 0.1760850861416759 -1.8195085137175167 109 88 59
-0.2931443225577249 0.1757475838470668 -1.8245309594913262 110 89 60
-0.2938470268216039 0.17566090281043717 -1.829903902570631 112 92 63
-0.30319883666869646 0.171059655474713 -1.8290167041945247 107 88 61
-0.30868363649825925 0.16847578902599059 -1.8309057541723666 105 86 59
-0.3129024634789589 0.1665522638407576 -1.833701496910846 104 86 58
-0.31590576937750064 0.16526314720002802 -1.8373758473273596 99 80 54
-0.3163001518415222 0.16533682047074452 -1.8429597689741977 102 82 57
-0.3132923272845821 0.16718869097286376 -1.8510555225195091 100 80 55
-0.3183648232917287 0.1648183419875726 -1.853207457897668 99 79 54
-0.31718929746642704 0.16571364273653966 -1.8599735181191535 99 79 54
-0.3159256847512573 0.1666557072799979 -1.866819821012025 100 80 55
-0.317585723945276 0.16606941430339428 -1.8715016884016307 105 85 60
-0.31906835513249454 0.16557599680322427 -1.8763177146886945 106 86 60
-0.3217602806494959 0.16444995173887625 -1.880228790970078 103 83 56
-0.32334601977996635 0.1639026585116262 -1.8849690010526445 99 79 52
-0.3219680122490357 0.16490683958124167 -1.8919486207279315 101 81 54
-0.3222773608694812 0.16502833315283513 -1.897666220491788 100 80 53
-0.3206324905402911 0.16617359093874448 -1.9048764222179901 101 81 54
-0.31956639207270243 0.16701651270890636 -1.9116627807895052 100 80 53
-0.3212004114989887 0.16644551388831708 -1.916399441997944 99 79 52
-0.3208021704013875 0.16693954235852565 -1.9226962729726975 100 80 53
-0.33999193341651973 0.15716735001532203 -1.9139359744163942 100 81 52
-0.34157994944374037 0.1566189363763675 -1.918675965545635 100 81 51
-0.33353845584776576 0.1611199744020308 -1.930871683504177 101 80 51
-0.34680449157729026 0.1544479738005884 -1.9265708673506052 101 80 51
-0.3495781763332624 0.15327759590129214 -1.9303879736779592 94 73 44
-0.34946392731468445 0.15362235394681115 -1.9364575148354874 88 67 38
-0.3500331267944835 0.15360890227146132 -1.9420015017784757 90 69 41
-0.34992848399828447 0.15394949879773 -1.9480819930925422 92 71 43
-0.3492096522023609 0.15461305634826114 -1.9546568620102902 92 71 42
-0.35146485463100857 0.15371536737343505 -1.9588924356235597 95 75 47
-0.35170571767154235 0.1538757145265751 -1.964724827127831 101 80 52
-0.3565334524678653 0.15162652138599078 -1.9669152945656927 103 81 51
-0.3554583560910338 0.15247869963461003 -1.973803910597622 107 84 53
-0.35798744353095213 0.1514371115227752 -1.9778215194561193 105 84 53
-0.36261203458936486 0.1492936864534807 -1.980153420567377 102 81 50
-0.36532341875726587 0.14815573341041827 -1.9840136430166173 102 80 49
-0.36786061753584764 0.14710922688206968 -1.9880110072493151 100 77 46
-0.3686699835284111 0.14697160049268804 -1.9934060415543833 97 74 43
-0.37064042320055435 0.1462232710437697 -1.9978628870721609 93 72 39
-0.37303519910272687 0.14525160021747657 -2.001973736786777 91 71 38
-0.3782832879109798 0.14277769982968003 -2.0037487659693807 89 68 37
-0.3730216395440976 0.14583713356058856 -2.0141296058109623 91 70 39
-0.3736763428857639 0.14578220687718987 -2.019677960373613 92 71 40
-0.37394305826195473 0.14593198714449487 -2.0255531044897 92 71 40
-0.38197046123697864 0.1419928820439457 -2.025012272504462 89 71 43
-0.38282544875114577 0.14183250983360812 -2.0303966949113335 85 68 35
-0.38402756569732166 0.14148941068427792 -2.035497614549356 113 95 53
-0.3845966299987018 0.14148029175381874 -2.0411311940794947 131 112 71
-0.3853683909415905 0.14136460631504846 -2.046601998283074 108 88 52
-0.39246503669863125 0.13791271597448174 -2.046763988309023 100 78 42
-0.39440279521203636 0.13718162689106922 -2.0512483056521056 100 77 40
-0.39670301191447627 0.1362592567798749 -2.0554264149030166 98 76 39
-0.3980661330574601 0.13583148039954673 -2.060397404736188 96 74 37
-0.399383708012434 0.1354278992892183 -2.0654102122322593 98 76 39
-0.4007051086008745 0.13502245610473745 -2.0704230809763726 99 77 40
-0.39610021676524276 0.13774766510089195 -2.080508764338117 100 78 39
-0.4001079253781886 0.1359239181365796 -2.0832385397066364 96 74 37
-0.4035926028721255 0.13437609290500124 -2.0864081005522825 93 73 38
-0.4093424351648851 0.13163054070228558 -2.0876150969740985 81 65 31
-0.41433686357712857 0.12928347279466315 -2.089456758904564 87 70 33
-0.419897265200593 0.1266363604055402 -2.0907916844184755 121 98 58
-0.42295444754346545 0.12531249128646815 -2.0942878135637732 134 108 68
-0.4232843962413449 0.12543130149885479 -2.1001599362202668 146 118 81
-0.4228572361068951 0.12595118095292088 -2.106703549277128 115 89 53
-0.4229968944081779 0.12617161204439561 -2.112761594736902 104 79 42
-0.4334892169243836 0.12091123420686725 -2.109708891552266 103 80 39
-0.43857798838252066 0.11851036058808423 -2.1113864882301083 103 80 39
-0.4480568569690854 0.11378328836305249 -2.1091578946238796 101 77 37
-0.45758245339348724 0.10902960937197415 -2.10684894384907 101 76 35
-0.4512915720632497 0.11383390577192185 -2.1433319023998516 98 75 33
-0.4587281090607147 0.11018404822174596 -2.14281629233117 99 76 34
-0.46520131311063917 0.10704405935041622 -2.1431457257407707 98 75 33
-0.468349522084925 0.10566790010764004 -2.1464756655367485 98 75 33
-0.4710632641047232 0.10452211900027006 -2.1501956545609406 100 77 35
-0.47245536315706105 0.10407802585466333 -2.1551206585725526 99 76 34
-0.4748541919007468 0.1030993097275314 -2.1591250610900823 97 74 32
-0.47631105427631676 0.1026209635603535 -2.1639937713312776 98 75 33
-0.4811948267168719 0.100321542902857 -2.1657032046645344 99 76 34
-0.4837529212138664 0.09925763814302482 -2.1695491442335095 99 76 34
-0.4863895539713915 0.09815182277318821 -2.173319003667392 99 76 34
-0.4883297469957722 0.09741621492192357 -2.1777333588447156 99 76 34
-0.4890838305359343 0.09731155644097053 -2.183254750951829 98 75 33
-0.4924193798031538 0.09583367456508454 -2.186366433539883 99 76 34
-0.49612621982173627 0.09415784098225202 -2.189122253067745 100 77 35
-0.4938768081141545 0.0956522342940962 -2.197475183343284 100 77 36
-0.497162938800132 0.09420027463263983 -2.2006253063337047 104 82 40
-0.5039785143502296 0.09086825642497057 -2.2004272078649314 102 80 39
-0.5019751804473307 0.09223291487323926 -2.2085749460554953 101 79 38
-0.5053125088110906 0.09075287858118725 -2.2116596027234445 99 77 36
-0.5088824884931905 0.0891484918711209 -2.214514690433697 97 75 34
-0.5181572339699524 0.08450250899664213 -2.211899316931177 97 75 34
-0.5217416167672267 0.08288887522844629 -2.214707673725554 98 76 34
-0.5241504925156457 0.08190177801930915 -2.218638938562516 96 75 32
-0.5259529255121729 0.08123808648247893 -2.223153209551912 93 73 27
-0.5272394593207788 0.08084972064754381 -2.228167754769038 91 72 27
-0.5305318271486701 0.07939093017180393 -2.2312382931435155 88 70 28
-0.5330651008799974 0.07833704723782572 -2.2350405946196554 83 64 24
-0.5356280201861193 0.07726717986164938 -2.2388107225426146 81 63 22
-0.5381278237378655 0.07623086272605792 -2.2426392525113266 89 73 36
-0.5448135896048194 0.07295800349668585 -2.2423545804730787 91 75 46
-0.544832370830063 0.07324668509888013 -2.248608386651933 89 75 50
-0.5457161539998161 0.07307350578326427 -2.254018651324033 86 76 57
-0.5451813781104824 0.07365904090681219 -2.260839285697381 107 101 86
-0.5485955967512719 0.07213336268137116 -2.2637526451269663 137 132 124
-0.5535596142593542 0.06977828365423888 -2.2651148025731116 165 161 160
-0.5536328991922895 0.07003918636887649 -2.2713432354209004 183 181 183
-0.5509568895981422 0.07177195008453022 -2.2803345809520823 193 194 194
-0.5562459407833482 0.06924213613700828 -2.281354870640135 198 199 201
-0.09515030522234647 0.2608670059339739 -1.4685957710357558 105 97 85
-0.10504198089734218 0.2560407664104185 -1.4688468602694602 103 95 81
-0.11497432766655691 0.2511920064353299 -1.4690436239074856 103 92 77
-0.12296728754112884 0.24734128734924235 -1.47026239741007 102 88 72
-0.12335875846504141 0.24740814949093246 -1.4756054376776582 99 84 64
-0.13150994119713566 0.24347421624410584 -1.4767038103928878 100 86 65
-0.14031266375715135 0.23947117304642432 -1.4829639910069576 112 98 75
-0.17901242280312885 0.22217313821803478 -1.51670495645137 106 88 65
-0.18770199702122076 0.21794982327753745 -1.5172648835605353 106 88 65
-0.20294393145711814 0.21033735644664311 -1.5140161923978028 106 88 64
-0.20183140073872424 0.21117965217617116 -1.5201817775929956 105 87 63
-0.1983772469038158 0.21323374379302898 -1.527721099149912 99 81 57
-0.20067174182833997 0.2123149404639061 -1.5319302202190577 86 67 37
-0.2013438608086801 0.21223555078400713 -1.537087608136566 94 75 45
-0.20220873205118167 0.21205666582046725 -1.5421371795482195 106 86 54
-0.20321157750739977 0.2118065825522044 -1.5471100199071188 112 91 60
-0.20531503782652966 0.21098685425575198 -1.5514356421418347 110 89 59
-0.20628009528424412 0.21075661808802806 -1.556436684413264 110 89 61
-0.2069445198443457 0.21068229967283977 -1.5616211167483955 93 73 45
-0.2141052196259995 0.2072428136116891 -1.5629255997149951 86 69 41
-0.22080565181252698 0.20404074653925844 -1.5644841646502057 93 76 48
-0.2264931987110374 0.20136263960504128 -1.5666325939740782 101 84 56
-0.23403836088532148 0.19772083560446146 -1.5676420853988318 104 87 59
-0.23660065061260288 0.1966613389624231 -1.5716504876767803 105 88 63
-0.2449524874496356 0.19259941060613595 -1.5721315527010673 113 95 73
-0.2530190043050074 0.1886841396475145 -1.5727593958522583 100 82 56
-0.2535900497320443 0.18865610234294808 -1.5779563606150186 113 95 67
-0.2577712270126683 0.18675510492735173 -1.5809380411660254 106 87 58
-0.26364201418772676 0.18397674872927022 -1.5828668348698993 107 89 61
-0.27044988203859743 0.1807111364093895 -1.5841980128484543 114 98 69
-0.2728669824218609 0.1797241845971818 -1.5882380048390752 121 102 69
-0.2855551027459176 0.17340335123690145 -1.5858676629755812 128 107 73
-0.2906819913529274 0.17100762774775605 -1.5881845453103562 133 110 75
-0.29871934512114556 0.16709920252315444 -1.5886589501422494 136 114 78
-0.30804993439505374 0.16251749803791624 -1.588291387890083 135 113 74
-0.3111621500749872 0.16116607075333175 -1.5918253130005948 138 116 79
-0.3159236817922081 0.1589570242213651 -1.594306978685311 133 110 78
-0.32115334441400223 0.15650397518827605 -1.596477950483114 124 101 67
-0.32600772155820706 0.15424538547331204 -1.5988742190782512 136 112 71
-0.33022925177181994 0.152315343068671 -1.6016634161816268 140 113 71
-0.33276844809425943 0.15126004859983633 -1.6055251088157578 150 124 84
-0.3337523302772121 0.15101394203524005 -1.6103883577742617 145 119 76
-0.33589878137522156 0.1501629506421874 -1.6145023071338116 139 115 76
-0.3425915854552023 0.14694519156701463 -1.6156591653325252 146 125 93
-0.3476939100232318 0.1445545396121413 -1.6178324407122817 115 94 64
-0.3617836431753906 0.13774744910116046 -1.6195844578738008 95 77 50
-0.3718677143035481 0.13275880830795683 -1.6184231112490426 97 76 47
-0.37366994400289477 0.13208415779679425 -1.6227018866852145 100 79 49
-0.3676581937296998 0.1354823125805434 -1.632165635789675 91 70 41
-0.3700696010165764 0.13449095710216838 -1.6360569593095426 90 69 42
-0.3735230723527753 0.13295611940835617 -1.639249845573501 95 74 45
-0.3740236656145752 0.13296099303250403 -1.6444147576580272 92 69 38
-0.3491740916714434 0.14619010418034112 -1.6666327383842434 120 97 68
-0.2941781633857104 0.17598286551598732 -1.7264495599481218 119 97 73
-0.2874402937204136 0.17977843385600947 -1.7367869506304543 111 91 64
-0.275572296042526 0.18625539436077093 -1.7506828343132312 114 94 67
-0.2729079188581006 0.18792728040753912 -1.7583070144906459 116 96 69
-0.26597758672057203 0.19211114449415423 -1.7747280702065686 121 102 69
-0.2659960092792052 0.1923838463089373 -1.780554404779275 133 110 73
-0.2690950132383718 0.19104628491054648 -1.7842414487349558 126 103 68
-0.2720898474162814 0.1900459228550324 -1.793848580689588 105 87 63
-0.27465446199741594 0.18898755933126765 -1.7979039366638097 105 88 67
-0.27751695515267627 0.18777318737039586 -1.801746163682438 111 95 72
-0.28096326932364657 0.18625304271477602 -1.805170525071853 110 92 71
-0.28301455046037627 0.18546289892824466 -1.8095801519614525 92 74 51
-0.28744866754577814 0.18370891364791075 -1.8181611071972577 116 97 68
-0.28748238581238383 0.18397559389046486 -1.824017639647714 111 90 64
-0.28651044528684766 0.18476964128418594 -1.8306076045852688 107 86 61
-0.2890256669778858 0.18373680353342253 -1.834691209954051 105 85 56
-0.3037511114171212 0.17630335709684125 -1.8299200532361029 102 84 56
-0.3086663854798391 0.1740105500443672 -1.832224692531975 101 83 55
-0.3089648250053434 0.1741382225493869 -1.8378842742673587 105 88 60
-0.31409175873582906 0.17173358677925038 -1.840017290959629 101 82 56
-0.3134322389413258 0.1723640547154362 -1.8463846563265278 102 82 57
-0.3130945994323286 0.1728262093675398 -1.8525272130422548 98 78 53
-0.3165716607237683 0.1712866704402817 -1.8558615106979794 99 79 54
-0.3178004988972197 0.170927067081384 -1.8608554714727457 99 79 55
-0.31757332651038156 0.17133217801497957 -1.8669357715578911 102 82 58
-0.3179701332549335 0.17141006998215444 -1.872560906995297 107 88 63
-0.31813964365847974 0.1716077260551978 -1.8783635990580994 105 85 60
-0.32055543548602305 0.17062551239449425 -1.882488346957456 98 78 51
-0.32192056729311413 0.1701953754663079 -1.8874023234778712 98 79 52
-0.32355125701640086 0.16962578345319215 -1.8921185611462599 100 80 53
-0.32366595297127265 0.169853353534333 -1.8979854135229217 100 80 53
-0.3235575549068176 0.17019867646943224 -1.9040307378443813 101 81 54
-0.3230783925425481 0.1707395067817758 -1.910368772000518 99 79 52
-0.3246552789787861 0.17019915994345675 -1.9151455664418724 98 78 51
-0.32347409280368766 0.17111032426132608 -1.922040944440621 101 81 54
-0.32333802458818006 0.17147211340991153 -1.9281469022780124 106 87 58
-0.3273113873637705 0.1696708812115425 -1.9310896089334384 103 84 54
-0.33171439456863705 0.1676429406264856 -1.9336899572831725 102 81 52
-0.34453552556321154 0.16118054881685887 -1.929737496721582 99 78 49
-0.3437961641960252 0.16185962446102561 -1.9363024618438547 95 74 45
-0.3442746737283351 0.16189758760157813 -1.9419283210007587 92 71 42
-0.3468079432620019 0.16085292418770633 -1.9459499263574656 94 73 44
-0.3470697365187785 0.1610055950737079 -1.951755797821545 94 73 44
-0.3460499666716005 0.1618344257157361 -1.9585812909381581 100 79 49
-0.3479023221723232 0.16114917527472672 -1.9631479247645045 103 82 54
-0.34902602958518847 0.16084833640017168 -1.9682937145881758 102 82 53
-0.35160203838396153 0.15978140063057503 -1.972287047513046 105 83 53
-0.3528765762190662 0.1594011921686182 -1.9773171657156827 109 86 55
-0.3571189604857541 0.15745448205417378 -1.979972608777485 96 75 44
-0.36282004525658473 0.15473704447702466 -1.9814445613631166 97 75 44
-0.36567797840510446 0.1535202428898783 -1.9851904092291583 99 77 46
-0.3676579192023289 0.15276701949989613 -1.9896419215260073 95 72 41
-0.3668957679934608 0.15346259372217994 -1.996317559856788 95 72 41
-0.3676068062609047 0.15338027754858388 -2.0018081390512235 95 74 41
-0.3706419294778026 0.1520697674023363 -2.005408419626025 97 77 44
-0.3715440264206967 0.15188676385424207 -2.010749395002192 94 74 42
-0.3597112268379117 0.15843864852211104 -2.0265509181925965 91 70 39
-0.370770575751755 0.15288498237093293 -2.0235699578617465 91 71 40
-0.37265475114365243 0.1521834723774264 -2.0281222120225424 90 70 38
-0.3777243096420366 0.1497963038402765 -2.0300360616881825 87 69 38
-0.3816572126075236 0.14801003883201871 -2.0328790162036174 92 76 42
-0.3828601889367065 0.1476686190407 -2.037987421737009 129 111 71
-0.3815423548829411 0.14866229452609542 -2.0452069188035282 108 89 49
-0.38367561182665433 0.14782880830911221 -2.0495494318245586 101 79 43
-0.3868616433197134 0.14643752850888916 -2.053005872452543 101 77 41
-0.39123635776233245 0.14441605108539912 -2.055453674598495 101 78 39
-0.3942424159240384 0.14311943447825093 -2.0590472699491666 97 75 38
-0.3915313482295598 0.14485357155482945 -2.067486582285258 96 74 36
-0.39346586248719795 0.14412537457710883 -2.0719961408066823 100 78 40
-0.39503664527441495 0.14359011485736606 -2.07681640016026 101 79 41
-0.38915830833770126 0.14700692898540332 -2.0880156983517284 100 77 39
-0.3896956464471555 0.1470211836554166 -2.0937463468052373 101 80 42
-0.3967681032166528 0.1435671218337148 -2.093856689998867 88 70 37
-0.4046352195783205 0.13968992684821555 -2.093254831967471 76 60 24
-0.41304496285766756 0.13552313638521654 -2.092152953495162 103 85 42
-0.4192124048594974 0.13254574392663734 -2.0929663451694833 134 110 68
-0.42276143802831917 0.13095839105557186 -2.096039847901652 149 121 80
-0.4227699153764117 0.13125206909366982 -2.102199400746353 139 110 70
-0.4211351088769349 0.13241966507441347 -2.109809322592035 113 86 46
-0.42005670976590104 0.13329234931699221 -2.1169486805073623 102 77 37
-0.43257563586523184 0.12693522244654323 -2.1121161153447874 103 80 39
-0.43777653737782085 0.12446784383905132 -2.1136997715721155 103 80 39
-0.43820173276116964 0.12454039980365603 -2.119501734813273 103 79 39
-0.4576152041780095 0.11450894251001656 -2.108424165773727 102 77 37
-0.45769598848720455 0.11625686967960411 -2.1453916999565297 99 76 34
-0.4651905197097371 0.11256235057257755 -2.144798753081777 99 76 34
-0.46744274371838174 0.11166134913881326 -2.148948427289514 101 78 36
-0.4714171528165853 0.10984187720760488 -2.1515244880557556 101 78 36
-0.4727806237951168 0.10941456957219142 -2.1564801781538985 100 77 35
-0.4749136943946337 0.1085768100626352 -2.1607324266395413 98 75 33
-0.4770863970489851 0.1077178559808546 -2.1649472599547375 99 76 34
-0.4800343250623736 0.10644504434544247 -2.168445127295274 100 77 35
-0.47903360376272597 0.10728020903766425 -2.175594319541644 102 79 37
-0.49532057778983335 0.09888381370833896 -2.166704427514152 101 78 36
-0.48542021942047553 0.1044721807335397 -2.1821276800276266 99 76 34
-0.4885424141324904 0.10310568583375021 -2.185450929736098 98 75 33
-0.49232037091262654 0.10138843452774102 -2.1881537413930277 100 77 34
-0.4960309727747719 0.09970671783809673 -2.190910095453385 99 76 34
-0.4968588619963869 0.09956588785662546 -2.196372594219592 103 80 38
-0.49998283539232874 0.09819737217261315 -2.199672044024384 104 82 39
-0.5034725277635804 0.096632914035018 -2.202618746162916 100 78 37
-0.5080701021998397 0.09447525844681501 -2.204504640089076 97 75 34
-0.5100791180933457 0.09370231966682557 -2.208842532760733 96 74 33
-0.5104643829168738 0.09379861432642597 -2.2147315084966035 96 75 33
-0.5173314331897294 0.09042455188103521 -2.2144184443516646 97 76 34
-0.5202393808550203 0.08916967983402213 -2.2178828844835206 97 76 33
-0.5227014285855986 0.08815343621233382 -2.22177176648585 97 77 33
-0.5239569349571725 0.08778359142701742 -2.226823697635415 95 75 29
-0.5254822468504737 0.08726931528629975 -2.2316179413970905 94 76 29
-0.5301606040381759 0.08506473697451272 -2.2333506052798326 89 71 28
-0.5361608693526361 0.0821505610770066 -2.233780232135731 89 70 28
-0.5390120664025531 0.08092442559095303 -2.2372648941326716 90 73 31
-0.5418339397672424 0.07971378172278798 -2.240773305709932 94 77 42
-0.5454166886108844 0.07809458030295058 -2.2435291982666636 92 76 48
-0.5456304728550205 0.07828334392786121 -2.249595862753021 87 73 49
-0.5453442525467114 0.07874102659004886 -2.256166099087181 99 90 72
-0.5475095620055426 0.07788271098756308 -2.2603193460429933 118 113 100
-0.5510819185386333 0.07626849455255419 -2.2630732061133947 149 146 139
-0.556191162579887 0.07382804727905645 -2.2642866230479792 173 171 171
-0.5590683585345793 0.07258636534595772 -2.2677127672536455 187 187 189
-0.5576481854198965 0.07365462926963856 -2.2754396028898953 195 196 197
-0.1345127881425201 0.24692510899019157 -1.4649433617879268 115 104 90
-0.130412790401217 0.2495915741002419 -1.478274530745313 111 98 80
-0.13200093026963178 0.24986318621368406 -1.4996895863688544 107 91 66
-0.19188949199555289 0.221809525573693 -1.5269563632884164 100 83 59
-0.1916935114372636 0.22218406510574135 -1.5326279499687672 94 76 52
-0.1931595556769411 0.2216957593512196 -1.537338584477186 97 80 51
-0.1927474140533506 0.2221833215054561 -1.5431514912280682 113 97 63
-0.19386745778632125 0.22187520847279762 -1.5480736989471269 115 98 64
-0.19766040058553197 0.2201780766215601 -1.551422468701021 111 93 60
-0.20079822757290156 0.21882111753960296 -1.5551513872584424 107 87 58
-0.20364569294443824 0.21761488447549387 -1.5590478593533823 92 73 49
-0.20960846811697798 0.21478836186126268 -1.5610826656698884 86 70 45
-0.2135750024876215 0.21299934807808973 -1.5642951803869536 97 80 54
-0.21829270196826128 0.2108191157981653 -1.5670479402707094 100 83 57
-0.2232595911289117 0.20850863574684794 -1.569638689341743 104 87 61
-0.2314220131454101 0.20453435824362126 -1.5702834941386463 110 92 67
-0.2367568944466476 0.2020307085254549 -1.5726181710951943 119 100 78
-0.24120000788538293 0.19999066706681567 -1.5754815781750144 105 86 64
-0.24558266644016363 0.19798158211557612 -1.5783712016136944 107 88 63
-0.25014562838445714 0.19587806371482722 -1.5811396983053758 99 82 57
-0.25662731497392066 0.19277434772597116 -1.582715574849154 98 81 55
-0.26340534191737963 0.18951524580939597 -1.5840887365943066 121 103 74
-0.2705188221410478 0.18608027550952572 -1.5852329656104203 121 101 71
-0.2758840089940143 0.18355560920984051 -1.5874424707413943 128 108 74
-0.28610426897516117 0.17849868677365813 -1.5866058606653577 122 102 66
-0.2904258069799045 0.17651632578265053 -1.5894288048788578 133 110 73
-0.29904801026098726 0.17229008772488014 -1.5895375216964984 133 109 75
-0.3083070432512118 0.16773015624542834 -1.5892152526926417 120 99 64
-0.31434611141902696 0.16484897612623742 -1.5908993054019533 131 110 75
-0.3175892822431419 0.16342623708089543 -1.5943413468833938 124 100 67
-0.3210137957391945 0.16190853834178776 -1.5976619317635847 124 102 69
-0.3255730741909468 0.1597979736592803 -1.6002500250652085 130 104 66
-0.329477161131605 0.15802902702927715 -1.6032469581840334 137 111 72
-0.3334361163563583 0.1562309853384878 -1.606199738123405 138 114 76
-0.3372736275551342 0.15449595163639168 -1.609221918717122 126 106 64
-0.34074338918235364 0.15295268380824417 -1.6124739944315658 144 122 88
-0.3443353293558377 0.151345210655641 -1.6156396184668818 143 117 86
-0.348110575643917 0.14964153300048147 -1.6186780564365475 101 80 50
-0.347192179200472 0.15039187632398154 -1.6247828028811537 105 85 56
-0.36182011722058677 0.14301154661489035 -1.6206816126653847 106 87 57
-0.37160392636370104 0.13816261773321034 -1.619718549579539 98 78 50
-0.37336583178976834 0.13750945498237335 -1.6240287025370836 101 80 53
-0.36629518209038125 0.1414789540845647 -1.6342039140079485 96 75 46
-0.3683542988821211 0.14067122847834862 -1.638336832298286 95 74 44
-0.36791124293796557 0.14117355943634308 -1.6441415234525603 104 81 49
-0.3626647567903381 0.14419192442651713 -1.6531782135478357 104 82 51
-0.33719116810513095 0.157806877307068 -1.6758582318315123 124 102 76
-0.27915273173813565 0.18961912227674685 -1.7436741532946347 116 95 68
-0.2701354376701421 0.19463201236916433 -1.7556428721496962 116 96 69
-0.2664465708273146 0.19685216837431754 -1.7639915679113392 115 96 66
-0.26294992383401594 0.19897273129411 -1.772233168969156 117 97 68
-0.26103672561247404 0.20026352009116152 -1.7794019151492118 124 104 72
-0.2686447001111296 0.19655738594836367 -1.7799659038208127 121 102 67
-0.2672274168010228 0.1975884849121212 -1.7868024011887975 110 90 61
-0.27308935239526877 0.19479775229866916 -1.7885580732675885 106 87 65
-0.27164350919886293 0.19584456123239527 -1.795429075116441 104 86 64
-0.2719348307427175 0.1959794995661762 -1.8010915982366347 109 93 70
-0.28027482819732386 0.1918854366714582 -1.8010714459155932 113 98 75
-0.27806456190401385 0.1933350358312524 -1.8085054036080748 99 83 61
-0.2742398555612239 0.19563429610174266 -1.8171075152292935 100 82 56
-0.28124891312269196 0.19310710443661197 -1.8357037517638917 104 87 60
-0.2908370638036645 0.1883516522987613 -1.8346887764621884 104 86 58
-0.3024814807536748 0.18251208041699876 -1.8321466202127048 104 84 55
-0.30411377909441606 0.18194165969496653 -1.8368466314794936 104 84 57
-0.3053040448118593 0.18160409724930418 -1.8418709981499306 102 82 57
-0.3112679884263205 0.17875228913148222 -1.8434022904920795 100 80 55
-0.31217443030934855 0.1785640690734809 -1.8486313946558295 98 78 53
-0.3124064008267457 0.17873151164930062 -1.854362707813821 97 77 52
-0.31652301234095537 0.17685186915753207 -1.8572293653820435 100 80 55
-0.3164535758473939 0.17717856490351422 -1.8631915243394013 97 80 54
-0.3171305303384298 0.17711215839632427 -1.8686078067461793 98 81 55
-0.31797037056113614 0.17696014326764148 -1.873908599271091 98 81 55
-0.31767005324441133 0.1774098643028054 -1.8800686920526484 95 78 52
-0.32012829772274587 0.1764045562997955 -1.8841669734248145 89 72 46
-0.3222483267109595 0.17557763571149168 -1.8885178921535188 89 72 46
-0.323706529952444 0.17510004905513898 -1.8933685232851536 88 71 45
-0.32506690575463193 0.17467423655507497 -1.8982958215052395 93 73 45
-0.3254801464568785 0.17474876682583804 -1.9039466692357447 93 72 43
-0.3262999251091787 0.1746089162280062 -1.9092947075606383 96 75 46
-0.3262991829322639 0.1749028610329383 -1.915276479872368 93 72 44
-0.3261045526606158 0.1752997349654993 -1.9214166376023893 95 74 47
-0.32591690621103686 0.17569342934553686 -1.9275618472176297 106 85 57
-0.32614767282140245 0.17586641851889442 -1.9333941349030612 107 86 57
-0.3325221316669986 0.17279090054306795 -1.9344723090589406 104 83 56
-0.344532006139408 0.166733546735607 -1.931147254811011 101 80 51
-0.34464608486891346 0.16696739482428177 -1.9370527152247787 99 78 47
-0.3438286231281028 0.16769463430696413 -1.9436960305835647 96 75 44
-0.34213743128260765 0.16888499921865277 -1.9510386101452102 93 72 41
-0.3409893311155189 0.16978871624159794 -1.9579714169620777 95 74 43
-0.3415096992301666 0.1698096682287037 -1.9636018348737492 104 83 52
-0.3429441037536429 0.16934684721256718 -1.9685153397222457 104 83 54
-0.3442021391463935 0.16897759358396963 -1.973571666444942 105 84 55
-0.34939031012126776 0.1665259651144761 -1.9754992316700641 104 83 54
-0.35413680715831863 0.16430766189260312 -1.9777642536879187 107 86 56
-0.3568996993972662 0.16314026861175926 -1.9816063908773407 100 77 46
-0.3607843562890152 0.16137786896162612 -1.9845424259017643 96 73 42
-0.3673668257026969 0.1581841638480836 -1.98529254939056 95 72 41
-0.36864885536477165 0.15780119819828062 -1.9903094255802858 93 69 38
-0.3702902707535408 0.15722770507723638 -1.9950380035938264 93 69 39
-0.37112201806306755 0.15708401281178308 -2.0004274498270327 96 74 43
-0.3710437046941971 0.15742371012226683 -2.0065657527476075 97 76 45
-0.3645724286342843 0.16115843041547923 -2.017950837832404 93 73 40
-0.3588740159975302 0.16448473856113818 -2.0287428197029205 89 70 38
-0.3670851199796116 0.16042388348481018 -2.0281103905217854 89 72 40
-0.3707980870652018 0.15875156730965453 -2.031165053654016 87 70 38
-0.3767175679204158 0.15590614297369665 -2.0323818035312855 88 72 39
-0.3806381425971792 0.15412235075151018 -2.035241126390365 104 87 53
-0.37919114816103217 0.15519207780615374 -2.042567578256709 121 102 66
-0.3778465513230388 0.15620818841868303 -2.049825526172687 90 70 34
-0.38096436795196675 0.1548513078672162 -2.053355947561927 98 77 41
-0.38287656939124637 0.15413563216444398 -2.0578952970864828 103 81 43
-0.3897415759009508 0.15078407638485838 -2.058254457952486 104 82 43
-0.3976282787838853 0.14688743840045695 -2.0577240820350746 103 81 42
-0.39678612342083486 0.14763702364304465 -2.0645757690556144 104 82 43
-0.39447401165765306 0.1491701694501069 -2.0726935867056455 105 83 44
-0.3954438451641116 0.14895609336160257 -2.0780297643793637 104 82 43
-0.39465865546011447 0.14967738634715252 -2.0848746286188993 105 81 42
-0.39237991476506573 0.15119535404239873 -2.093016888815939 102 81 47
-0.4009028835412949 0.1469562919999641 -2.091872000348574 81 67 36
-0.4061515827291806 0.144461428993693 -2.0935239147746514 78 62 25
-0.41313492938844887 0.14104062163292277 -2.0936554225546313 121 99 52
-0.41969187936439944 0.13784602024654388 -2.094132097982847 136 110 65
-0.4201437399534623 0.13790778395881417 -2.0999090107448772 147 120 78
-0.4170559415920142 0.13985904534535545 -2.108789410437421 120 95 51
-0.41931638848543795 0.1389565525472078 -2.113004662361717 112 89 45
-0.42195296553936124 0.13785315339812212 -2.116887583052754 109 84 43
-0.43988633867248594 0.12857990054291626 -2.1072709469463033 107 82 42
-0.43804622692276496 0.12986570055348112 -2.115068887004726 106 81 41
-0.4492537474123398 0.12418070048995328 -2.1113073413468286 104 79 39
-0.45684698504207294 0.12102982537493351 -2.1230374979812563 101 76 35
-0.46553116585177684 0.11790145313364161 -2.1461352421004762 102 79 37
-0.4686649746752042 0.1165278955390773 -2.149485781732067 102 79 37
-0.4724061431716865 0.11482872608520109 -2.152275308232373 102 79 37
-0.4734294501455606 0.11458516707391903 -2.157545482223324 102 79 37
-0.4740978581592425 0.1145320300033359 -2.163146670424718 100 77 35
-0.4780335723736021 0.11272795013941661 -2.1657440184393053 100 77 35
-0.48078977608439977 0.11155572844526598 -2.169420892420706 100 77 35
-0.4776884407137604 0.11352446481394243 -2.1785219831398797 101 78 36
-0.48288672634303487 0.11104268094250777 -2.1799362683684596 102 79 36
-0.48546229053783074 0.10996719769942415 -2.18377787288191 101 78 36
-0.4889925674951565 0.10837920503127185 -2.186723803697065 102 78 36
-0.49069004839756325 0.10777461405519131 -2.191379393048099 105 81 38
-0.4984983708950557 0.10388909571408775 -2.1902918034283108 109 84 44
-0.49888447517848244 0.10398810703432809 -2.1961701026508678 110 84 45
-0.5003923054577053 0.10348496545643995 -2.20099630096145 106 83 42
-0.5046432928031728 0.10150801952958674 -2.203224094125437 102 79 38
-0.5056671719987151 0.10126484631313734 -2.20850785081134 96 74 33
-0.507948535534729 0.10034592918721949 -2.2125976130324863 95 73 32
-0.5085509176920039 0.10032972248967223 -2.2182910285364392 96 76 33
-0.5168942059964173 0.09615051993977322 -2.216569043371793 94 75 32
-0.5207259853878443 0.09439667992825204 -2.2191507247742392 91 73 28
-0.5233962238253854 0.09326736850859582 -2.222842280091079 93 75 29
-0.5264453966864333 0.09193390746701754 -2.2261634635148506 93 73 29
-0.5278017766691867 0.0915115026641479 -2.2311202374302748 89 71 28
-0.5320556068805217 0.08952896417969625 -2.233262508689028 87 70 27
-0.534672907565291 0.088427305670647 -2.2369881377412595 90 73 30
-0.5402781933178805 0.08571561975319156 -2.237787987546257 95 78 38
-0.5434956011803804 0.08428979486290117 -2.240909532763797 89 74 39
-0.5445434998872316 0.08403308365056986 -2.2461576371350653 88 73 43
-0.5426676338453384 0.08535304132902538 -2.254294016035512 88 75 51
-0.5423109040994255 0.0858547412888904 -2.2609490850905614 106 98 83
-0.5482008331213747 0.08298731574397367 -2.2614220462415675 133 129 120
-0.5534547117636757 0.0804620224762074 -2.2625057299072897 156 155 152
-0.5582899953655005 0.07816175311334506 -2.2639885102370796 179 179 178
-0.5614612275681135 0.07675904313462673 -2.267119285189641 190 190 190
-0.5602231153020527 0.07773700793255228 -2.2746648152361764 197 198 198
-0.13092309063574414 0.256555473887207 -1.5124852699413862 105 88 68
-0.13322727183625838 0.2556359265490965 -1.5168033540434358 105 89 68
-0.18098775118319066 0.23298909718962058 -1.5342966320408702 102 85 61
-0.18269752826159036 0.23237580900233015 -1.5388870395201921 110 92 67
-0.18496161107359893 0.23147350057978533 -1.5431548047959058 114 97 68
-0.18583199044230536 0.23129810438670728 -1.5482382561215253 115 99 66
-0.19028248991122426 0.2292551242514302 -1.5512202642577062 112 96 64
-0.19387989203378458 0.22765678717269802 -1.5546954188851145 108 90 61
-0.19762517540924085 0.2259809217875213 -1.5580760318303204 96 78 52
-0.20127704619429249 0.2243534444192553 -1.561504628662417 89 71 49
-0.20532569391342254 0.22251843532348287 -1.5646892553841818 91 75 50
-0.21097713998551193 0.21984592440467393 -1.566905057448385 102 85 59
-0.21624550819079386 0.21737273107848676 -1.5693353468532076 103 86 60
-0.22333846155367548 0.2139455572639386 -1.5706509138139142 102 85 59
-0.22749595766644393 0.21205126379167927 -1.573721392226426 116 99 72
-0.23256952083049937 0.2096776938301644 -1.5762259238504912 108 92 66
-0.2372000425027571 0.20753506975593705 -1.5789871274975682 97 80 56
-0.24273819208375502 0.20491728193621359 -1.5811815241807214 95 79 54
-0.24698690734678974 0.20297309302741098 -1.5841520685944679 104 86 62
-0.2528204549943428 0.20019937613777733 -1.5861362623666284 99 82 56
-0.2603592924555519 0.19653259331303577 -1.5870493286622813 116 98 68
-0.26812719012184233 0.19274473105561865 -1.5877960341635433 127 107 76
-0.27423101972968045 0.18982662845255888 -1.5895534759318917 125 105 72
-0.2841054986102852 0.184933552371888 -1.5889370358323467 131 109 74
-0.29108331363453566 0.18155557621063467 -1.5901020523122404 135 111 76
-0.300051848022663 0.1771338578944582 -1.5899926484301914 122 100 68
-0.30888864269971916 0.17277962065722713 -1.5899356472787927 124 104 69
-0.3157453354521353 0.16946139119345985 -1.5911027496184815 135 111 74
-0.321289469752526 0.16682996782112627 -1.593082549085806 140 115 80
-0.3257122357721738 0.16478555827432448 -1.5957616743008078 112 92 60
-0.32772084049170974 0.1640063373358724 -1.5999749384885296 129 103 66
-0.3298379113219928 0.1631702121883055 -1.604118062212997 146 118 79
-0.32930489289717463 0.16372405669272833 -1.6099681065386933 141 115 79
-0.3514956882464284 0.1526296298682293 -1.6066096563481909 138 118 86
-0.35420122934561055 0.1514827702123209 -1.6103319392508415 135 112 81
-0.34658234845411706 0.15575561307568536 -1.620795558868182 92 71 41
-0.35969357525818874 0.14914584002530218 -1.61771235524623 96 76 48
-0.36218250783313755 0.14811218683856395 -1.6215660337883278 98 79 50
-0.3636777021910618 0.1476004002454435 -1.6260728629548336 93 73 45
-0.36365115284643024 0.1478882253115639 -1.6315891254119907 93 72 45
-0.3651922658874194 0.14735265054409985 -1.636072324017684 93 73 44
-0.36594198848692516 0.14723312595589463 -1.6410846620911816 92 72 43
-0.36650174795065454 0.14721372533004146 -1.6462291620781595 91 69 40
-0.3649770283655647 0.14829073724477593 -1.6527786130479145 106 85 58
-0.2753771124211439 0.19712830469267253 -1.7474819077318535 117 97 70
-0.2688050301892054 0.2008778931874536 -1.75778909128244 116 97 69
-0.2542222582678876 0.2088490140713874 -1.7736561380836 116 97 67
-0.2535512206312803 0.2094943568976798 -1.7799787039755912 122 102 72
-0.25571080834369186 0.20864864032903127 -1.784349597519912 121 101 69
-0.26227538674434037 0.20548107422778547 -1.7856536459176482 112 94 63
-0.26678204688352036 0.2033974024267653 -1.7883739040982158 105 87 64
-0.27196963661408535 0.20095409251471738 -1.7906055616203955 107 89 67
-0.2698207785775355 0.202379502664078 -1.797979407757285 109 91 69
-0.27308783891568267 0.2009487290875732 -1.8015528849601565 113 97 74
-0.27765084887835934 0.19883384500008644 -1.8042035832424332 101 85 62
-0.27327733037679514 0.2014348183792484 -1.813185618794955 91 75 50
-0.2700959809714687 0.20340792163915714 -1.8213480118411836 108 90 63
-0.2770771203518789 0.200310590992948 -1.8281804886786612 103 85 59
-0.27938063376039823 0.19968329018839243 -1.8383594818496058 104 87 60
-0.2898485666386361 0.19444666971412938 -1.8367127393485652 104 86 58
-0.2990793489367517 0.18986201638577954 -1.835924736359709 106 87 57
-0.30247957226544353 0.1883582720890351 -1.8393496649725114 107 87 60
-0.3028802116636289 0.18844041333662326 -1.8449597218842746 101 81 56
-0.30454477402015245 0.18785439705165433 -1.8496506633034775 98 79 54
-0.30664582775467064 0.18703753045168675 -1.854022094419996 94 76 51
-0.30874669037149294 0.18622073650567872 -1.8583930947614467 96 78 53
-0.31084736187061945 0.1854040152136303 -1.862763664327829 98 80 55
-0.3146075141468683 0.18370874245497892 -1.865901630338302 98 81 56
-0.31277771786210873 0.1849730056603867 -1.8731944618153245 97 80 55
-0.31642951643301365 0.18333494024791366 -1.8764097657381307 96 78 53
-0.31698894229806585 0.18333466259245135 -1.881934904578248 93 76 51
-0.3193694383941581 0.1823697948990322 -1.8860975602295387 91 74 48
-0.3216718841627332 0.18144619816044297 -1.8903171862531258 89 72 46
-0.32279730283179997 0.18114647121289687 -1.8954258391191248 88 71 45
-0.3247812527271311 0.18039173466375424 -1.8998869351845427 95 75 48
-0.32583960533805145 0.18012787912670222 -1.9050527453289803 96 76 49
-0.3260134984326096 0.18033341280102236 -1.9108984778082307 97 77 50
-0.32686605959115855 0.1801792901172639 -1.9162328848914285 92 72 45
-0.32660350038663133 0.1806172289606472 -1.9224297312407517 90 68 43
-0.3273969568130629 0.18049515300801036 -1.9278232154329884 103 82 55
-0.32861612818412844 0.18014733443319647 -1.932893197588161 109 88 60
-0.33087108155892686 0.1792496406192695 -1.9371633542262316 105 84 56
-0.3363253103739129 0.17665250150520567 -1.9389426453565797 104 83 54
-0.32868632826151234 0.18101091269843494 -1.9509255141093136 100 79 48
-0.33108023516351837 0.18003998905815483 -1.9550991676340863 97 76 45
-0.3390762698863433 0.176091224371111 -1.9548708488484194 94 73 42
-0.334036492159806 0.1790716136856843 -1.9648836069384767 102 81 50
-0.33451701222129016 0.1791181202214813 -1.9705679492734651 107 86 55
-0.34037734632413286 0.1763034647068818 -1.9719950292949555 105 84 54
-0.3424713260714509 0.1754916551718238 -1.976398056107402 105 84 55
-0.34805903781735736 0.17282065215884979 -1.9780140291244075 102 81 52
-0.35325287603513333 0.170358418397404 -1.9799275226108866 101 80 51
-0.35619043152271535 0.16909661950179486 -1.9836359292685495 100 79 48
-0.3598473094726532 0.16745154154464958 -1.9867606572958962 97 76 45
-0.36475063732282076 0.16514215493812867 -1.9888707990643186 96 74 43
-0.367082924229287 0.16420178653039583 -1.9930487175606668 94 72 41
-0.3676558784043221 0.16419884033640922 -1.9986540258629018 93 70 39
-0.36241004110168007 0.16729765792958107 -2.009007310469757 97 76 45
-0.3692966071478323 0.16393018616178387 -2.009481101642874 98 77 46
-0.3549673793886543 0.17187476027319532 -2.027321803365038 96 75 44
-0.356066143165255 0.17159453131183 -2.0325584012764986 96 78 45
-0.3665577646339816 0.16630349037975897 -2.0300532399313345 92 76 42
-0.37058341881146717 0.1644607004839469 -2.03285432589045 85 69 35
-0.378051197565485 0.1607801981927915 -2.032789427316396 109 91 55
-0.37908179502433925 0.1605349286461388 -2.0380539945078193 126 106 71
-0.37666700350996507 0.16212970328037019 -2.0461990889451487 105 85 49
-0.3719360021794742 0.16496269960376203 -2.056305288888857 100 81 41
-0.3863584152630789 0.15817709051426407 -2.0626547034878184 106 84 44
-0.3942134136180864 0.15428454853621512 -2.062160839595343 105 83 45
-0.3937139550366724 0.15485801376149438 -2.068736600703083 105 83 45
-0.3995209608159296 0.15205897524789005 -2.069950001728444 105 83 45
-0.39640192337422997 0.1540343571583879 -2.078774185459848 105 83 44
-0.3972592947206418 0.15388316820802264 -2.0842150493750076 105 82 47
-0.3965000068323743 0.15459757764458104 -2.091051805751764 93 73 42
-0.4024830158234344 0.15170303033855484 -2.0920876913235267 77 62 30
-0.4083827681443202 0.14885205245703628 -2.093175222215164 98 81 42
-0.4165133605711349 0.1448051769846881 -2.092307399796807 135 110 67
