ply
format ascii 1.0
element vertex 858
property float x
property float y
property float z
property float nx
property float ny
property float nz
property uchar diffuse_red
property uchar diffuse_green
property uchar diffuse_blue
property uchar class
property uchar detection
end_header
0.4012 -0.1902 -2.0967 0.731 -0.512 0.451 90 71 35 0 0
0.4029 -0.1914 -2.1008 0.731 -0.512 0.451 84 63 27 0 0
0.4345 -0.2133 -2.1566 0.791 -0.424 0.441 69 46 15 0 0
0.4362 -0.2145 -2.1608 0.791 -0.424 0.441 67 44 13 0 0
0.4438 -0.2198 -2.1764 0.783 -0.466 0.412 76 55 21 0 0
0.4462 -0.2215 -2.1798 0.684 -0.498 0.533 84 60 22 0 0
0.4502 -0.2242 -2.1874 0.667 -0.443 0.599 95 71 31 0 0
0.4828 -0.2466 -2.2292 0.706 -0.571 0.418 100 75 35 0 0
0.0692 0.0437 -0.9205 0.365 -0.456 0.812 146 117 77 0 0
0.0712 0.0423 -0.9245 0.342 -0.509 0.790 122 94 57 0 0
0.0726 0.0413 -0.9287 0.389 -0.679 0.623 111 91 56 0 0
0.0735 0.0407 -0.9330 0.731 -0.681 0.042 100 80 50 0 0
0.0735 0.0406 -0.9377 0.610 -0.757 0.234 78 58 32 0 0
0.0161 0.0748 -1.1729 0.479 -0.819 0.317 71 62 47 0 0
0.0179 0.0736 -1.1772 0.480 -0.673 0.563 72 66 49 0 0
0.1006 0.0185 -1.1878 0.311 -0.855 0.416 100 79 48 0 0
0.1387 -0.0096 -1.3551 0.735 -0.431 0.523 131 111 81 0 0
0.1408 -0.0110 -1.3591 0.735 -0.431 0.523 131 108 74 0 0
0.2534 -0.0883 -1.5173 0.813 -0.512 0.277 54 36 14 0 0
0.2640 -0.0959 -1.5518 0.779 -0.514 0.360 34 21 8 0 0
0.2917 -0.1150 -1.5954 0.602 -0.282 0.747 119 98 68 0 0
0.2964 -0.1181 -1.5974 0.732 -0.220 0.646 120 98 65 0 0
0.3241 -0.1367 -1.6088 0.350 -0.237 0.906 148 121 79 0 0
0.3490 -0.1535 -1.6269 0.722 -0.516 0.461 67 47 22 0 0
0.3035 -0.1257 -1.7689 0.817 -0.514 0.261 56 37 15 0 0
0.3108 -0.1308 -1.7906 0.735 -0.505 0.452 133 107 68 0 0
0.3191 -0.1366 -1.8058 0.493 -0.615 0.616 82 56 27 0 0
0.3424 -0.1535 -1.8917 0.672 -0.664 0.328 64 40 16 0 0
0.3457 -0.1558 -1.9000 0.742 -0.302 0.598 67 43 19 0 0
0.3468 -0.1567 -1.9103 0.692 -0.488 0.532 69 43 19 0 0
0.3522 -0.1605 -1.9224 0.608 -0.622 0.494 70 44 22 0 0
0.3572 -0.1640 -1.9349 0.853 -0.387 0.349 67 41 20 0 0
0.3762 -0.1778 -2.0085 0.792 -0.578 0.196 61 39 16 0 0
0.3855 -0.1845 -2.0398 0.673 -0.531 0.515 79 53 24 0 0
0.3911 -0.1885 -2.0576 0.835 -0.336 0.436 67 43 17 0 0
0.3951 -0.1917 -2.0884 0.745 -0.537 0.395 157 125 75 0 0
0.3966 -0.1927 -2.0927 0.745 -0.537 0.395 149 121 78 0 0
0.4024 -0.1967 -2.0987 0.718 -0.470 0.514 85 64 30 0 0
0.4800 -0.2503 -2.2295 0.706 -0.571 0.418 105 80 40 0 0
0.0729 0.0347 -0.9843 0.170 -0.962 0.213 82 63 37 0 0
0.0736 0.0342 -0.9888 0.173 -0.980 0.102 87 70 48 0 0
0.0665 0.0387 -1.0013 0.048 -0.914 -0.402 177 174 171 0 0
0.0047 0.0765 -1.1769 0.280 -0.794 0.540 52 43 29 0 0
0.0116 0.0719 -1.1839 0.313 -0.668 0.675 39 33 20 0 0
0.0849 0.0232 -1.1942 -0.019 -0.550 0.835 102 83 48 0 0
0.1337 -0.0104 -1.2698 0.945 -0.218 -0.244 62 44 20 0 0
0.1276 -0.0067 -1.2933 0.861 -0.497 -0.109 64 49 27 0 0
0.1343 -0.0121 -1.3510 0.757 -0.399 0.517 102 87 62 0 0
0.1408 -0.0165 -1.3524 0.712 -0.436 0.550 149 127 97 0 0
0.1433 -0.0182 -1.3562 0.654 -0.469 0.594 122 98 61 0 0
0.1456 -0.0198 -1.3600 0.549 -0.446 0.707 185 165 121 0 0
0.2058 -0.0606 -1.4169 0.833 -0.398 0.385 101 78 43 0 0
0.2088 -0.0627 -1.4253 0.809 -0.463 0.363 113 89 51 0 0
0.2369 -0.0826 -1.5005 0.748 -0.621 0.234 74 55 26 0 0
0.2417 -0.0858 -1.5025 0.661 -0.537 0.524 81 61 33 0 0
0.2534 -0.0939 -1.5260 0.902 -0.395 0.177 58 39 16 0 0
0.2537 -0.0942 -1.5310 0.895 -0.217 0.390 95 76 48 0 0
0.2544 -0.0948 -1.5357 0.791 -0.444 0.422 84 66 35 0 0
0.2659 -0.1029 -1.5697 0.779 -0.349 0.521 67 45 22 0 0
0.2679 -0.1044 -1.5736 0.834 -0.358 0.420 56 35 15 0 0
0.2709 -0.1064 -1.5820 0.685 -0.431 0.587 61 46 26 0 0
0.2893 -0.1189 -1.5953 0.517 -0.248 0.819 111 90 66 0 0
0.3128 -0.1381 -1.8088 0.843 -0.048 0.536 79 52 25 0 0
0.3228 -0.1448 -1.8172 0.717 -0.601 0.353 80 55 25 0 0
0.3274 -0.1485 -1.8520 0.671 -0.714 0.199 74 48 23 0 0
0.3290 -0.1497 -1.8619 0.763 -0.626 0.159 71 45 20 0 0
0.3296 -0.1502 -1.8669 0.763 -0.626 0.159 76 50 25 0 0
0.3389 -0.1567 -1.8868 0.800 -0.411 0.437 70 44 19 0 0
0.3401 -0.1576 -1.8914 0.757 -0.512 0.407 63 38 15 0 0
0.3417 -0.1586 -1.8956 0.757 -0.512 0.407 63 39 15 0 0
0.3425 -0.1593 -1.9005 0.637 -0.506 0.581 68 44 20 0 0
0.3459 -0.1617 -1.9088 0.802 -0.456 0.386 70 44 19 0 0
0.3468 -0.1623 -1.9136 0.745 -0.459 0.484 70 44 21 0 0
0.3486 -0.1636 -1.9176 0.745 -0.459 0.484 70 44 21 0 0
0.3504 -0.1648 -1.9217 0.845 -0.427 0.322 71 45 23 0 0
0.3551 -0.1682 -1.9344 0.853 -0.387 0.349 67 40 19 0 0
0.3721 -0.1806 -2.0041 0.750 -0.539 0.385 61 39 17 0 0
0.3876 -0.1918 -2.0583 0.734 -0.585 0.345 69 45 18 0 0
0.3998 -0.2006 -2.0986 0.718 -0.470 0.514 83 62 30 0 0
0.4142 -0.2107 -2.1368 0.771 -0.424 0.476 83 63 27 0 0
0.4298 -0.2214 -2.1561 0.683 -0.575 0.450 71 50 19 0 0
0.4315 -0.2226 -2.1602 0.744 -0.495 0.449 67 46 15 0 0
0.4332 -0.2238 -2.1643 0.744 -0.495 0.449 69 49 17 0 0
0.4721 -0.2505 -2.2234 0.752 -0.540 0.378 111 87 43 0 0
0.4772 -0.2540 -2.2297 0.706 -0.571 0.418 108 83 41 0 0
0.4836 -0.2587 -2.2583 0.888 -0.381 0.257 77 67 41 0 0
0.4852 -0.2598 -2.2625 0.763 -0.387 0.518 79 69 49 0 0
0.0652 0.0350 -0.9483 0.402 -0.899 0.174 73 56 30 0 0
0.0663 0.0337 -0.9811 0.173 -0.972 0.158 80 62 33 0 0
0.0668 0.0333 -0.9857 0.170 -0.962 0.213 82 66 45 0 0
0.0029 0.0721 -1.1714 0.440 -0.721 0.535 62 55 40 0 0
0.0058 0.0702 -1.1751 0.567 -0.693 0.446 35 26 15 0 0
0.0082 0.0685 -1.1791 0.593 -0.683 0.427 20 15 6 0 0
0.0100 0.0673 -1.1834 0.593 -0.683 0.427 19 12 3 0 0
0.0863 0.0167 -1.1972 0.048 -0.431 0.901 99 81 47 0 0
0.1347 -0.0156 -1.2179 0.134 -0.564 0.815 132 105 65 0 0
0.1494 -0.0256 -1.2351 0.687 -0.706 0.173 72 51 23 0 0
0.1299 -0.0134 -1.2704 0.836 -0.513 -0.193 61 43 20 0 0
0.1253 -0.0108 -1.2931 0.898 -0.436 -0.058 63 48 26 0 0
0.1894 -0.0551 -1.4098 0.867 -0.352 0.353 201 172 120 0 0
0.2055 -0.0659 -1.4206 0.753 -0.588 0.295 122 99 60 0 0
0.2296 -0.0827 -1.4724 0.797 -0.496 0.345 62 38 16 0 0
0.2361 -0.0877 -1.5044 0.750 -0.460 0.476 72 51 25 0 0
0.2379 -0.0889 -1.5085 0.750 -0.460 0.476 74 52 28 0 0
0.2397 -0.0902 -1.5125 0.750 -0.460 0.476 65 45 21 0 0
0.3216 -0.1458 -1.6068 0.554 -0.089 0.828 174 141 91 0 0
0.3427 -0.1600 -1.6226 0.855 -0.065 0.514 76 53 26 0 0
0.3505 -0.1656 -1.6429 0.967 0.142 0.213 80 60 30 0 0
0.3003 -0.1342 -1.7400 0.813 -0.554 0.181 65 47 26 0 0
0.3053 -0.1384 -1.7907 0.911 -0.411 -0.037 112 88 54 0 0
0.3242 -0.1517 -1.8359 0.532 -0.829 -0.172 78 52 25 0 0
0.3279 -0.1546 -1.8661 0.864 -0.491 0.112 74 48 23 0 0
0.3284 -0.1550 -1.8712 0.237 -0.864 0.444 76 50 25 0 0
0.3391 -0.1625 -1.8956 0.757 -0.512 0.407 68 42 19 0 0
0.3450 -0.1667 -1.9128 0.807 -0.430 0.405 69 43 19 0 0
0.3466 -0.1678 -1.9171 0.807 -0.430 0.405 70 44 21 0 0
0.3481 -0.1689 -1.9214 0.845 -0.427 0.322 71 45 22 0 0
0.3520 -0.1718 -1.9348 0.775 -0.365 0.516 71 45 22 0 0
0.3804 -0.1925 -2.0454 0.490 -0.827 0.277 75 50 25 0 0
0.3845 -0.1954 -2.0588 0.740 -0.609 0.284 76 51 22 0 0
0.3935 -0.2017 -2.0848 0.680 -0.603 0.417 125 102 55 0 0
0.3951 -0.2029 -2.0891 0.680 -0.603 0.417 123 96 54 0 0
0.3972 -0.2045 -2.0986 0.718 -0.470 0.514 82 61 28 0 0
0.4090 -0.2128 -2.1276 0.799 -0.515 0.311 74 53 21 0 0
0.4269 -0.2251 -2.1563 0.683 -0.575 0.450 72 51 20 0 0
0.4369 -0.2320 -2.1754 0.737 -0.466 0.490 82 60 23 0 0
0.0487 0.0394 -1.0016 -0.043 -0.923 -0.382 183 183 185 0 0
0.0821 0.0137 -1.2029 0.236 -0.527 0.816 122 106 74 0 0
0.2317 -0.0901 -1.5004 0.836 -0.409 0.366 75 53 28 0 0
0.2373 -0.0940 -1.5124 0.750 -0.460 0.476 62 42 19 0 0
0.2390 -0.0953 -1.5217 0.740 -0.616 0.269 53 35 16 0 0
0.2631 -0.1122 -1.5785 0.765 -0.510 0.392 48 34 15 0 0
0.2645 -0.1133 -1.5828 0.765 -0.510 0.392 59 44 28 0 0
0.3511 -0.1713 -1.6405 0.748 0.173 0.641 77 57 30 0 0
0.2909 -0.1331 -1.7182 0.734 -0.583 0.349 68 47 28 0 0
0.3018 -0.1415 -1.7859 0.765 -0.534 0.360 64 40 20 0 0
0.3088 -0.1467 -1.8132 0.951 -0.066 0.302 75 48 23 0 0
0.3524 -0.1777 -1.9434 0.792 -0.516 0.326 71 45 20 0 0
0.3533 -0.1784 -1.9483 0.857 -0.409 0.315 75 49 24 0 0
0.3545 -0.1793 -1.9528 0.857 -0.409 0.315 76 51 25 0 0
0.3615 -0.1845 -1.9862 0.807 -0.453 0.379 75 49 22 0 0
0.3776 -0.1962 -2.0455 0.849 -0.377 0.370 78 53 27 0 0
0.4053 -0.2159 -2.1228 0.712 -0.563 0.419 82 59 26 0 0
0.4223 -0.2275 -2.1525 0.683 -0.575 0.450 69 48 17 0 0
0.4240 -0.2287 -2.1566 0.683 -0.575 0.450 69 48 17 0 0
0.4257 -0.2299 -2.1607 0.683 -0.575 0.450 71 50 19 0 0
0.4347 -0.2362 -2.1749 0.668 -0.461 0.584 81 58 21 0 0
0.4384 -0.2386 -2.1770 0.898 -0.295 0.326 83 61 22 0 0
0.4834 -0.2698 -2.2646 0.882 -0.349 0.317 97 89 77 0 0
0.1487 -0.0387 -1.3690 0.655 -0.519 0.549 221 192 139 0 0
0.2226 -0.0892 -1.4735 0.650 -0.713 0.262 76 54 26 0 0
0.2349 -0.0978 -1.5018 0.836 -0.414 0.361 76 55 28 0 0
0.2363 -0.0988 -1.5061 0.836 -0.414 0.361 76 56 28 0 0
0.2377 -0.0998 -1.5104 0.836 -0.414 0.361 60 42 18 0 0
0.2622 -0.1170 -1.5721 0.761 -0.593 0.262 60 38 16 0 0
0.2612 -0.1165 -1.5780 0.813 -0.487 0.320 56 39 17 0 0
0.2633 -0.1179 -1.5818 0.755 -0.513 0.409 69 55 34 0 0
0.2961 -0.1398 -1.6006 0.427 -0.381 0.820 145 116 72 0 0
0.2995 -0.1421 -1.6034 0.427 -0.381 0.820 164 134 86 0 0
0.3369 -0.1671 -1.6283 0.660 -0.534 0.529 59 38 16 0 0
0.3416 -0.1704 -1.6405 0.663 -0.748 -0.003 72 50 28 0 0
0.3480 -0.1746 -1.6409 0.370 -0.153 0.916 64 44 21 0 0
0.2873 -0.1362 -1.7135 0.874 -0.374 0.309 66 45 20 0 0
0.3031 -0.1478 -1.7772 0.889 -0.282 0.361 66 46 25 0 0
0.3085 -0.1524 -1.8334 0.973 -0.223 0.049 76 50 25 0 0
0.3301 -0.1677 -1.8932 0.532 -0.790 0.304 65 38 16 0 0
0.3404 -0.1748 -1.9123 0.644 -0.416 0.642 69 43 20 0 0
0.3482 -0.1803 -1.9278 0.874 -0.413 0.255 73 47 24 0 0
0.3499 -0.1815 -1.9376 0.867 -0.426 0.257 72 46 23 0 0
0.3519 -0.1831 -1.9471 0.913 -0.319 0.255 74 48 22 0 0
0.3524 -0.1835 -1.9523 0.857 -0.409 0.315 78 52 27 0 0
0.3574 -0.1872 -1.9761 0.831 -0.392 0.395 71 46 20 0 0
0.3576 -0.1875 -1.9816 0.807 -0.453 0.379 70 46 20 0 0
0.3591 -0.1885 -1.9859 0.807 -0.453 0.379 74 50 23 0 0
0.3610 -0.1898 -1.9899 0.830 -0.443 0.340 76 52 24 0 0
0.3619 -0.1905 -1.9948 0.805 -0.465 0.369 75 51 26 0 0
0.3641 -0.1920 -1.9985 0.668 -0.657 0.350 74 49 27 0 0
0.3785 -0.2024 -2.0479 0.781 -0.479 0.400 79 54 24 0 0
0.3806 -0.2039 -2.0517 0.670 -0.472 0.573 78 53 23 0 0
0.3958 -0.2148 -2.1006 0.600 -0.580 0.552 79 56 24 0 0
0.4096 -0.2242 -2.1218 0.742 -0.522 0.420 78 57 26 0 0
0.4112 -0.2253 -2.1260 0.742 -0.522 0.420 78 57 26 0 0
0.4128 -0.2265 -2.1302 0.742 -0.522 0.420 70 49 18 0 0
0.4223 -0.2332 -2.1556 0.803 -0.308 0.510 67 46 15 0 0
0.4348 -0.2417 -2.1721 0.706 -0.446 0.550 83 60 24 0 0
0.4371 -0.2434 -2.1814 0.878 -0.412 0.245 90 66 28 0 0
0.4664 -0.2636 -2.2329 0.798 -0.480 0.365 107 82 40 0 0
0.4800 -0.2728 -2.2476 0.733 -0.547 0.404 82 71 38 0 0
0.0884 -0.0017 -1.2122 0.229 -0.552 0.802 155 128 83 0 0
0.0936 -0.0052 -1.2146 0.237 -0.450 0.861 124 95 50 0 0
0.1242 -0.0263 -1.2692 0.867 -0.489 -0.098 62 45 24 0 0
0.1251 -0.0284 -1.3450 0.784 -0.526 0.329 87 71 48 0 0
0.1460 -0.0425 -1.3690 0.604 -0.594 0.531 230 203 145 0 0
0.1674 -0.0569 -1.3925 0.729 -0.516 0.449 207 176 120 0 0
0.1691 -0.0582 -1.3966 0.783 -0.514 0.349 220 192 136 0 0
0.1701 -0.0590 -1.4063 0.633 -0.708 0.313 190 162 114 0 0
0.2328 -0.1019 -1.5015 0.836 -0.414 0.361 79 57 33 0 0
0.2342 -0.1029 -1.5057 0.836 -0.414 0.361 68 48 22 0 0
0.2355 -0.1038 -1.5100 0.836 -0.414 0.361 65 47 22 0 0
0.2363 -0.1045 -1.5199 0.777 -0.503 0.380 55 37 16 0 0
0.2545 -0.1171 -1.5546 0.831 -0.453 0.322 64 43 17 0 0
0.2580 -0.1197 -1.5679 0.871 -0.395 0.293 86 64 37 0 0
0.2612 -0.1219 -1.5762 0.670 -0.673 0.313 65 43 25 0 0
0.2899 -0.1411 -1.5979 0.251 -0.225 0.941 137 117 75 0 0
0.3386 -0.1737 -1.6356 0.681 -0.493 0.541 61 40 18 0 0
0.3014 -0.1522 -1.7765 0.889 -0.282 0.361 62 41 20 0 0
0.3420 -0.1816 -1.9198 0.850 -0.406 0.337 70 44 21 0 0
0.3432 -0.1825 -1.9243 0.857 -0.439 0.271 72 46 23 0 0
0.3534 -0.1901 -1.9716 0.822 -0.538 0.186 70 44 19 0 0
0.3550 -0.1912 -1.9759 0.764 -0.484 0.426 70 45 19 0 0
0.3553 -0.1915 -1.9813 0.807 -0.453 0.379 68 44 18 0 0
0.3574 -0.1929 -1.9851 0.830 -0.443 0.340 69 45 20 0 0
0.3587 -0.1939 -1.9896 0.830 -0.443 0.340 63 39 15 0 0
0.3619 -0.1962 -1.9980 0.706 -0.541 0.457 72 48 22 0 0
0.3997 -0.2229 -2.0999 0.759 -0.421 0.496 75 52 20 0 0
0.4064 -0.2278 -2.1223 0.590 -0.544 0.596 79 58 27 0 0
0.4084 -0.2292 -2.1261 0.647 -0.593 0.480 77 56 25 0 0
0.4342 -0.2470 -2.1758 0.884 -0.316 0.344 94 71 30 0 0
0.4488 -0.2572 -2.2076 0.729 -0.623 0.285 110 86 40 0 0
0.4795 -0.2785 -2.2690 0.461 -0.679 0.572 127 120 110 0 0
-0.0597 0.0956 -0.9043 0.131 -0.690 0.712 159 156 151 0 0
0.0851 -0.0051 -1.2125 0.452 -0.382 0.806 113 92 53 0 0
0.1343 -0.0379 -1.2474 0.723 -0.685 0.091 72 53 23 0 0
0.1301 -0.0353 -1.2546 0.959 -0.173 -0.227 66 48 21 0 0
0.1230 -0.0311 -1.2734 0.889 -0.316 -0.331 60 43 24 0 0
0.1220 -0.0319 -1.3452 0.599 -0.602 0.528 124 105 81 0 0
0.1241 -0.0333 -1.3492 0.599 -0.602 0.528 105 81 52 0 0
0.1416 -0.0451 -1.3649 0.496 -0.578 0.648 159 141 111 0 0
0.1430 -0.0461 -1.3692 0.624 -0.563 0.542 187 164 123 0 0
0.1493 -0.0503 -1.3759 0.752 -0.361 0.551 241 218 164 0 0
0.1956 -0.0816 -1.4304 0.840 -0.440 0.318 110 82 47 0 0
0.2309 -0.1061 -1.5010 0.768 -0.541 0.342 69 48 20 0 0
0.2496 -0.1195 -1.5562 0.818 -0.209 0.536 72 49 22 0 0
0.2520 -0.1211 -1.5598 0.929 -0.177 0.324 86 62 29 0 0
0.2822 -0.1415 -1.5963 0.632 -0.219 0.743 123 101 69 0 0
0.2840 -0.1428 -1.6003 0.625 -0.208 0.752 138 116 77 0 0
0.3341 -0.1760 -1.6266 0.840 -0.412 0.353 50 32 11 0 0
0.2872 -0.1471 -1.7095 0.812 -0.541 0.220 78 57 29 0 0
0.2881 -0.1478 -1.7143 0.812 -0.541 0.220 67 47 24 0 0
0.2883 -0.1480 -1.7195 0.834 -0.434 0.341 57 38 20 0 0
0.2904 -0.1494 -1.7233 0.863 -0.477 0.167 50 33 15 0 0
0.2947 -0.1530 -1.7579 0.866 -0.456 0.207 61 40 18 0 0
0.3020 -0.1583 -1.7849 0.734 -0.471 0.490 102 79 44 0 0
0.3035 -0.1593 -1.7892 0.664 -0.481 0.572 108 86 53 0 0
0.3104 -0.1644 -1.8165 0.942 0.064 0.328 73 47 22 0 0
0.3055 -0.1615 -1.8316 0.950 -0.307 0.048 72 46 21 0 0
0.3151 -0.1686 -1.8736 0.658 -0.617 0.432 74 46 22 0 0
0.3420 -0.1875 -1.9400 0.487 -0.639 0.596 75 49 25 0 0
0.3453 -0.1898 -1.9426 0.730 -0.606 0.316 71 45 20 0 0
0.3466 -0.1907 -1.9472 0.730 -0.606 0.316 75 49 23 0 0
0.3509 -0.1940 -1.9716 0.822 -0.538 0.186 71 45 20 0 0
0.3527 -0.1953 -1.9756 0.820 -0.448 0.356 74 48 23 0 0
0.3529 -0.1955 -1.9811 0.807 -0.453 0.379 77 53 27 0 0
0.3551 -0.1970 -1.9848 0.830 -0.443 0.340 74 50 25 0 0
0.3564 -0.1980 -1.9893 0.830 -0.443 0.340 64 40 16 0 0
0.3759 -0.2121 -2.0568 0.849 -0.412 0.331 77 52 22 0 0
0.4139 -0.2389 -2.1529 0.788 -0.504 0.354 78 57 26 0 0
0.4495 -0.2633 -2.2158 0.764 -0.279 0.582 116 92 46 0 0
0.0684 0.0003 -1.2094 0.180 -0.203 0.962 118 95 58 0 0
0.0745 -0.0038 -1.2114 0.180 -0.203 0.962 112 91 53 0 0
0.1200 -0.0362 -1.3448 0.808 -0.544 0.228 91 73 50 0 0
0.1397 -0.0494 -1.3644 0.628 -0.468 0.622 122 107 79 0 0
0.1630 -0.0652 -1.3971 0.764 -0.406 0.502 230 203 158 0 0
0.1773 -0.0748 -1.4091 0.798 -0.454 0.397 167 136 88 0 0
0.1971 -0.0881 -1.4279 0.767 -0.370 0.524 102 77 42 0 0
0.2296 -0.1110 -1.5157 0.878 -0.440 0.191 58 41 18 0 0
0.3245 -0.1748 -1.6109 0.664 -0.680 0.310 165 136 97 0 0
0.3307 -0.1790 -1.6220 0.821 -0.458 0.340 66 49 25 0 0
0.3319 -0.1799 -1.6263 0.821 -0.458 0.340 60 45 22 0 0
0.3332 -0.1809 -1.6306 0.866 -0.408 0.288 61 42 19 0 0
0.3361 -0.1829 -1.6389 0.531 -0.752 0.390 74 54 30 0 0
0.2875 -0.1531 -1.7235 0.756 -0.571 0.320 57 40 24 0 0
0.2884 -0.1538 -1.7282 0.745 -0.610 0.270 71 55 38 0 0
0.2916 -0.1564 -1.7528 0.797 -0.546 0.258 80 58 34 0 0
0.2918 -0.1567 -1.7581 0.791 -0.480 0.379 59 35 14 0 0
0.3026 -0.1644 -1.7932 0.215 -0.839 0.500 78 59 28 0 0
0.3203 -0.1779 -1.8836 0.765 -0.574 0.291 71 44 20 0 0
0.3350 -0.1883 -1.9269 0.695 -0.684 0.224 74 48 25 0 0
0.3501 -0.1991 -1.9756 0.778 -0.538 0.325 83 58 32 0 0
0.3505 -0.1995 -1.9808 0.807 -0.453 0.379 79 55 29 0 0
0.3528 -0.2011 -1.9845 0.830 -0.443 0.340 77 52 27 0 0
0.3541 -0.2020 -1.9889 0.830 -0.443 0.340 71 46 22 0 0
0.3734 -0.2158 -2.0452 0.770 -0.411 0.488 76 52 22 0 0
0.3853 -0.2246 -2.0973 0.806 -0.426 0.410 80 58 24 0 0
0.4187 -0.2475 -2.1512 0.731 -0.375 0.570 76 55 23 0 0
0.4263 -0.2527 -2.1610 0.803 -0.481 0.352 80 57 24 0 0
0.4277 -0.2536 -2.1654 0.803 -0.481 0.352 86 63 30 0 0
0.4331 -0.2574 -2.1774 0.752 -0.477 0.455 93 69 31 0 0
0.4322 -0.2571 -2.1900 0.721 -0.462 0.517 102 78 35 0 0
0.4358 -0.2596 -2.1981 0.742 -0.341 0.577 95 73 30 0 0
0.4381 -0.2612 -2.2015 0.695 -0.447 0.563 109 85 38 0 0
0.4475 -0.2676 -2.2152 0.764 -0.279 0.582 113 88 44 0 0
0.4653 -0.2795 -2.2315 0.792 -0.439 0.424 110 85 42 0 0
-0.0481 0.0769 -0.9030 -0.117 -0.268 0.956 120 108 90 0 0
-0.0205 0.0527 -1.1950 0.513 -0.631 0.582 56 42 20 0 0
0.0784 -0.0119 -1.2131 0.325 -0.345 0.880 86 67 31 0 0
0.1147 -0.0382 -1.3411 0.728 -0.639 0.251 80 68 52 0 0
0.1174 -0.0400 -1.3448 0.808 -0.544 0.228 77 64 43 0 0
0.1169 -0.0398 -1.3502 0.706 -0.545 0.452 99 82 57 0 0
0.1619 -0.0700 -1.3962 0.847 -0.241 0.474 218 194 153 0 0
0.2540 -0.1338 -1.5810 0.844 -0.361 0.397 73 54 31 0 0
0.2557 -0.1350 -1.5850 0.759 -0.360 0.542 87 68 40 0 0
0.3210 -0.1777 -1.6065 0.464 -0.248 0.850 180 153 112 0 0
0.3231 -0.1792 -1.6101 0.697 -0.489 0.524 158 129 90 0 0
0.3286 -0.1830 -1.6217 0.733 -0.487 0.475 79 62 37 0 0
0.2788 -0.1528 -1.7174 0.619 -0.329 0.714 72 52 30 0 0
0.2855 -0.1574 -1.7284 0.745 -0.610 0.270 78 61 45 0 0
0.2917 -0.1622 -1.7615 0.820 -0.372 0.434 66 42 23 0 0
0.3158 -0.1804 -1.8796 0.549 -0.813 0.195 72 46 21 0 0
0.3180 -0.1820 -1.8889 0.697 -0.655 0.291 71 45 20 0 0
0.3431 -0.2000 -1.9681 0.849 -0.336 0.409 73 47 23 0 0
0.3452 -0.2014 -1.9719 0.783 -0.321 0.533 77 53 27 0 0
0.3688 -0.2183 -2.0413 0.761 -0.415 0.498 79 53 25 0 0
0.3830 -0.2287 -2.0969 0.806 -0.426 0.410 77 57 23 0 0
0.3846 -0.2298 -2.1012 0.806 -0.426 0.410 73 47 17 0 0
0.4059 -0.2447 -2.1499 0.748 -0.334 0.573 74 54 21 0 0
0.4107 -0.2480 -2.1567 0.871 -0.319 0.373 74 54 21 0 0
0.4266 -0.2586 -2.1697 0.748 -0.491 0.446 84 61 26 0 0
0.4288 -0.2601 -2.1732 0.752 -0.477 0.455 92 68 32 0 0
0.4305 -0.2613 -2.1773 0.752 -0.477 0.455 97 73 35 0 0
-0.0531 0.0746 -0.9038 -0.029 -0.159 0.987 119 107 88 0 0
-0.1119 0.1068 -1.1577 0.512 0.734 0.448 187 187 185 0 0
-0.0322 0.0546 -1.1889 0.286 -0.851 0.441 39 30 21 0 0
-0.0139 0.0427 -1.1957 0.697 -0.475 0.537 76 57 23 0 0
0.0042 0.0308 -1.2024 0.329 -0.331 0.884 93 72 30 0 0
0.0073 0.0287 -1.2060 0.392 -0.547 0.740 97 76 31 0 0
0.0138 0.0244 -1.2080 0.236 -0.290 0.928 112 91 44 0 0
0.1148 -0.0439 -1.3447 0.808 -0.544 0.228 85 74 51 0 0
0.1593 -0.0738 -1.3910 0.737 -0.499 0.456 226 203 149 0 0
0.1614 -0.0751 -1.3949 0.671 -0.524 0.524 214 190 147 0 0
0.1636 -0.0766 -1.3987 0.613 -0.573 0.544 203 178 129 0 0
0.2528 -0.1386 -1.5852 0.620 -0.632 0.466 92 70 44 0 0
0.3187 -0.1816 -1.6063 0.416 -0.266 0.869 163 138 98 0 0
0.3268 -0.1872 -1.6211 0.753 -0.433 0.496 83 64 38 0 0
0.2764 -0.1568 -1.7171 0.619 -0.329 0.714 62 42 20 0 0
0.2966 -0.1713 -1.7828 0.586 -0.769 0.257 116 92 59 0 0
0.2977 -0.1721 -1.7874 0.610 -0.725 0.319 100 80 46 0 0
0.2971 -0.1727 -1.8319 0.736 -0.444 0.511 72 46 21 0 0
0.2992 -0.1742 -1.8357 0.773 -0.318 0.549 72 46 21 0 0
0.3022 -0.1762 -1.8388 0.851 -0.184 0.491 71 45 20 0 0
0.3107 -0.1826 -1.8760 0.782 -0.580 0.226 72 46 21 0 0
0.3203 -0.1894 -1.9070 0.606 -0.463 0.647 74 48 25 0 0
0.3252 -0.1928 -1.9140 0.623 -0.611 0.489 73 47 24 0 0
0.3670 -0.2227 -2.0406 0.800 -0.355 0.484 78 53 24 0 0
0.3687 -0.2239 -2.0447 0.770 -0.411 0.488 76 52 21 0 0
0.3706 -0.2252 -2.0486 0.770 -0.411 0.488 76 51 21 0 0
0.4088 -0.2523 -2.1559 0.871 -0.319 0.373 85 65 32 0 0
0.4163 -0.2571 -2.1542 0.583 -0.596 0.552 82 59 27 0 0
0.4260 -0.2641 -2.1852 0.794 -0.234 0.561 100 77 37 0 0
-0.1156 0.1036 -1.1477 0.509 0.737 0.444 182 183 183 0 0
-0.0153 0.0378 -1.1950 0.744 -0.306 0.594 75 55 22 0 0
-0.0133 0.0363 -1.2043 0.674 -0.419 0.609 104 81 34 0 0
0.0036 0.0254 -1.2065 0.392 -0.547 0.740 102 81 37 0 0
0.0070 0.0232 -1.2100 0.329 -0.557 0.762 98 76 31 0 0
0.1106 -0.0467 -1.3404 0.876 -0.409 0.257 66 54 35 0 0
0.1130 -0.0484 -1.3494 0.791 -0.547 0.275 145 130 96 0 0
0.1568 -0.0776 -1.3909 0.769 -0.460 0.443 220 195 146 0 0
0.1591 -0.0792 -1.3946 0.775 -0.419 0.473 218 192 143 0 0
0.1960 -0.1041 -1.4442 0.760 -0.442 0.476 86 63 31 0 0
0.1977 -0.1053 -1.4483 0.668 -0.494 0.556 86 63 31 0 0
0.3169 -0.1859 -1.6109 0.598 -0.537 0.595 160 133 100 0 0
0.3251 -0.1914 -1.6205 0.836 -0.364 0.411 75 55 27 0 0
0.2921 -0.1741 -1.7898 0.901 -0.316 0.298 95 75 40 0 0
0.3234 -0.1973 -1.9189 0.703 -0.640 0.311 73 47 24 0 0
0.3663 -0.2284 -2.0674 0.779 -0.544 0.311 78 52 22 0 0
0.4060 -0.2559 -2.1502 0.901 -0.329 0.282 83 64 31 0 0
0.4069 -0.2566 -2.1552 0.840 -0.416 0.349 83 63 30 0 0
0.4571 -0.2906 -2.2260 0.839 -0.258 0.479 105 81 37 0 0
-0.0179 0.0340 -1.1898 0.732 -0.449 0.512 73 53 26 0 0
-0.0173 0.0335 -1.1947 0.744 -0.306 0.594 86 62 34 0 0
-0.0177 0.0336 -1.2000 0.851 -0.350 0.392 93 74 30 0 0
-0.0161 0.0325 -1.2043 0.768 -0.549 0.330 115 96 50 0 0
0.1174 -0.0539 -1.2294 0.444 -0.603 0.662 145 121 87 0 0
0.1033 -0.0465 -1.2970 0.806 -0.556 0.204 43 28 13 0 0
0.1522 -0.0801 -1.3869 0.670 -0.379 0.638 227 203 152 0 0
0.1544 -0.0816 -1.3907 0.713 -0.405 0.573 231 205 155 0 0
0.1568 -0.0832 -1.3944 0.775 -0.419 0.473 217 188 136 0 0
0.1586 -0.0845 -1.3985 0.787 -0.317 0.529 221 191 138 0 0
0.1630 -0.0875 -1.4061 0.699 -0.230 0.677 206 182 133 0 0
0.2232 -0.1286 -1.5078 0.742 -0.314 0.592 61 41 20 0 0
0.3239 -0.1961 -1.6247 0.812 -0.481 0.331 64 42 17 0 0
0.2716 -0.1647 -1.7168 0.720 -0.553 0.420 63 41 20 0 0
0.2887 -0.1773 -1.7850 0.714 -0.304 0.630 108 85 50 0 0
0.2901 -0.1783 -1.7893 0.710 -0.675 0.203 94 75 42 0 0
0.2903 -0.1786 -1.7946 0.709 -0.703 0.052 78 58 29 0 0
0.3395 -0.2146 -1.9755 0.669 -0.740 0.069 77 51 26 0 0
0.3600 -0.2293 -2.0421 0.791 -0.603 0.104 62 36 13 0 0
0.3624 -0.2313 -2.0571 0.679 -0.727 0.099 75 52 21 0 0
0.3624 -0.2313 -2.0629 0.698 -0.473 0.537 76 52 21 0 0
0.3638 -0.2324 -2.0673 0.769 -0.489 0.413 76 50 22 0 0
0.3753 -0.2405 -2.0966 0.562 -0.558 0.611 80 61 26 0 0
0.3751 -0.2405 -2.1027 0.493 -0.642 0.586 73 51 21 0 0
0.4232 -0.2736 -2.1943 0.884 -0.409 0.227 103 80 41 0 0
0.4662 -0.3030 -2.2664 0.823 -0.562 0.082 109 104 93 0 0
-0.0550 0.0563 -1.0186 0.286 -0.937 -0.200 90 81 60 0 0
-0.0561 0.0568 -1.0240 0.287 -0.938 -0.194 116 110 97 0 0
-0.1151 0.0928 -1.0985 0.733 0.679 0.041 158 156 152 0 0
-0.0154 0.0265 -1.1976 0.872 -0.349 0.343 110 94 52 0 0
-0.0161 0.0268 -1.2030 0.804 -0.567 0.180 103 84 46 0 0
0.1103 -0.0546 -1.2217 0.637 -0.365 0.678 131 107 76 0 0
0.1130 -0.0565 -1.2253 0.637 -0.365 0.678 130 107 74 0 0
0.1108 -0.0558 -1.2563 0.497 -0.812 -0.305 61 44 19 0 0
0.1543 -0.0871 -1.3943 0.649 -0.459 0.606 218 188 136 0 0
0.1877 -0.1096 -1.4409 0.690 -0.548 0.472 96 72 36 0 0
0.2104 -0.1254 -1.4885 0.704 -0.594 0.390 70 49 23 0 0
0.3031 -0.1875 -1.6016 0.384 -0.287 0.878 177 148 100 0 0
0.3218 -0.2001 -1.6243 0.864 -0.474 0.171 69 45 20 0 0
0.3212 -0.1998 -1.6300 0.639 -0.766 0.067 74 51 27 0 0
0.2688 -0.1684 -1.7169 0.659 -0.550 0.513 59 38 17 0 0
0.3391 -0.2201 -1.9848 0.809 -0.567 0.156 74 48 24 0 0
0.3409 -0.2218 -2.0059 0.659 -0.658 0.365 68 42 20 0 0
0.3533 -0.2300 -2.0173 0.721 -0.247 0.647 109 84 39 0 0
0.3602 -0.2347 -2.0280 0.846 -0.422 0.327 83 58 28 0 0
0.3700 -0.2426 -2.0935 0.776 -0.296 0.557 100 78 39 0 0
0.3739 -0.2452 -2.1013 0.431 -0.764 0.480 67 45 16 0 0
0.3735 -0.2451 -2.1074 0.782 -0.589 0.205 69 46 16 0 0
0.4002 -0.2633 -2.1508 0.777 -0.457 0.433 79 56 22 0 0
0.4018 -0.2644 -2.1550 0.853 -0.317 0.415 78 55 23 0 0
0.4034 -0.2656 -2.1592 0.853 -0.317 0.415 80 57 23 0 0
0.4126 -0.2718 -2.1733 0.662 -0.642 0.386 93 71 32 0 0
0.4406 -0.2909 -2.2203 0.640 -0.461 0.615 116 91 50 0 0
0.4470 -0.2953 -2.2311 0.841 -0.434 0.321 109 85 44 0 0
-0.0691 0.0626 -0.9056 0.092 -0.227 0.970 116 102 82 0 0
-0.0620 0.0551 -1.0203 -0.043 -0.995 0.089 64 49 24 0 0
-0.0218 0.0250 -1.1942 0.482 -0.706 0.519 108 87 54 0 0
-0.0197 0.0236 -1.1983 0.546 -0.786 0.290 111 90 46 0 0
-0.0185 0.0227 -1.2028 0.527 -0.775 0.349 117 96 53 0 0
0.1122 -0.0615 -1.2293 0.499 -0.509 0.701 132 107 71 0 0
0.1151 -0.0634 -1.2328 0.598 -0.516 0.613 143 117 81 0 0
0.1049 -0.0576 -1.2580 0.604 -0.693 -0.394 61 45 19 0 0
0.0970 -0.0529 -1.2722 0.599 -0.758 -0.259 51 35 15 0 0
0.0974 -0.0536 -1.2922 0.709 -0.564 0.423 32 18 8 0 0
0.0988 -0.0546 -1.2965 0.688 -0.596 0.415 38 23 9 0 0
0.1335 -0.0789 -1.3793 0.787 -0.371 0.493 168 139 88 0 0
0.1551 -0.0933 -1.4025 0.405 -0.750 0.523 87 63 37 0 0
0.1584 -0.0955 -1.4057 0.402 -0.669 0.625 161 138 102 0 0
0.2158 -0.1345 -1.4988 0.825 -0.465 0.322 83 62 33 0 0
0.3149 -0.2008 -1.6171 0.683 -0.584 0.438 125 101 62 0 0
0.3165 -0.2019 -1.6212 0.683 -0.584 0.438 77 53 21 0 0
0.3181 -0.2030 -1.6252 0.683 -0.584 0.438 70 45 19 0 0
0.3199 -0.2043 -1.6290 0.753 -0.596 0.277 75 50 25 0 0
0.2689 -0.1738 -1.7095 0.905 -0.385 0.184 62 41 20 0 0
0.2753 -0.1787 -1.7424 0.621 -0.643 0.449 48 32 15 0 0
0.2765 -0.1796 -1.7468 0.700 -0.681 0.215 98 82 53 0 0
0.2848 -0.1861 -1.7948 0.820 -0.540 -0.192 74 55 25 0 0
0.3368 -0.2243 -1.9902 0.771 -0.617 0.160 71 45 20 0 0
0.3351 -0.2237 -2.0089 0.576 -0.727 0.374 70 45 23 0 0
0.3732 -0.2504 -2.1052 0.813 -0.489 0.316 71 47 19 0 0
0.4402 -0.2962 -2.2239 0.631 -0.463 0.623 117 93 51 0 0
-0.0294 0.0313 -0.9192 0.152 -0.777 0.611 112 90 61 0 0
-0.0136 0.0200 -0.9710 0.263 -0.940 -0.218 79 63 36 0 0
-0.0488 0.0413 -1.0090 0.640 -0.256 -0.724 57 42 20 0 0
-0.0242 0.0209 -1.1940 0.566 -0.638 0.523 97 76 42 0 0
-0.0224 0.0195 -1.2033 0.455 -0.503 0.735 102 80 33 0 0
0.0097 -0.0014 -1.2186 0.291 -0.177 0.940 96 78 39 0 0
0.1084 -0.0650 -1.2498 0.558 -0.827 -0.064 64 44 16 0 0
0.1824 -0.1172 -1.4409 0.749 -0.448 0.488 89 66 29 0 0
0.1945 -0.1255 -1.4643 0.684 -0.468 0.560 81 58 26 0 0
0.2216 -0.1457 -1.5767 0.627 -0.734 0.261 122 103 68 0 0
0.2874 -0.1902 -1.6775 0.779 -0.184 -0.600 94 74 41 0 0
0.2636 -0.1761 -1.7168 0.829 -0.394 0.397 59 41 18 0 0
0.2707 -0.1812 -1.7384 0.754 -0.568 0.330 60 47 30 0 0
0.2719 -0.1820 -1.7430 0.680 -0.564 0.469 55 38 18 0 0
0.2736 -0.1832 -1.7470 0.813 -0.485 0.321 102 84 53 0 0
0.2748 -0.1841 -1.7515 0.813 -0.485 0.321 66 46 20 0 0
0.2757 -0.1848 -1.7562 0.894 -0.304 0.330 45 24 8 0 0
0.2825 -0.1898 -1.7836 0.834 -0.488 0.257 121 101 67 0 0
0.3161 -0.2153 -1.9384 0.805 -0.461 0.374 68 42 19 0 0
0.3311 -0.2261 -1.9873 0.711 -0.703 -0.012 71 44 21 0 0
0.3718 -0.2549 -2.0982 0.781 -0.289 0.554 71 49 20 0 0
0.3929 -0.2696 -2.1470 0.749 -0.565 0.346 82 60 26 0 0
0.4193 -0.2876 -2.1902 0.829 -0.303 0.470 101 77 36 0 0
0.4208 -0.2887 -2.1944 0.843 -0.342 0.415 92 69 27 0 0
0.4354 -0.2986 -2.2203 0.747 -0.266 0.609 114 90 47 0 0
-0.0771 0.0566 -0.9016 0.422 0.089 0.902 115 108 96 0 0
-0.0123 0.0142 -0.9502 0.369 -0.440 0.818 82 65 39 0 0
0.1008 -0.0650 -1.2274 0.472 -0.660 0.584 119 95 62 0 0
0.1032 -0.0667 -1.2312 0.472 -0.660 0.584 147 122 87 0 0
0.1041 -0.0678 -1.2506 0.620 -0.783 -0.047 63 43 15 0 0
0.0883 -0.0603 -1.3453 0.762 -0.586 0.274 56 43 26 0 0
0.0908 -0.0619 -1.3491 0.673 -0.554 0.491 92 77 54 0 0
0.1092 -0.0740 -1.3644 0.601 -0.464 0.651 164 146 117 0 0
0.1327 -0.0896 -1.3869 0.680 -0.502 0.535 227 195 136 0 0
0.1639 -0.1103 -1.4198 0.725 -0.383 0.573 143 118 75 0 0
0.1754 -0.1181 -1.4385 0.816 -0.475 0.328 99 77 40 0 0
0.1858 -0.1251 -1.4526 0.647 -0.647 0.403 78 55 21 0 0
0.2790 -0.1929 -1.7733 0.757 -0.590 0.281 54 32 15 0 0
0.2793 -0.1931 -1.7786 0.773 -0.597 0.214 62 40 16 0 0
0.2799 -0.1937 -1.7835 0.728 -0.685 0.012 119 100 65 0 0
0.3149 -0.2202 -1.9428 0.727 -0.471 0.500 68 42 19 0 0
0.3203 -0.2240 -1.9549 0.750 -0.462 0.473 76 51 27 0 0
0.3279 -0.2296 -1.9878 0.659 -0.751 -0.037 70 44 21 0 0
0.3310 -0.2317 -1.9906 0.922 -0.292 0.256 70 44 21 0 0
0.3662 -0.2567 -2.0894 0.670 -0.484 0.564 86 65 31 0 0
0.3817 -0.2680 -2.1439 0.725 -0.460 0.513 79 57 24 0 0
0.3876 -0.2717 -2.1438 0.754 -0.400 0.522 83 62 29 0 0
0.3897 -0.2732 -2.1475 0.766 -0.477 0.431 86 64 30 0 0
0.4138 -0.2897 -2.1931 0.769 -0.378 0.515 104 81 39 0 0
0.4159 -0.2911 -2.1968 0.696 -0.400 0.596 97 74 33 0 0
-0.0346 0.0234 -0.9287 0.227 -0.635 0.739 115 92 65 0 0
-0.0327 0.0221 -0.9328 0.430 -0.841 0.327 116 93 66 0 0
-0.0427 0.0216 -1.1847 0.621 -0.500 0.604 95 89 79 0 0
-0.0315 0.0140 -1.1999 0.253 -0.577 0.776 134 109 66 0 0
0.1007 -0.0711 -1.2510 0.631 -0.768 -0.108 66 47 17 0 0
0.0942 -0.0672 -1.2594 0.926 -0.375 -0.039 68 49 23 0 0
0.1544 -0.1095 -1.4136 0.621 -0.490 0.612 153 124 77 0 0
0.1897 -0.1333 -1.4640 0.588 -0.717 0.374 83 60 26 0 0
0.1924 -0.1351 -1.4675 0.300 -0.742 0.599 74 50 22 0 0
0.2048 -0.1445 -1.5216 0.863 -0.371 0.344 59 40 15 0 0
0.3061 -0.2115 -1.6283 0.818 -0.544 0.187 71 48 23 0 0
0.3109 -0.2149 -1.6404 0.935 -0.192 -0.297 71 47 21 0 0
0.3011 -0.2090 -1.6529 0.622 -0.407 -0.669 99 75 45 0 0
0.2592 -0.1842 -1.7162 0.857 -0.429 0.285 58 40 19 0 0
0.2663 -0.1899 -1.7595 0.580 -0.611 0.540 61 38 20 0 0
0.2746 -0.1959 -1.7857 0.591 -0.604 0.535 110 91 56 0 0
0.3158 -0.2262 -1.9397 0.784 -0.524 0.333 67 41 18 0 0
0.3171 -0.2271 -1.9442 0.784 -0.524 0.333 67 41 18 0 0
0.3635 -0.2605 -2.0895 0.670 -0.484 0.564 85 63 31 0 0
0.3795 -0.2721 -2.1434 0.734 -0.343 0.586 77 57 24 0 0
0.4098 -0.2926 -2.1887 0.693 -0.571 0.440 100 76 35 0 0
0.4116 -0.2938 -2.1927 0.717 -0.535 0.447 100 77 35 0 0
0.4171 -0.2973 -2.1928 0.692 -0.641 0.332 96 72 33 0 0
0.4169 -0.2973 -2.1989 0.644 -0.695 0.320 106 82 38 0 0
0.4210 -0.2999 -2.2005 0.714 -0.619 0.327 112 88 41 0 0
0.4222 -0.3009 -2.2051 0.714 -0.619 0.327 105 81 33 0 0
0.4315 -0.3071 -2.2188 0.904 -0.209 0.372 109 87 41 0 0
-0.0377 0.0198 -0.9337 0.306 -0.798 0.520 92 70 43 0 0
-0.0363 0.0187 -0.9379 0.400 -0.846 0.354 84 64 41 0 0
-0.0372 0.0192 -0.9431 0.365 -0.914 0.175 77 59 37 0 0
0.1579 -0.1174 -1.4202 0.662 -0.600 0.450 143 115 74 0 0
0.1607 -0.1194 -1.4288 0.710 -0.482 0.514 114 86 46 0 0
0.1907 -0.1398 -1.4824 0.553 -0.761 0.339 81 57 23 0 0
0.1939 -0.1422 -1.4958 0.619 -0.686 0.383 69 47 23 0 0
0.2030 -0.1487 -1.5211 0.669 -0.732 0.127 59 39 16 0 0
0.3140 -0.2216 -1.6206 0.790 -0.250 0.559 70 46 22 0 0
0.3053 -0.2167 -1.6426 0.357 -0.931 0.076 71 47 22 0 0
0.2586 -0.1897 -1.7309 0.740 -0.550 0.386 33 19 10 0 0
0.2660 -0.1950 -1.7522 0.895 -0.332 0.298 55 35 12 0 0
0.2713 -0.1993 -1.7861 0.580 -0.723 0.377 114 95 61 0 0
0.2573 -0.1914 -1.8193 0.909 0.031 -0.415 70 44 21 0 0
0.2911 -0.2155 -1.9194 0.683 -0.637 0.357 68 40 18 0 0
0.3145 -0.2310 -1.9442 0.784 -0.524 0.333 68 42 19 0 0
0.3248 -0.2388 -1.9915 0.624 -0.619 0.477 70 44 21 0 0
0.3441 -0.2530 -2.0593 0.674 -0.708 0.211 72 48 22 0 0
0.3608 -0.2643 -2.0896 0.637 -0.526 0.563 76 57 24 0 0
0.3609 -0.2646 -2.0952 0.802 -0.422 0.422 74 53 23 0 0
0.3665 -0.2686 -2.1129 0.561 -0.713 0.421 69 48 19 0 0
0.3682 -0.2698 -2.1171 0.561 -0.713 0.421 62 41 12 0 0
0.3814 -0.2789 -2.1447 0.704 -0.571 0.423 81 62 28 0 0
0.3860 -0.2822 -2.1576 0.814 -0.336 0.474 85 62 28 0 0
0.4120 -0.2996 -2.1955 0.637 -0.678 0.367 93 70 30 0 0
0.4134 -0.3006 -2.1998 0.637 -0.678 0.367 98 74 30 0 0
0.4527 -0.3271 -2.2581 0.858 -0.234 0.457 86 78 64 0 0
-0.0440 0.0184 -0.9302 0.227 -0.635 0.739 114 90 59 0 0
-0.0438 0.0181 -0.9349 0.216 -0.885 0.413 88 65 37 0 0
-0.0420 0.0167 -0.9438 0.146 -0.968 0.202 64 48 24 0 0
-0.0882 0.0417 -1.0853 0.965 -0.244 0.101 42 30 14 0 0
-0.0878 0.0413 -1.0902 0.965 -0.244 0.101 31 21 10 0 0
-0.0856 0.0398 -1.0943 0.809 -0.177 0.561 15 11 5 0 0
-0.0680 0.0273 -1.1425 0.862 -0.335 0.380 13 9 8 0 0
-0.0699 0.0283 -1.1485 0.758 -0.576 0.305 12 8 7 0 0
-0.0634 0.0239 -1.1609 0.802 -0.453 0.390 26 19 11 0 0
-0.0668 0.0259 -1.1675 0.578 -0.623 0.528 37 29 18 0 0
-0.0034 -0.0156 -1.2196 0.289 -0.238 0.927 104 85 51 0 0
0.0167 -0.0282 -1.2200 0.231 -0.068 0.971 96 76 41 0 0
0.1525 -0.1194 -1.4167 0.765 -0.436 0.474 150 119 76 0 0
0.1543 -0.1206 -1.4208 0.764 -0.476 0.436 142 114 72 0 0
0.1906 -0.1456 -1.4962 0.756 -0.510 0.410 70 49 21 0 0
0.1994 -0.1518 -1.5165 0.828 -0.557 0.059 56 36 12 0 0
0.2003 -0.1524 -1.5211 0.744 -0.646 0.172 63 43 16 0 0
0.1988 -0.1517 -1.5273 0.397 -0.573 0.717 63 42 18 0 0
0.2019 -0.1537 -1.5305 0.277 -0.546 0.791 77 56 24 0 0
0.2160 -0.1629 -1.5420 0.682 -0.596 0.424 69 48 21 0 0
0.2405 -0.1797 -1.5879 0.981 0.008 0.191 150 127 86 0 0
0.2629 -0.1987 -1.7580 0.889 -0.284 0.359 60 38 19 0 0
0.2682 -0.2032 -1.7975 0.222 -0.862 0.457 69 46 22 0 0
0.3129 -0.2356 -1.9489 0.729 -0.570 0.379 80 54 31 0 0
0.3143 -0.2367 -1.9532 0.729 -0.570 0.379 73 47 24 0 0
0.3179 -0.2391 -1.9614 0.673 -0.595 0.440 69 43 20 0 0
0.3190 -0.2405 -1.9829 0.683 -0.712 0.162 71 45 23 0 0
0.3216 -0.2424 -1.9919 0.624 -0.619 0.477 70 44 21 0 0
0.3268 -0.2457 -1.9929 0.890 -0.410 0.199 70 44 21 0 0
0.3584 -0.2683 -2.0893 0.575 -0.512 0.638 81 61 27 0 0
0.3566 -0.2674 -2.0968 0.685 -0.653 0.324 78 55 25 0 0
0.3592 -0.2693 -2.1059 0.691 -0.587 0.422 73 50 19 0 0
0.3624 -0.2716 -2.1144 0.613 -0.608 0.504 71 47 19 0 0
0.3643 -0.2729 -2.1183 0.613 -0.608 0.504 60 39 12 0 0
0.3733 -0.2791 -2.1385 0.641 -0.535 0.551 80 60 27 0 0
0.3990 -0.2964 -2.1768 0.719 -0.462 0.520 91 67 30 0 0
0.4017 -0.2982 -2.1799 0.739 -0.569 0.361 96 72 34 0 0
0.4031 -0.2992 -2.1843 0.786 -0.542 0.297 89 66 25 0 0
0.4078 -0.3025 -2.1970 0.742 -0.413 0.528 92 69 27 0 0
0.4379 -0.3226 -2.2359 0.667 -0.590 0.455 115 93 51 0 0
0.4396 -0.3238 -2.2400 0.667 -0.590 0.455 108 87 44 0 0
0.4510 -0.3315 -2.2571 0.858 -0.234 0.457 86 76 63 0 0
-0.0459 0.0137 -0.9443 0.382 -0.918 0.107 67 50 25 0 0
-0.0737 0.0260 -1.1184 0.511 -0.521 0.684 15 14 12 0 0
-0.0726 0.0251 -1.1230 0.530 -0.638 0.559 7 6 4 0 0
-0.0736 0.0256 -1.1285 0.542 -0.840 0.018 6 3 2 0 0
-0.0665 0.0202 -1.1610 0.800 -0.462 0.384 42 33 24 0 0
0.0701 -0.0695 -1.2930 0.461 -0.619 0.636 39 26 7 0 0
0.0729 -0.0713 -1.2967 0.589 -0.499 0.636 45 32 13 0 0
0.1086 -0.0960 -1.3741 0.626 -0.715 0.312 101 83 60 0 0
0.1213 -0.1045 -1.3925 0.716 -0.423 0.555 197 163 105 0 0
0.1535 -0.1257 -1.4248 0.710 -0.482 0.514 112 87 48 0 0
0.1555 -0.1270 -1.4287 0.710 -0.482 0.514 110 86 52 0 0
0.1973 -0.1560 -1.5214 0.744 -0.646 0.172 67 46 18 0 0
0.1953 -0.1549 -1.5279 0.397 -0.573 0.717 66 44 20 0 0
0.1981 -0.1568 -1.5312 0.232 -0.509 0.829 100 78 44 0 0
0.2050 -0.1613 -1.5371 0.337 -0.613 0.715 66 45 18 0 0
0.2367 -0.1827 -1.5887 0.742 -0.440 0.506 150 126 89 0 0
0.2398 -0.1848 -1.5918 0.601 -0.302 0.740 128 107 76 0 0
0.2994 -0.2229 -1.6172 0.890 -0.379 0.252 93 70 37 0 0
0.3000 -0.2237 -1.6323 0.868 -0.458 0.193 73 49 23 0 0
0.2595 -0.2014 -1.7369 0.699 -0.700 0.147 68 53 37 0 0
0.2601 -0.2019 -1.7419 0.699 -0.700 0.147 68 48 24 0 0
0.2612 -0.2031 -1.7572 0.889 -0.284 0.359 60 39 18 0 0
0.2631 -0.2054 -1.7939 0.798 -0.482 0.363 85 64 36 0 0
0.2646 -0.2064 -1.7982 0.844 -0.448 0.295 66 43 19 0 0
0.3104 -0.2396 -1.9487 0.774 -0.488 0.404 75 49 26 0 0
0.3119 -0.2406 -1.9530 0.776 -0.506 0.377 73 47 24 0 0
0.3156 -0.2439 -1.9836 0.683 -0.712 0.162 73 47 23 0 0
0.3185 -0.2459 -1.9924 0.624 -0.619 0.477 70 44 21 0 0
0.3248 -0.2499 -1.9924 0.879 -0.462 0.116 70 44 21 0 0
0.3652 -0.2794 -2.1322 0.837 -0.454 0.304 70 49 18 0 0
-0.0477 0.0077 -0.9972 0.620 -0.661 -0.423 99 79 50 0 0
-0.0860 0.0294 -1.0720 0.925 -0.355 -0.132 56 40 18 0 0
-0.0867 0.0297 -1.0773 0.925 -0.355 -0.132 50 35 16 0 0
-0.0751 0.0210 -1.1229 0.680 -0.512 0.525 14 13 9 0 0
-0.0018 -0.0276 -1.2162 0.319 -0.195 0.927 97 78 44 0 0
0.0037 -0.0312 -1.2186 0.371 -0.188 0.909 92 73 36 0 0
0.0720 -0.0765 -1.3059 0.758 -0.447 0.476 73 59 38 0 0
0.1327 -0.1174 -1.3996 0.569 -0.401 0.718 194 165 125 0 0
0.1356 -0.1192 -1.4031 0.537 -0.469 0.701 208 180 134 0 0
0.1975 -0.1621 -1.5403 0.812 -0.160 0.561 68 47 20 0 0
0.2203 -0.1777 -1.5825 0.656 -0.280 0.701 81 57 22 0 0
0.2371 -0.1885 -1.5918 0.429 -0.587 0.687 113 92 59 0 0
0.2892 -0.2217 -1.6123 0.385 -0.399 0.832 208 184 146 0 0
0.2991 -0.2281 -1.6207 0.587 -0.588 0.556 70 46 20 0 0
0.2982 -0.2279 -1.6318 0.797 -0.366 0.480 73 49 23 0 0
0.2977 -0.2278 -1.6373 0.678 -0.648 -0.347 72 48 22 0 0
0.2468 -0.1990 -1.7392 0.817 -0.396 0.419 29 17 5 0 0
0.3103 -0.2458 -1.9747 0.860 -0.496 0.122 76 50 24 0 0
0.3338 -0.2628 -2.0500 0.907 -0.281 0.314 73 47 22 0 0
0.3559 -0.2786 -2.1155 0.636 -0.598 0.488 71 47 19 0 0
0.3572 -0.2796 -2.1200 0.692 -0.377 0.616 62 41 14 0 0
0.4269 -0.3281 -2.2835 0.848 -0.418 -0.325 111 107 96 0 0
-0.0811 0.0185 -1.1446 0.811 -0.318 0.490 57 52 46 0 0
0.0645 -0.0785 -1.3443 0.730 -0.535 0.426 99 82 58 0 0
0.0667 -0.0801 -1.3482 0.737 -0.425 0.526 101 84 62 0 0
0.0687 -0.0814 -1.3523 0.738 -0.322 0.593 90 74 56 0 0
0.1005 -0.1019 -1.3756 0.532 -0.602 0.595 106 89 66 0 0
0.1326 -0.1228 -1.4033 0.537 -0.469 0.701 152 128 97 0 0
0.2645 -0.2112 -1.6021 0.387 -0.163 0.908 180 152 105 0 0
0.2514 -0.2078 -1.7553 0.698 -0.499 0.515 51 32 10 0 0
0.3311 -0.2670 -2.0616 0.774 -0.540 0.331 73 47 22 0 0
0.3472 -0.2783 -2.1040 0.789 -0.538 0.296 75 52 21 0 0
0.3987 -0.3134 -2.1983 0.866 -0.426 0.263 90 65 25 0 0
0.4141 -0.3236 -2.2174 0.652 -0.554 0.518 107 84 37 0 0
-0.0583 0.0032 -0.9992 0.308 -0.948 -0.083 79 60 35 0 0
-0.0823 0.0136 -1.1439 0.822 -0.148 0.549 24 18 14 0 0
-0.0776 0.0104 -1.1520 0.645 -0.349 0.680 23 16 11 0 0
-0.0754 0.0089 -1.1561 0.851 -0.279 0.445 26 17 9 0 0
-0.0497 -0.0082 -1.1904 0.741 -0.407 0.534 83 65 34 0 0
-0.0475 -0.0097 -1.1945 0.741 -0.407 0.534 93 75 37 0 0
0.0615 -0.0822 -1.3445 0.709 -0.480 0.516 97 81 59 0 0
0.0643 -0.0841 -1.3480 0.737 -0.425 0.526 97 80 61 0 0
0.0902 -0.1009 -1.3696 0.590 -0.511 0.625 95 79 57 0 0
0.0929 -0.1027 -1.3733 0.562 -0.617 0.552 101 84 62 0 0
0.0961 -0.1047 -1.3766 0.391 -0.845 0.366 98 80 54 0 0
0.2525 -0.2092 -1.6035 0.749 0.012 0.663 180 151 97 0 0
0.2359 -0.2021 -1.7056 0.656 -0.748 0.098 67 48 21 0 0
0.2449 -0.2088 -1.7420 0.817 -0.571 0.075 55 39 20 0 0
0.2457 -0.2094 -1.7469 0.820 -0.373 0.434 87 70 44 0 0
0.2473 -0.2106 -1.7510 0.820 -0.373 0.434 89 71 44 0 0
0.3184 -0.2627 -2.0023 0.357 -0.930 -0.087 70 44 18 0 0
0.3525 -0.2876 -2.1195 0.681 -0.492 0.543 74 53 24 0 0
0.4053 -0.3230 -2.2005 0.572 -0.640 0.513 103 79 35 0 0
0.4230 -0.3367 -2.2819 0.947 -0.313 -0.068 112 105 95 0 0
-0.0849 0.0123 -1.0581 0.983 -0.070 0.168 50 35 16 0 0
-0.0727 0.0013 -1.1638 0.676 -0.550 0.490 67 51 25 0 0
-0.0512 -0.0129 -1.1898 0.538 -0.570 0.621 134 115 79 0 0
-0.0463 -0.0162 -1.1977 0.465 -0.676 0.571 145 125 90 0 0
0.0312 -0.0651 -1.2265 0.177 -0.246 0.953 115 90 46 0 0
0.0527 -0.0819 -1.3323 0.358 -0.891 0.279 56 46 31 0 0
0.0859 -0.1036 -1.3654 0.560 -0.734 0.384 131 111 85 0 0
0.0875 -0.1047 -1.3696 0.627 -0.720 0.296 126 107 80 0 0
0.0896 -0.1061 -1.3736 0.501 -0.709 0.497 109 89 63 0 0
0.0917 -0.1076 -1.3775 0.562 -0.617 0.552 117 98 69 0 0
0.2516 -0.2139 -1.6024 0.749 0.012 0.663 194 163 106 0 0
0.2594 -0.2188 -1.6021 0.369 -0.137 0.919 162 132 76 0 0
0.3056 -0.2598 -1.9888 0.718 -0.581 0.384 72 46 21 0 0
0.3070 -0.2609 -1.9931 0.718 -0.581 0.384 72 46 21 0 0
0.3253 -0.2743 -2.0563 0.728 -0.452 0.515 75 49 21 0 0
0.3410 -0.2858 -2.1106 0.619 -0.695 0.367 72 50 19 0 0
0.3497 -0.2915 -2.1196 0.681 -0.492 0.543 72 51 22 0 0
0.4056 -0.3286 -2.1975 0.647 -0.594 0.479 98 73 30 0 0
-0.0935 0.0102 -1.1107 0.876 -0.389 0.285 26 18 10 0 0
-0.0910 0.0084 -1.1198 0.793 -0.396 0.463 21 15 7 0 0
-0.0750 -0.0027 -1.1585 0.875 -0.286 0.391 64 50 28 0 0
0.0589 -0.0881 -1.2364 0.601 -0.611 0.516 134 110 72 0 0
0.0629 -0.0908 -1.2444 0.601 -0.611 0.516 107 84 51 0 0
0.1250 -0.1346 -1.4082 0.669 -0.686 0.286 152 123 83 0 0
0.1259 -0.1353 -1.4128 0.805 -0.278 0.523 134 105 65 0 0
0.2451 -0.2150 -1.5947 0.600 -0.058 0.798 201 175 129 0 0
0.2608 -0.2250 -1.6044 0.585 -0.169 0.793 159 128 84 0 0
0.2645 -0.2274 -1.6070 0.807 -0.181 0.562 192 170 127 0 0
0.2983 -0.2490 -1.6294 0.585 -0.474 -0.658 73 48 23 0 0
0.2410 -0.2201 -1.8285 0.767 0.639 -0.063 72 46 21 0 0
0.3035 -0.2642 -1.9939 0.670 -0.468 0.576 73 47 22 0 0
0.3058 -0.2662 -2.0089 0.629 -0.773 0.077 73 47 21 0 0
0.3222 -0.2769 -2.0281 0.614 -0.764 0.199 82 58 30 0 0
0.3366 -0.2884 -2.1065 0.723 -0.561 0.403 75 52 21 0 0
0.3470 -0.2953 -2.1196 0.681 -0.492 0.543 73 52 23 0 0
0.4020 -0.3321 -2.2043 0.907 -0.258 0.332 105 81 33 0 0
0.4044 -0.3337 -2.2076 0.875 -0.309 0.372 105 81 33 0 0
-0.0905 0.0080 -0.9546 0.363 -0.929 0.075 84 67 41 0 0
-0.0890 0.0068 -0.9638 0.514 -0.823 0.241 91 73 48 0 0
-0.0906 0.0023 -1.1286 0.880 -0.370 0.297 26 17 11 0 0
-0.0865 -0.0004 -1.1319 0.808 -0.395 0.437 24 15 9 0 0
-0.0827 -0.0030 -1.1404 0.757 -0.580 0.301 33 24 12 0 0
-0.0781 -0.0063 -1.1536 0.787 -0.376 0.489 54 39 19 0 0
-0.0534 -0.0231 -1.1984 0.799 -0.439 0.412 83 65 46 0 0
0.0257 -0.0728 -1.2265 0.303 -0.362 0.882 123 101 66 0 0
0.0559 -0.0917 -1.2366 0.696 -0.485 0.530 174 149 106 0 0
0.0511 -0.0924 -1.3457 0.641 -0.290 0.711 104 88 67 0 0
0.0872 -0.1157 -1.3771 0.726 -0.364 0.584 115 92 59 0 0
0.1088 -0.1298 -1.4007 0.476 -0.498 0.724 146 115 77 0 0
0.1203 -0.1372 -1.4093 0.711 -0.478 0.516 184 152 106 0 0
0.1241 -0.1396 -1.4123 0.805 -0.278 0.523 133 101 60 0 0
0.1282 -0.1424 -1.4201 0.805 -0.278 0.523 121 96 58 0 0
0.1275 -0.1422 -1.4256 0.771 -0.594 0.232 116 91 52 0 0
0.2591 -0.2293 -1.6038 0.643 -0.154 0.750 154 126 83 0 0
0.2859 -0.2465 -1.6262 0.963 -0.142 0.227 78 54 28 0 0
0.2843 -0.2461 -1.6430 0.371 -0.613 -0.698 84 62 33 0 0
0.2288 -0.2140 -1.7050 0.726 -0.676 0.127 59 39 17 0 0
0.2553 -0.2340 -1.8149 0.942 0.322 0.091 70 44 21 0 0
0.3150 -0.2771 -2.0039 0.055 -0.874 0.484 79 52 24 0 0
0.3191 -0.2798 -2.0058 0.404 -0.908 -0.114 101 75 40 0 0
0.3350 -0.2927 -2.0997 0.590 -0.678 0.437 75 54 23 0 0
0.3808 -0.3237 -2.1824 0.661 -0.691 0.292 86 60 23 0 0
0.4154 -0.3464 -2.2227 0.763 -0.295 0.575 106 82 35 0 0
-0.1010 0.0094 -0.9428 0.051 -0.545 0.837 95 72 46 0 0
-0.0967 0.0066 -0.9461 0.103 -0.856 0.506 88 70 45 0 0
-0.0935 0.0044 -0.9547 0.409 -0.900 0.152 83 66 41 0 0
-0.0887 -0.0045 -1.1266 0.858 -0.435 0.272 30 19 9 0 0
-0.0851 -0.0072 -1.1402 0.764 -0.586 0.271 50 39 22 0 0
0.0207 -0.0752 -1.2276 0.131 -0.445 0.886 118 93 59 0 0
0.0274 -0.0794 -1.2293 0.069 -0.480 0.875 139 116 83 0 0
0.0514 -0.0982 -1.3492 0.450 -0.808 0.380 82 67 46 0 0
0.1177 -0.1410 -1.4093 0.711 -0.478 0.516 145 116 82 0 0
0.1215 -0.1434 -1.4122 0.769 -0.196 0.609 130 106 69 0 0
0.1239 -0.1451 -1.4159 0.773 -0.202 0.602 159 133 89 0 0
0.1242 -0.1454 -1.4209 0.838 -0.509 0.197 141 114 67 0 0
0.1250 -0.1460 -1.4256 0.838 -0.509 0.197 122 95 50 0 0
0.2579 -0.2338 -1.6028 0.745 -0.222 0.629 142 119 77 0 0
0.2626 -0.2367 -1.6047 0.772 -0.345 0.534 178 156 114 0 0
0.2838 -0.2505 -1.6258 0.874 -0.340 0.347 79 55 29 0 0
0.3307 -0.2956 -2.1013 0.719 -0.613 0.329 71 50 19 0 0
-0.0919 -0.0055 -1.0514 0.748 -0.648 -0.141 95 76 46 0 0
0.0092 -0.0759 -1.2930 0.656 -0.754 -0.046 58 47 28 0 0
0.0422 -0.0981 -1.3475 0.752 -0.454 0.477 88 72 48 0 0
0.0456 -0.1002 -1.3509 0.918 -0.250 0.308 80 64 42 0 0
0.0489 -0.1024 -1.3542 0.901 -0.315 0.298 89 72 51 0 0
0.0487 -0.1025 -1.3595 0.908 -0.347 0.233 88 71 46 0 0
0.0725 -0.1175 -1.3720 0.914 -0.325 0.245 134 107 74 0 0
0.1132 -0.1436 -1.4052 0.561 -0.392 0.729 164 135 94 0 0
0.1240 -0.1506 -1.4195 0.885 -0.262 0.385 134 106 63 0 0
0.1226 -0.1500 -1.4254 0.838 -0.509 0.197 122 95 52 0 0
0.1784 -0.1884 -1.5459 0.926 -0.235 0.296 76 53 24 0 0
0.1994 -0.2026 -1.5842 0.690 -0.711 0.138 88 64 33 0 0
0.2013 -0.2039 -1.5881 0.675 -0.405 0.617 102 83 51 0 0
0.2016 -0.2043 -1.5932 0.496 -0.248 0.832 124 101 69 0 0
0.2583 -0.2393 -1.6008 0.574 -0.471 0.670 153 130 91 0 0
0.2527 -0.2382 -1.6676 0.464 -0.498 -0.733 97 77 47 0 0
0.3040 -0.2815 -2.0090 0.475 -0.876 -0.080 82 56 22 0 0
0.3033 -0.2813 -2.0153 0.475 -0.876 -0.080 112 87 47 0 0
0.3033 -0.2815 -2.0210 0.410 -0.911 -0.035 114 90 48 0 0
0.3013 -0.2806 -2.0285 0.510 -0.856 -0.087 155 125 85 0 0
0.3277 -0.2993 -2.1016 0.831 -0.472 0.294 70 49 19 0 0
0.3606 -0.3218 -2.1682 0.792 -0.426 0.437 83 61 24 0 0
0.3623 -0.3230 -2.1724 0.792 -0.426 0.437 79 57 20 0 0
0.4145 -0.3574 -2.2415 0.535 -0.581 0.614 99 80 38 0 0
-0.1085 0.0029 -0.9435 -0.196 -0.908 0.371 118 103 82 0 0
-0.0985 -0.0068 -1.0430 0.461 -0.679 0.571 94 76 47 0 0
-0.0979 -0.0080 -1.0676 0.474 -0.879 0.053 93 74 46 0 0
-0.0978 -0.0083 -1.0726 0.474 -0.879 0.053 93 72 44 0 0
-0.0957 -0.0102 -1.0918 0.835 -0.515 0.192 80 60 36 0 0
-0.0949 -0.0109 -1.0965 0.888 -0.429 0.164 62 42 21 0 0
-0.0952 -0.0114 -1.1168 0.752 -0.617 0.233 63 41 23 0 0
-0.0933 -0.0127 -1.1210 0.897 -0.443 0.002 58 38 20 0 0
-0.0941 -0.0124 -1.1264 0.721 -0.661 0.207 60 40 22 0 0
-0.0923 -0.0140 -1.1409 0.770 -0.526 0.361 80 59 33 0 0
-0.0866 -0.0178 -1.1485 0.632 -0.539 0.557 86 67 35 0 0
-0.0835 -0.0207 -1.1777 0.700 -0.694 0.170 66 47 24 0 0
-0.0830 -0.0212 -1.1826 0.710 -0.663 0.237 80 62 38 0 0
-0.0813 -0.0226 -1.1921 0.703 -0.700 0.126 62 47 29 0 0
0.0054 -0.0792 -1.2936 0.656 -0.754 -0.046 55 43 26 0 0
0.0383 -0.1014 -1.3533 0.247 -0.912 0.328 119 98 71 0 0
0.0415 -0.1037 -1.3619 0.346 -0.841 0.415 114 94 65 0 0
0.1555 -0.1779 -1.4914 0.796 -0.560 0.230 74 49 21 0 0
0.1562 -0.1785 -1.4961 0.740 -0.640 0.209 72 48 21 0 0
0.1806 -0.1952 -1.5480 0.661 -0.687 0.300 68 44 17 0 0
0.1986 -0.2077 -1.5882 0.695 -0.136 0.706 110 89 54 0 0
0.2021 -0.2099 -1.5910 0.830 0.217 0.514 128 106 72 0 0
0.2081 -0.2136 -1.5921 0.330 -0.201 0.922 121 99 67 0 0
0.2163 -0.2186 -1.5918 0.299 -0.289 0.909 123 100 64 0 0
0.2563 -0.2433 -1.6003 0.719 -0.238 0.653 165 141 104 0 0
0.2874 -0.2769 -2.0101 0.889 0.013 0.457 76 48 24 0 0
0.2901 -0.2787 -2.0134 0.722 -0.424 0.547 79 52 24 0 0
0.2926 -0.2803 -2.0169 0.595 -0.587 0.549 82 56 21 0 0
0.2947 -0.2818 -2.0207 0.595 -0.587 0.549 113 88 48 0 0
0.2985 -0.2842 -2.0229 0.585 -0.806 -0.088 118 92 52 0 0
0.2974 -0.2837 -2.0297 0.586 -0.798 -0.141 142 113 76 0 0
0.2992 -0.2850 -2.0337 0.701 -0.713 -0.006 94 69 35 0 0
0.3377 -0.3121 -2.1358 0.695 -0.636 0.336 70 50 21 0 0
0.4052 -0.3568 -2.2310 0.810 -0.443 0.384 104 79 31 0 0
0.4185 -0.3667 -2.2816 0.515 -0.852 0.098 181 181 182 0 0
-0.0975 -0.0163 -1.1369 0.741 -0.609 0.283 92 73 45 0 0
-0.0965 -0.0171 -1.1415 0.624 -0.651 0.432 95 76 50 0 0
-0.0935 -0.0191 -1.1453 0.601 -0.448 0.662 87 67 42 0 0
-0.0900 -0.0214 -1.1488 0.416 -0.607 0.677 87 66 38 0 0
-0.0354 -0.0568 -1.2102 0.049 -0.696 0.716 89 73 48 0 0
0.0656 -0.1242 -1.3729 0.244 -0.782 0.574 118 93 62 0 0
0.1505 -0.1803 -1.4928 0.883 -0.383 0.273 77 53 22 0 0
0.1773 -0.1986 -1.5484 0.661 -0.687 0.300 68 44 16 0 0
0.2888 -0.2836 -2.0179 0.500 -0.393 0.772 88 62 28 0 0
0.2918 -0.2855 -2.0209 0.500 -0.393 0.772 113 87 50 0 0
0.2948 -0.2875 -2.0238 0.623 -0.326 0.712 129 102 64 0 0
0.2967 -0.2888 -2.0279 0.672 -0.626 0.395 124 96 64 0 0
0.3097 -0.2981 -2.0675 0.728 -0.232 0.645 83 58 27 0 0
0.3298 -0.3124 -2.1234 0.832 -0.543 0.111 74 53 26 0 0
0.3302 -0.3128 -2.1289 0.758 -0.634 0.154 68 47 19 0 0
0.3306 -0.3137 -2.1459 0.610 -0.529 0.589 70 49 20 0 0
0.3674 -0.3377 -2.1911 0.756 -0.651 0.067 93 69 31 0 0
0.4100 -0.3674 -2.2940 0.828 -0.536 -0.163 194 194 196 0 0
0.4173 -0.3718 -2.2920 0.661 -0.673 0.331 202 201 203 0 0
-0.1125 -0.0081 -1.0066 0.446 -0.895 0.006 74 56 33 0 0
-0.0409 -0.0591 -1.2115 0.041 -0.720 0.693 101 85 60 0 0
0.0569 -0.1246 -1.3762 0.453 -0.423 0.785 126 103 71 0 0
0.2076 -0.2288 -1.7217 0.777 -0.496 0.388 65 44 24 0 0
0.2096 -0.2302 -1.7256 0.766 -0.544 0.344 75 54 33 0 0
0.2969 -0.2945 -2.0310 0.817 -0.561 -0.136 85 61 30 0 0
0.2950 -0.2938 -2.0441 0.441 -0.830 0.341 76 51 21 0 0
0.3031 -0.2995 -2.0654 0.766 -0.505 0.398 82 57 26 0 0
0.3191 -0.3108 -2.1080 0.822 -0.513 0.250 69 48 20 0 0
0.3228 -0.3131 -2.1102 0.786 -0.425 0.450 70 49 21 0 0
0.3245 -0.3143 -2.1144 0.786 -0.425 0.450 68 47 20 0 0
0.3269 -0.3159 -2.1179 0.790 -0.491 0.368 66 45 18 0 0
0.3283 -0.3169 -2.1223 0.790 -0.491 0.368 66 45 18 0 0
0.3292 -0.3176 -2.1273 0.834 -0.504 0.225 67 46 19 0 0
0.3312 -0.3190 -2.1311 0.790 -0.491 0.368 66 45 16 0 0
0.3310 -0.3191 -2.1371 0.856 -0.491 0.161 66 45 16 0 0
0.3678 -0.3440 -2.2055 0.695 -0.649 0.310 101 76 35 0 0
-0.1214 -0.0086 -1.0189 0.344 -0.713 0.611 76 58 38 0 0
-0.1187 -0.0104 -1.0228 0.371 -0.779 0.506 78 61 41 0 0
-0.1170 -0.0116 -1.0271 0.330 -0.761 0.559 78 61 41 0 0
-0.1191 -0.0105 -1.0329 0.543 -0.772 0.330 88 71 50 0 0
