ply
format ascii 1.0
element vertex 665
property float x
property float y
property float z
property uchar diffuse_red
property uchar diffuse_green
property uchar diffuse_blue
end_header
-0.7332207964434075 -1.0576188958019308 -3.056593220771574 216 216 216
-0.7317559183132886 -1.0597378199141918 -3.066276223681215 216 216 216
-0.732313449637954 -1.0604561304336286 -3.07330222077516 216 216 216
-0.7328716276059337 -1.0611755937926604 -3.080338612843809 216 216 217
-0.7360128394340996 -1.060100829909766 -3.0839438431006356 216 216 217
-0.32840372013409713 -0.8277865997922195 -0.033558115453477796 172 172 174
-0.3664837674078067 -0.8090073113982759 -0.03647912199248314 177 177 179
-0.3745007367376913 -0.8054407905583143 -0.03982673489912625 176 176 178
-0.1854823064189633 -1.0786975554242761 -1.2963905249591938 193 193 195
-0.18417131824491761 -1.0802056791280934 -1.3023727480038825 194 194 196
-0.1799973680668152 -1.0833442576679426 -1.3096784738615634 194 194 196
-0.18243938577379715 -1.082720774794911 -1.3139661766104327 195 195 197
-0.17848235363691334 -1.085740741708643 -1.3212063804521426 196 196 198
-0.16785922745100235 -1.0925614173632396 -1.3315590877741643 196 196 198
-0.6174674427069882 -0.8377386403115513 -1.132387194420551 198 198 200
-0.5486520276122944 -0.8776506264228857 -1.1692942529177364 198 198 200
-0.5377989885349993 -0.8845188652289463 -1.1791646533588043 199 199 201
-0.6019627333632834 -0.8485583147086126 -1.1536020854177202 199 199 201
-0.557875845430988 -0.8744059347212803 -1.1792082262118386 200 200 202
-0.5810482785480388 -0.8618360321845017 -1.172920938247886 200 200 202
-0.6122589005124088 -0.8446581495205452 -1.1627042508695786 201 201 203
-0.6362807616145414 -0.8315769883270765 -1.1558300697098085 201 201 203
-0.8067936863918258 -0.7885543814077052 -1.4588307192737067 208 208 208
-0.601354280989008 -0.9125794402629568 -1.6034147988516168 208 208 208
-0.6060960069815755 -0.9105049413895624 -1.605641591030755 208 208 208
-0.6138382461639634 -0.9066356373318548 -1.6058740417052968 205 205 207
-0.7911101613037761 -0.8014023109718701 -1.4937284545675904 195 196 198
-0.7876702524395763 -0.8041623623032826 -1.5009737696440872 189 189 191
-0.7718616371593648 -0.8143284762674649 -1.5164932580701276 185 186 188
-0.7614684887919742 -0.8212626189302448 -1.528465347581407 194 195 197
-0.7519025922455334 -0.8277087153895064 -1.5399355107022268 215 216 218
-0.7403455583719506 -0.8353554857612183 -1.5527971954244824 216 217 219
-0.7296327461020345 -0.8425042783207506 -1.5651472215915547 217 219 220
-0.7185532049883503 -0.8498809789366408 -1.5778013144591678 218 220 219
-0.7077791592781562 -0.8570823563265826 -1.5903046944945451 217 219 218
-0.82573050523637 -0.9899781564139681 -2.948229226384419 216 216 216
-0.833255994161876 -0.9858256107725865 -2.9456907839280735 216 216 216
-0.8453727409712397 -0.9784875199094074 -2.936999936541542 216 216 216
-0.8571066003355102 -0.9714053502473528 -2.928753426858331 210 210 210
-0.31413628649057457 -0.830831907654497 -0.03370285900848741 173 173 175
-0.3525954490413317 -0.8119192966711168 -0.03663631594300196 177 177 179
-0.3656862794263826 -0.8058029272506799 -0.039913435779756076 177 177 179
-0.17332661901112623 -1.0825604366371693 -1.317705322134992 195 195 197
-0.17335858463915998 -1.0833074551209478 -1.3231194571340124 196 196 198
-0.1574472134226511 -1.0931083987537353 -1.335928534941071 196 196 198
-0.6247432712558323 -0.8284187905322768 -1.1240028664282113 197 197 199
-0.6336332293667484 -0.8240143270218835 -1.1244485576797159 198 198 200
-0.58035426466396 -0.8549561162309347 -1.1540255339523502 198 198 200
-0.6008134263890745 -0.8439791620099252 -1.149086995960462 199 199 201
-0.5901413989083156 -0.8507104748784099 -1.1587968265049609 199 199 201
-0.6602533519427543 -0.8114487314956095 -1.1302044157751954 200 200 202
-0.6499344818428244 -0.817970532655127 -1.1396868691922302 200 200 202
-0.6314271167514384 -0.8291658900237394 -1.153133827961847 201 201 203
-0.6527231874995616 -0.8176753032436269 -1.1475348886478416 201 201 203
-0.814969069729667 -0.7791974657216307 -1.4529936789474882 208 208 208
-0.8084748937461904 -0.7837450568518324 -1.462105283319897 208 208 208
-0.5915288641645924 -0.9142647267901803 -1.6146670215199312 208 208 208
-0.5985854573474501 -0.9108197386412402 -1.6153837009066812 200 200 201
-0.7957198142042564 -0.7941074920021979 -1.490151467499227 191 191 193
-0.7898504220611197 -0.7983038774189095 -1.4989988046897018 189 189 191
-0.7752671175455346 -0.8077028319081787 -1.5136907486721416 189 190 192
-0.7649109060885297 -0.8145891362031904 -1.5256262513077183 210 211 213
-0.7545327919146833 -0.8214960432563936 -1.5376298416936969 217 218 220
-0.743549526446597 -0.828772041610854 -1.5500945960062138 217 218 220
-0.7192336180264505 -0.8440254628759741 -1.571624434819219 217 218 219
-0.7216683717758964 -0.8432968462498094 -1.5751355702417535 217 219 218
-0.7032798611239993 -0.8550277612762305 -1.592806118195598 217 219 218
-0.8378124470165971 -0.9760353161954205 -2.9310213011297517 216 216 216
-0.8459094257067252 -0.9714960633412117 -2.9276834034679595 216 216 216
-0.8578761684946924 -0.9642802996435154 -2.9191524564235443 216 216 216
-0.8694854539334179 -0.9573021079581777 -2.9110326461271243 211 211 211
-0.29972555446441407 -0.8339078244884991 -0.03384905668651604 173 173 175
-0.33856997871712124 -0.8148599266374672 -0.036795060453574335 177 177 179
-0.36059603633811455 -0.8042652716462158 -0.039935360074086004 177 177 179
-0.40676919746548873 -0.9431297464473538 -1.1950895560873898 194 194 196
-0.4037165931350451 -0.9455505601947012 -1.2014462949495694 194 194 196
-0.14034011590346496 -1.095868212681222 -1.3324098129643676 195 195 197
-0.24665587365395986 -1.0364960984777034 -1.288855747370514 196 196 198
-0.2229998240682658 -1.0506271600998902 -1.3051094037880955 196 196 198
-0.5997502060885705 -0.8380534255308574 -1.1352421875096101 197 197 199
-0.6128882778374377 -0.8312621698318858 -1.1337512505936085 198 198 200
-0.6086595365229003 -0.8343075479153905 -1.1403598471333807 198 198 200
-0.5870741634573279 -0.8471976337599355 -1.1551619228172552 199 199 201
-0.5571068718729745 -0.8648550950129011 -1.1740145060615037 199 199 201
-0.6204762416773976 -0.8295562040040301 -1.1486943620940873 200 200 202
-0.6571392035812228 -0.8093887990888488 -1.135864261412184 201 201 203
-0.6586285587904861 -0.8091843401788508 -1.1397270171344367 201 201 203
-0.6754364053650526 -0.8002736990829178 -1.1362335670423875 202 202 204
-0.8236834336129241 -0.7688783330148368 -1.4419720445660067 208 208 210
-0.8160958605270695 -0.7740512253836634 -1.4517519568322335 208 208 210
-0.8157341519845935 -0.7749473662422481 -1.4568498757133563 208 208 210
-0.808638967137114 -0.7812108685615216 -1.4761656521313842 194 195 197
-0.8003081769210931 -0.7868466318724431 -1.4865910318355773 190 191 193
-0.7929204048719085 -0.7919282573862512 -1.4964339323643248 191 191 193
-0.7813360319341166 -0.799510339583162 -1.509114577119119 204 204 206
-0.7683408094002384 -0.8079398098853517 -1.522797463829348 216 216 216
-0.7585127401055255 -0.8144935971282958 -1.5344200010781925 218 218 218
-0.7476097528848644 -0.8216945791415546 -1.5468173700012477 218 218 218
-0.738631197819658 -0.8277569860194833 -1.5579708918134998 218 218 218
-0.7255773343720074 -0.8362550944408085 -1.571933723157987 217 217 217
-0.8497550289270113 -0.9622532805356871 -2.9140118574388225 216 216 216
-0.858410032678793 -0.9573395756573839 -2.9098935092471407 216 216 216
-0.8702294152960911 -0.9502436874374424 -2.901519337334638 216 216 216
-0.881716327648991 -0.943367452195443 -2.8935237024650395 212 212 212
-0.2851694608965606 -0.8370147602769393 -0.03399672894101089 174 174 176
-0.32440480750671946 -0.8178298822756562 -0.03695538670560834 177 177 179
-0.3527917330544864 -0.8040762360861705 -0.040003912986656606 177 177 179
-0.40188929978632537 -0.9402863733198848 -1.1919290024898705 193 193 195
-0.40079458405038737 -0.9415954070399186 -1.1973916631819768 194 194 196
-0.4019346518360016 -0.9416477193715475 -1.201847648980732 194 194 196
-0.5206008951482417 -0.8754965773835077 -1.1525526201952867 195 195 197
-0.2438155691698895 -1.0328888570676937 -1.28972541946573 196 196 198
-0.705471130477667 -0.7744475336688927 -1.0901455949809553 198 198 200
-0.6358425494554175 -0.8144008969044663 -1.1272294082329184 198 198 200
-0.6264718111675007 -0.8203369400930994 -1.1362267227338878 199 199 201
-0.5842175699242907 -0.844871895058628 -1.1608035470150495 199 199 201
-0.5496584900940811 -0.8650771653664112 -1.1818972437609538 200 200 202
-0.5266669799021899 -0.8787550701134887 -1.1976197810459654 201 201 203
-0.6824592964841761 -0.7912155540902284 -1.1279411793532301 201 201 203
-0.8254837224191622 -0.7633611188285649 -1.4403000926766782 208 208 210
-0.8222629684627601 -0.7659366895220119 -1.447229046898971 208 208 210
-0.8229421729985373 -0.7662117374319839 -1.4516315579099628 207 207 209
-0.8208247874361242 -0.7688188493747168 -1.462736266515861 199 199 201
-0.8131659317147824 -0.7740293732094058 -1.4726620293779684 193 194 196
-0.8048752267209132 -0.7796195961670327 -1.4830471456194834 190 191 193
-0.7952810106238872 -0.7859878509164763 -1.494341992519999 197 198 200
-0.783726365953226 -0.7935245575582167 -1.5069930208286342 214 214 216
-0.7722901878310651 -0.8009991933126677 -1.5196232810512185 217 216 217
-0.7625091596301125 -0.8075002727929605 -1.5312013091610832 218 218 218
-0.7514597906822659 -0.8147610884795075 -1.5436838484650366 218 218 218
-0.7427518378315225 -0.8206396883955337 -1.5546420484699628 218 218 218
-0.861560680483024 -0.9486292611925924 -2.897197438337539 216 216 216
-0.8707606844174343 -0.9433529509867606 -2.8923170291315 216 216 216
-0.8824351980847431 -0.9363746093177108 -2.88409670420137 216 216 216
-0.8938016328207318 -0.9295985331495726 -2.8762231218796366 213 213 213
-0.2704659407626566 -0.8401531139735617 -0.03414589606483059 175 175 177
-0.3100981210414023 -0.8208294621871124 -0.03711731393310522 177 177 179
-0.33786231341139966 -0.8074306178380656 -0.040194925524644876 177 177 179
-0.37843382483773047 -0.9492334270673046 -1.2071228308972484 194 194 196
-0.38040873174721157 -0.9488214160656041 -1.2112390363681682 194 194 196
-0.374711250703447 -0.9527171264996941 -1.2188630637161442 195 195 197
-0.42397240801290564 -0.9257453572416512 -1.2012841252106976 195 195 197
-0.4122389705526422 -0.9330267811940688 -1.2116445973451597 196 196 198
-0.448810307214074 -0.9131562404929048 -1.1996976870308018 197 197 199
-0.7013627499234518 -0.7723943570572172 -1.091690143731572 198 198 200
-0.6712844068959909 -0.7899479501424883 -1.110238257498829 198 198 200
-0.6379060737862525 -0.8093771406244695 -1.1304593027368146 199 199 201
-0.6118678522634657 -0.8246882533972689 -1.1473466613330847 199 199 201
-0.5769441825417216 -0.8450238530190938 -1.1685534797730006 200 200 202
-0.5627924611037853 -0.8536616697568865 -1.180009714989412 200 200 202
-0.704484732895392 -0.7743571300368329 -1.1170263296679157 201 201 203
-0.852307545124866 -0.7424772339324976 -1.4176306420015314 207 207 209
-0.8462134116122205 -0.7467223496484743 -1.426348646150835 208 208 210
-0.8360332816919681 -0.7533761647577607 -1.4377601233054162 208 208 210
-0.83009966372884 -0.75753741775355 -1.4464498299484436 207 207 209
-0.8241248631583763 -0.7617275442808409 -1.455199791244043 203 203 205
-0.8261861136219291 -0.7611870187686988 -1.4587000225776035 195 195 197
-0.8176722692902777 -0.7668809531138976 -1.4691744112733844 193 193 195
-0.8091726699767098 -0.772572696438042 -1.4796841143840975 192 193 195
-0.8011358620152627 -0.7779975329617779 -1.4899313110388395 210 210 212
-0.7861103035329947 -0.7875549762277491 -1.504877162905551 217 217 219
-0.776854031848096 -0.7937142856943674 -1.5160405751305563 217 217 218
-0.7659659947283138 -0.8008448259924452 -1.5283466521338172 218 218 218
-0.7414967690025313 -0.816014832460956 -1.5498455462373573 218 218 218
-0.7131483247806512 -0.8334962090082609 -1.574078557564878 218 218 218
-0.8729470822921505 -0.9353546101401543 -2.8809514063084887 216 216 216
-0.8829639491984026 -0.9295332287239859 -2.8749502969838807 216 216 216
-0.8944962380000496 -0.9226700175046483 -2.866880682331686 216 216 216
-0.9057443950266311 -0.9159921075704357 -2.8591266170032488 213 213 213
-0.2556124355010557 -0.843323518599955 -0.03429658537995398 175 175 177
-0.2956473662540742 -0.8238593228796366 -0.0372808729611702 177 177 179
-0.35097775102027995 -0.7967512005319723 -0.039902533033146476 177 177 179
-0.3321155779261383 -0.9694826029243486 -1.2226145648689675 193 193 195
-0.4362208996447279 -0.9126591315338903 -1.1854203360751827 194 194 196
-0.46202720734864533 -0.8988962063309273 -1.1785376842707818 195 195 197
-0.46765867693151847 -0.8964161656334962 -1.1808243374785772 195 195 197
-0.4338191444371394 -0.9160430783813617 -1.2012861717293843 196 196 198
-0.4439615941156855 -0.9110414860774039 -1.2015315810410978 197 197 199
-0.7072812654863123 -0.7647042180237686 -1.0885561779909683 198 198 200
-0.6764465693706111 -0.782621470722816 -1.1074410173136633 198 198 200
-0.6651640114068652 -0.7895784940663055 -1.1172542798279224 199 199 201
-0.6476340121979987 -0.8000515084234985 -1.1300667810804772 199 199 201
-0.6078001916490391 -0.8230684921083612 -1.1535261498368226 200 200 202
-0.5713531781432404 -0.8442031983385361 -1.175531757407338 201 201 203
-0.5337489776608002 -0.8660089336291548 -1.1982360789891666 201 201 203
-0.8608813822251841 -0.7330662182889413 -1.4115940819760757 207 207 209
-0.8557920661183516 -0.7367041362274821 -1.419638672347868 207 207 209
-0.8430956128962162 -0.7448066139426672 -1.432662617699296 207 207 209
-0.8372069525809092 -0.7489238826714152 -1.4413044396902703 206 206 208
-0.8398867150907383 -0.7480164210416186 -1.4443666373288957 199 199 201
-0.8315060770421737 -0.7536036835600827 -1.454693730850049 196 196 198
-0.8221575792451492 -0.7597657004357582 -1.465703045557259 194 194 196
-0.8126541926355839 -0.7660254483249109 -1.4768631781732735 203 204 205
-0.7993437480204443 -0.7745311487126663 -1.49059943055247 216 216 217
-0.7884878369790502 -0.781601550097257 -1.5027670026874467 218 218 219
-0.7802596636079449 -0.7871324668388796 -1.513234178286416 218 218 218
-0.7694103219091194 -0.7942134994648886 -1.5255023286649518 218 218 218
-0.7438544785255761 -0.8099698319291495 -1.5477167191139822 218 218 218
-0.8950223994943841 -0.9158774730788847 -2.85778964702845 216 216 216
-0.9064152606115041 -0.9091268904123853 -2.849867397414924 216 216 216
-0.917547034232215 -0.9025453766574418 -2.8422307145861505 214 214 214
-0.24060687600705144 -0.8465263489839909 -0.03444881682795494 176 176 178
-0.28105072498711564 -0.8269197405520617 -0.03744608269761142 177 177 179
-0.35298903339144727 -0.7916361199887189 -0.039801666195878896 177 177 179
-0.3214085390400026 -0.9704239333227032 -1.2270294269855906 193 193 195
-0.4639750438466105 -0.8930160828763274 -1.1772454039633624 195 195 197
-0.4674248397813599 -0.8917597230823664 -1.180528524934551 195 195 197
-0.45093238282221515 -0.9016358846649771 -1.1929925234383147 196 196 198
-0.4587634286799973 -0.8979359578123169 -1.1942747356051935 197 197 199
-0.7039735871562876 -0.7621965148229195 -1.0897267476451247 197 197 199
-0.7041560366892111 -0.7627056293443862 -1.094088513586205 198 198 200
-0.697343158024826 -0.7671299582803995 -1.101744650054723 199 199 201
-0.669060655642679 -0.783578227250403 -1.1195670293189155 199 199 201
-0.6326261152186757 -0.804608101921607 -1.141366719708012 200 200 202
-0.6049465822448583 -0.8207519788272141 -1.1591458758252784 201 201 203
-0.570779427902358 -0.8405483748577108 -1.1801364824936416 201 201 203
-0.8702768704409369 -0.722564479702901 -1.400316214319444 207 207 209
-0.870388660817312 -0.7231471238209699 -1.4049585333989756 207 207 209
-0.8559127801949704 -0.7322508552238106 -1.4190649794307164 207 207 209
-0.8501087556850907 -0.7362966967710978 -1.4276006097581682 207 207 209
-0.8442647480111213 -0.7403703884791281 -1.4361948873046462 202 202 204
-0.8436960597668169 -0.7413627427695436 -1.4413676237678872 198 198 200
-0.8355051467767511 -0.7468174287698935 -1.451557995400454 196 196 198
-0.8266222178969153 -0.7526832610761861 -1.4622476806760154 199 199 200
-0.8184488388945131 -0.7581397589028936 -1.4725143886980927 215 215 215
-0.8006482631839579 -0.7692452563743032 -1.4892123323417457 217 217 217
-0.7908587696881942 -0.7756643444593181 -1.5006626652722206 217 217 217
-0.7745223358853848 -0.7859318644668731 -1.516536382639601 218 218 218
-0.7611859503590537 -0.7944490949862225 -1.5304792178870608 218 218 218
-0.9069386119749926 -0.9023827730764666 -2.8408314138506925 216 216 216
-0.918194384587651 -0.895742646886733 -2.8330537879354027 216 216 216
-0.9292116689957535 -0.8892557721065005 -2.8255323485580335 215 215 215
-0.27737368267275836 -0.8240345888973348 -0.033845769397871275 176 176 178
-0.366614368820569 -0.7802948817594658 -0.03602124875706193 177 177 179
-0.37082293792593024 -0.7786840726689837 -0.03942936838119972 177 177 179
-0.31944654001368983 -0.9650786514154641 -1.2172913765424984 193 193 195
-0.29536748216572134 -0.9791370272516554 -1.2332081426531556 193 193 195
-0.2700700017850988 -0.9938850998590198 -1.2497718173657586 194 194 196
-0.38553586776674753 -0.9311500200627143 -1.207667127409228 194 194 196
-0.43766331802899017 -0.9028558004705413 -1.1888617252623086 195 195 197
-0.46739221861125335 -0.886993241013617 -1.1801405852908384 195 195 197
-0.4205457941563432 -0.9137250540504239 -1.2065788360537826 196 196 198
-0.41529603918422076 -0.917325671060572 -1.2139663199120179 197 197 199
-0.7037411930262037 -0.7579654855499615 -1.0894628742463268 198 198 200
-0.6998580841892851 -0.7607380517884423 -1.0957264973730487 198 198 200
-0.7158812765161018 -0.752411383910306 -1.0926561928489498 199 199 201
-0.6907405105926843 -0.7670458946123608 -1.108954890006979 199 199 201
-0.6591392804452219 -0.7853008197157378 -1.1284161748587676 200 200 202
-0.6319347301091581 -0.8011175343162374 -1.145912895573803 201 201 203
-0.6055912068545614 -0.8164682176647664 -1.1631086847422387 201 201 203
-0.8789874779251244 -0.7131552933569748 -1.394220406816025 207 207 209
-0.8647092359009172 -0.7221038366856449 -1.4081369860550454 207 207 209
-0.8632387704350593 -0.7236067420114473 -1.4138220275440527 207 207 209
-0.8574712759080998 -0.727613978148434 -1.4223148967428862 205 205 207
-0.8521470722243453 -0.7313673476238074 -1.4305509115755186 200 200 202
-0.8476434233550548 -0.7346465353775069 -1.4382803097448444 198 198 200
-0.8394873838682565 -0.7400597078869207 -1.4484354552244079 199 199 201
-0.8310663526205555 -0.7456333942245463 -1.4588081899244678 209 209 210
-0.8152204594507069 -0.7555481743026176 -1.474133854342662 217 215 216
-0.8019507968344749 -0.7639685349651422 -1.48782747279294 217 217 217
-0.792667908402413 -0.770067792625986 -1.4989336190662907 217 217 217
-0.774992372963077 -0.7810812853464615 -1.5156917183527112 217 217 217
-0.7584984355759743 -0.7914151444562967 -1.5317436039968146 218 218 218
-0.9186490549608252 -0.8890908441006443 -2.8241595345203208 216 216 216
-0.9298897026356767 -0.8824782916235786 -2.816365098951139 216 216 216
-0.9411290016060514 -0.8758582428558774 -2.808510967771049 216 216 216
-0.26321922325635255 -0.8268085222155785 -0.033985482552361716 177 177 179
-0.3569745375082988 -0.780973500825489 -0.036108995323390916 177 177 179
-0.3754647441067741 -0.7723089384430213 -0.039284066302189946 177 177 179
-0.20503277728593738 -1.0232938993722196 -1.2680489199917342 193 193 195
-0.2415563267018394 -1.0038168113032868 -1.256955418574298 193 193 195
-0.31127285674179433 -0.9659563981668093 -1.2307635999653084 194 194 196
-0.40515780534415147 -0.915357410608443 -1.1983325128559492 195 195 197
-0.4545997766648072 -0.8886386384552116 -1.1807228892821833 195 195 197
-0.47104301070085675 -0.8801875701024153 -1.178064097296044 195 195 197
-0.46918661616320306 -0.8818776430303108 -1.1837749391639003 196 196 198
-0.4260690227513911 -0.906462778023215 -1.208572391021744 197 197 199
-0.6765065972399265 -0.7687317149405526 -1.1017825166738693 198 198 200
-0.6842894716901983 -0.7650190680172638 -1.1026369079042813 198 198 200
-0.7391512843635274 -0.7351338731253244 -1.0813508430021672 199 199 201
-0.6946599384213799 -0.760473606144307 -1.1067273674627105 200 200 202
-0.6835955990979075 -0.7672391063809916 -1.116448486952715 200 200 202
-0.6547039962959059 -0.7839345370008963 -1.134694904961979 201 201 203
-0.49427418074644036 -0.8738989840278966 -1.215853681369068 201 201 203
-0.8801644957958177 -0.7075121667853539 -1.3882946262294438 207 207 209
-0.8876236276606554 -0.7038265322956624 -1.3881767054729615 207 207 209
-0.873381274539985 -0.7127197966514508 -1.4020464754374327 207 207 209
-0.8679674931039946 -0.7165011078768571 -1.4102653364104227 206 206 208
-0.8638025427821838 -0.7195618045250304 -1.4177031511185796 200 200 202
-0.8581606326226272 -0.7234835826713932 -1.4261296011355584 199 199 201
-0.8560053991646718 -0.7253840486667705 -1.4323063690512146 199 199 201
-0.8434529597443954 -0.7333303031629356 -1.4453259842686417 205 205 207
-0.8354899615570571 -0.7386159706350955 -1.4553845714207334 216 216 217
-0.827393583374909 -0.7439849864814619 -1.465573510492421 217 216 217
-0.8190915292280367 -0.7494795701881709 -1.475941710863566 217 217 217
-0.7896988978176966 -0.7672643208027525 -1.5003844277867586 217 217 217
-0.7760001156640458 -0.7759220689634335 -1.5144887109259837 217 217 217
-0.929848054531906 -0.8762055151467709 -2.8081785292985204 216 216 216
-0.9412940144993052 -0.8694724790642057 -2.8000763096723307 216 216 216
-0.9525091708365059 -0.8628862240216495 -2.7922184243675314 216 216 216
-0.2489264751166586 -0.8296095869580886 -0.034126561174807356 177 177 179
-0.34344069076869965 -0.7835429566874884 -0.03625790989263103 177 177 179
-0.39165923483606835 -0.7602570113070304 -0.03894131173866179 177 177 179
-0.20575222121128467 -1.0169405539269976 -1.2619957218232358 192 192 194
-0.1984956062463517 -1.021655750831203 -1.270539495634659 193 193 195
-0.28380369733351274 -0.9753529757443247 -1.2375590835123222 193 193 195
-0.3112944999050945 -0.9608922765769422 -1.2303341965230377 194 194 196
-0.4740624405712487 -0.8724374580189065 -1.1666015340402505 195 195 197
-0.47077773757270636 -0.8749056085113126 -1.1729357455363336 195 195 197
-0.48185869788126245 -0.8694396807254707 -1.1727051337934993 194 195 197
-0.4742888701850958 -0.8742779279087219 -1.1810230237509751 195 196 198
-0.6887555180593932 -0.7569413965541208 -1.091235320724229 197 197 199
-0.6978777308339099 -0.7524964786112349 -1.0914505448760428 198 198 200
-0.7099693570411754 -0.7464034541281926 -1.0902488332998068 199 199 201
-0.7100183893736774 -0.746976795338724 -1.0946634584097819 199 199 201
-0.7056885247466397 -0.7499780460848321 -1.1011491226712267 200 200 202
-0.7015540946022505 -0.7528740210906022 -1.1075651466173013 200 200 202
-0.5529136155415095 -0.8359417395697859 -1.1826914643085575 201 201 203
-0.49764382977001825 -0.8672628744440347 -1.2138304775692443 201 201 203
-0.8862998145137573 -0.6996551111450776 -1.383877254291939 207 207 209
-0.8961861988073276 -0.6945772109787117 -1.3821844910100338 207 207 209
-0.8796989165168403 -0.704733270808736 -1.3974798536895112 207 207 209
-0.8740732154016994 -0.7086209246068796 -1.4058192834517533 204 204 206
-0.8684514115103162 -0.7125106006055998 -1.414187782096816 200 200 202
-0.8700460065080095 -0.7122285786523438 -1.41788312989279 199 200 202
-0.8578621048229093 -0.7199239918160923 -1.4305918290316324 200 201 203
-0.847881159293733 -0.7263514637924562 -1.4419150136456447 213 214 216
-0.8402828766894278 -0.7314049168614591 -1.451720113365994 217 217 218
-0.8321063096297351 -0.7367991830147729 -1.461947840149868 217 217 217
-0.8238561951049239 -0.7422419634915137 -1.4722675156020857 217 217 217
-0.791326245709683 -0.7617838102174777 -1.4987774939905976 217 217 217
-0.9414743144910533 -0.8630942977920376 -2.7916447422586237 216 216 216
-0.9528023482784309 -0.8564582515655466 -2.783662610242099 216 216 216
-0.9640311680858709 -0.8498803178119532 -2.7757503301603785 216 216 216
-0.32977700339375093 -0.7861370308166654 -0.036408252597062984 177 177 179
-0.41806770950492467 -0.7432385601187346 -0.0384248302135677 177 177 179
-0.20218704752866506 -1.0136657762349026 -1.2631524946191397 192 192 194
-0.21955442795151958 -1.0048430125953967 -1.2606941261675546 193 193 195
-0.30217241235920506 -0.9601657239427216 -1.2288930346697384 193 193 195
-0.3096888347840568 -0.9567255171082075 -1.2306384388410532 194 194 196
-0.4565495592869784 -0.8773148056819874 -1.1741618993601304 195 195 197
-0.46905729344312375 -0.8710858865299657 -1.1733207549733577 195 195 197
-0.4831113266466498 -0.8640001574812098 -1.171731251790178 195 196 198
-0.4616399267050243 -0.8764786336769347 -1.1864393047203148 196 197 199
-0.7367473496421867 -0.726689969603182 -1.072976555267323 198 198 200
-0.7365862760573871 -0.7273683782808855 -1.0774309816393384 199 199 201
-0.7226584270486139 -0.7356490886813316 -1.0883555518516599 199 199 201
-0.46459500347070914 -0.8794617839895625 -1.2193323934064402 200 200 202
-0.5483832669153683 -0.8337961970868313 -1.184440452938605 201 201 203
-0.8941486924724658 -0.6902144941986051 -1.3737231289579106 207 207 209
-0.8923969413037158 -0.6918469963503442 -1.379487383683601 207 207 209
-0.891198102952471 -0.6931632631593089 -1.3849107705193666 207 207 209
-0.8856880893778757 -0.6969636348055714 -1.3931283048525762 206 206 208
-0.88014102891324 -0.700789521871707 -1.4014008184027236 201 202 204
-0.8745572234934743 -0.7046407923519142 -1.4097284272450463 199 200 202
-0.8722118736599047 -0.7066287185349509 -1.41597688193426 200 201 203
-0.8609999551026751 -0.7137348327555669 -1.4280406964027923 206 208 210
-0.8530071036356167 -0.7189902118786162 -1.4380486011750595 215 216 218
-0.8449428493850922 -0.7242925069641365 -1.4481456715963543 217 217 218
-0.8368068254786076 -0.7296420060578899 -1.4583327148517766 217 217 217
-0.8281646265878925 -0.7352899380895435 -1.4688981404380104 218 218 218
-0.8019440006857408 -0.7511121418926726 -1.4911948783134703 218 218 218
-0.9529651006154938 -0.8501357400035395 -2.775303588333963 216 216 216
-0.9641772539053601 -0.8435948338282648 -2.7674391952965913 216 216 216
-0.9752918984238194 -0.8371107937781552 -2.7596430613887075 216 216 216
-0.315981665153368 -0.7887560462849756 -0.0365600430269907 177 177 179
-0.4318024948474564 -0.732508954544817 -0.03812594702768281 177 177 179
-0.2487442760703869 -0.9843601058929349 -1.2524456423475625 193 193 195
-0.465541742237201 -0.8682472189975361 -1.1745242771792623 196 196 198
-0.47183314828845907 -0.8654446949979859 -1.1764972585587778 195 196 198
-0.4666323623767555 -0.8689495853412504 -1.1837387701179234 196 197 199
-0.4627860445915981 -0.8717140382648826 -1.1903813883051904 196 197 199
-0.46292327899555963 -0.8722922473474117 -1.1951985365288857 197 198 200
-0.5492176830423298 -0.8267709171711746 -1.169382974823847 199 199 201
-0.61351026952643 -0.7920099221206981 -1.1438329646639596 200 200 202
-0.5816788525024301 -0.8101629887627979 -1.1635230508192738 201 201 203
-0.5564131411824076 -0.8247150396329903 -1.1802220098598544 201 201 203
-0.526566097325772 -0.8418066387859486 -1.1992087864507397 202 202 204
-0.9011808767217403 -0.6819061362957004 -1.3687544235472993 207 207 209
-0.8984562189841289 -0.6840873740840988 -1.3751247665368356 207 207 209
-0.8971552187789905 -0.6854546106204467 -1.3805987398458364 207 207 209
-0.8916815262351708 -0.6892179746759166 -1.3887769838143225 204 204 206
-0.8861716565049758 -0.6930062339656404 -1.3970094450971928 200 201 203
-0.8806249582177477 -0.6968198036225063 -1.4052968526665581 199 202 203
-0.8750413526101405 -0.7006587705849802 -1.4136395690221604 205 206 208
-0.865558592194295 -0.7067439243406919 -1.4245625623130427 214 215 217
-0.8578864721693611 -0.7117939489734858 -1.4343465504851165 217 217 219
-0.8495803152128707 -0.717214361728568 -1.444588483782487 217 217 218
-0.8414846943692266 -0.7225193725797828 -1.4547350140758666 217 217 217
-0.8066074755141429 -0.7432604319993282 -1.482663848375461 218 218 218
-0.9643230063625639 -0.8373270300670168 -2.7591514035553124 216 216 216
-0.9754214775844949 -0.8308793262744727 -2.751402192301645 216 216 216
-0.9864235303785238 -0.8244876572052493 -2.7437204522092675 216 216 216
-0.30205212589499064 -0.7914006768329865 -0.03671331225843754 177 177 179
-0.35449357267741055 -0.7662720433551384 -0.03937919399108904 177 177 179
-0.4460881093216609 -0.8715155306690886 -1.16350743807867 193 193 195
-0.4520984212263942 -0.8688818317433454 -1.1656617751411744 194 194 196
-0.4661728390995681 -0.8618415100231906 -1.1641537351797626 194 194 196
-0.16092421376488353 -1.0300084297698169 -1.3130244965580733 195 195 197
-0.17375306656562411 -1.0237143278999616 -1.31257443257483 195 196 198
-0.496546517447525 -0.8478047321189819 -1.1695826515906107 196 197 199
-0.491699130163188 -0.851741716932709 -1.181453538938757 197 198 200
-0.4947371376015985 -0.8507207183263439 -1.1848713523043672 199 199 201
-0.5751840200039744 -0.8072639182860055 -1.1521139497733244 199 199 201
-0.5084224868120142 -0.8445036100747733 -1.1881235461238797 200 200 202
-0.6211287586400843 -0.7833039628068285 -1.1398540242458883 200 200 202
-0.5895710858502142 -0.8012423245583835 -1.159393479488898 201 201 203
-0.5600890240913307 -0.818057605707152 -1.1780738648445803 201 201 203
-0.5344843465348968 -0.832758266318319 -1.19502462484555 202 202 204
-0.9081633144683529 -0.6736566289842015 -1.3638208758697754 207 207 209
-0.9044781817180698 -0.6763756897428763 -1.370789032766529 207 207 209
-0.9064454014627206 -0.6758671531213312 -1.3741476622851967 205 205 207
-0.8983946788990195 -0.6810871630736978 -1.3839645651398764 202 202 204
-0.8924543333705788 -0.6851053336443061 -1.3924580122919168 202 202 204
-0.8865788417142046 -0.6890907572856957 -1.4009422161424547 203 203 205
-0.8807614257099805 -0.693047270054981 -1.409421246725668 211 212 213
-0.8745154008466666 -0.6972537010352345 -1.4182128256741202 216 216 218
-0.8620011302503466 -0.7050582200518897 -1.4311483889870715 216 217 218
-0.8531632806607469 -0.7107622541424556 -1.441727368236999 217 217 218
-0.8397633271143582 -0.7190904378228149 -1.455363060752141 217 217 217
-0.975550629386531 -0.8246653810833919 -2.7431845243147674 216 216 216
-0.9865366976727952 -0.8183095659608477 -2.7355491506174934 216 216 216
-0.997428201394442 -0.8120084514574661 -2.7279794381776976 216 216 216
-0.28798706390977785 -0.7940709836067285 -0.03686807181472968 177 177 179
-0.367842773506049 -0.7556791467372982 -0.039086050928094765 177 177 179
-0.40832539863707495 -0.8872638198679443 -1.1800423625398946 193 193 195
-0.411304345213689 -0.8862962492574279 -1.1836310847112528 194 194 196
-0.1486907367117194 -1.0306243532727466 -1.3127167202931678 194 195 197
-0.15150882777656627 -1.0298094013635528 -1.3168690896737167 194 195 197
-0.1617077247857569 -1.024970817469961 -1.3176405230389037 195 196 198
-0.08836691931275509 -1.0656863933524798 -1.3567745909101603 196 197 199
-0.10142539452429211 -1.0593003603240654 -1.3563224945982064 196 197 199
-0.4779349957798887 -0.8545205048352392 -1.1874282487522263 197 198 200
-0.5212165265493529 -0.8315281340396156 -1.1721485825614792 198 199 201
-0.5188061257947691 -0.8334786453382182 -1.1780557636663753 199 199 201
-0.6293129394130774 -0.7743194795395164 -1.1356113617027956 200 200 202
-0.600161526452872 -0.7908773732495262 -1.1539909890180262 201 201 203
-0.5699661699873346 -0.8080222166352253 -1.1729834856174413 201 201 203
-0.919684500145856 -0.6622485822353467 -1.351420098008448 207 207 209
-0.9150963380414584 -0.6654654601268188 -1.3589222377607209 207 207 209
-0.9104627915582926 -0.668711718956066 -1.366480179105732 206 206 208
-0.9092057949715756 -0.6700383458206834 -1.3718959317264638 204 204 206
-0.9035418332599456 -0.673878002009881 -1.3801648534126845 203 203 205
-0.8978388887651856 -0.6777440659123941 -1.3884905426131207 203 203 205
-0.8920970781086976 -0.6816365141638673 -1.3968732493510967 207 207 209
-0.8863155669101026 -0.6855558661574175 -1.405313842805326 215 215 215
-0.8804501916255878 -0.6895273837107705 -1.4138415039304455 217 217 217
-0.8747022843159818 -0.6934361288456443 -1.422324902414981 217 217 217
-0.8527684880693355 -0.7066007489045193 -1.4414838243083694 217 217 217
-0.8440531377040965 -0.7122197271236035 -1.4520248276137646 217 217 217
-0.9866494978222774 -0.8121487392034467 -2.7274007066338166 216 216 216
-0.9975255147699487 -0.805882799606231 -2.7198764014356467 216 216 216
-1.008308205507019 -0.7996706394609757 -2.712416751766781 216 216 216
-0.2737844176829944 -0.7967673791101543 -0.03702434471494928 177 177 179
-0.32895310884510526 -0.7704741618507535 -0.03968121380664881 177 177 179
-0.41173899179459383 -0.8812063934607368 -1.1830322649097722 194 194 196
-0.41766282295310697 -0.8786423284049861 -1.1852840132498972 194 194 196
-0.142767518471564 -1.0284948306296666 -1.3149577270697177 193 194 196
-0.1404407553873095 -1.0304761825969289 -1.3214641167398389 193 195 197
-0.15645393892889647 -1.0224964044728844 -1.319595673830365 195 196 198
-0.08537623426374052 -1.061844053488754 -1.3576865807425655 196 197 199
0.007191803615719916 -1.1129133483180034 -1.4059658370793413 197 198 200
0.02894355623134004 -1.1262712555822545 -1.4276095285255568 198 199 201
-0.6369919736617404 -0.7656431900033089 -1.1316093242344876 200 200 202
-0.6035700702736921 -0.7844701861060516 -1.151986480913773 201 201 203
-0.5666360841958866 -0.8052306000254883 -1.1741636721738247 201 201 203
-0.9265325356068462 -0.6541500387691719 -1.346596461028378 207 207 209
-0.9219806625208223 -0.657331903575822 -1.3540580172317775 206 206 208
-0.9238548005023259 -0.6568716934829889 -1.357433111933382 206 206 208
-0.8918375621372389 -0.6781074579459906 -1.4012301702709493 217 217 217
-0.8860517756387598 -0.6820169244615771 -1.4096907583892364 217 217 217
-0.8669319939327764 -0.6935217858572379 -1.4269196294954043 217 217 217
-0.8550151707551681 -0.7009358006234157 -1.4395040773512122 217 217 217
-0.997622676832834 -0.7997740574255269 -2.7117956792791236 216 216 216
-1.0083900737753146 -0.7935966011513257 -2.7043808854986846 216 216 216
-1.0190656873304689 -0.7874718069726139 -2.697029329149413 216 216 216
-0.259441877562951 -0.7994903838906005 -0.0371821576779457 177 177 179
-0.3230737386377367 -0.7691871813991117 -0.03971441666470529 177 177 179
-0.14029569094503191 -1.0244796312723954 -1.315631441212648 193 194 196
-0.1328227468849198 -1.029238219016389 -1.3244844085995227 193 195 197
-0.13569253527396052 -1.0284017749500869 -1.328642518166508 195 196 198
-0.13750495925868023 -1.0281376887724278 -1.3332833656857488 196 197 199
0.010245391448815089 -1.1096788239723407 -1.4126588283411796 197 198 200
0.01428730673625378 -1.1126279468562874 -1.4203097122377009 197 198 200
-0.053153788695917026 -1.0767899413378181 -1.3946163715399378 198 199 201
-0.017311077118765894 -1.0969921176178041 -1.4170839533930364 200 200 202
-0.6466750413335471 -0.7559094129307372 -1.1266669149156816 200 200 202
-0.6040578809357187 -0.7796653391703802 -1.1513632408059098 201 201 203
-0.9339012059915217 -0.6457870564098649 -1.341445231995317 207 207 209
-0.928359270081742 -0.6495138845103166 -1.3495196154338749 206 206 208
-0.8973283299252504 -0.6707013106902169 -1.3971696071719233 217 217 217
-0.8915779029303672 -0.6745741600808136 -1.4055921088038141 217 217 217
-0.8711470014473438 -0.6867797261224554 -1.42366153192096 217 217 217
-1.0084713944221333 -0.787539523543884 -2.696367604349434 216 216 216
-1.0191322163709398 -0.7814487661312968 -2.689059949966749 216 216 216
-1.0297024885561916 -0.7754097612846764 -2.6818145135474234 216 216 216
-0.24495762445937713 -0.8022402686324149 -0.03734152953123377 177 177 179
-0.33901253856925145 -0.7573646099320326 -0.039377703281276016 177 177 179
-0.10361690220703812 -1.038899010799875 -1.3318174122944881 194 195 197
-0.14741142433998577 -1.015998499462606 -1.3173904366123557 195 196 198
-0.1552923118879156 -1.0124558266644805 -1.3192285421165955 195 196 198
-0.1737310904323181 -1.0032109453125921 -1.3161976980019134 196 197 199
0.08783840689318889 -1.1451811420792604 -1.4421860809798879 197 198 200
0.11140642806665779 -1.158685634423559 -1.459002257403288 197 198 200
0.02234032357058613 -1.1113176349511962 -1.4235689317033229 198 199 201
-0.0648920050097912 -1.0648986781081229 -1.3886641414764629 199 199 201
-0.07068073308630929 -1.0625028521585833 -1.3915966112665 200 200 202
-0.6190881523973405 -0.7669895388699138 -1.1438718776613372 201 201 203
-0.950826110487074 -0.6320774185769822 -1.330226151463452 205 206 208
-0.9026726610844618 -0.6634022822450677 -1.3932070594320076 217 217 217
-0.8970726334699177 -0.6671737221821855 -1.4015167503397326 217 217 217
-0.8913179122754826 -0.6710367201695933 -1.4099591959211069 217 217 217
-1.0176217858517576 -0.7764704985245707 -2.6831941229355034 216 216 216
-1.0295377780096322 -0.7695780669889348 -2.674196841184439 216 216 216
-1.0402209137119582 -0.7634820273612899 -2.6667690383369007 216 216 216
-0.23032983764986226 -0.8050172943695962 -0.037502478961814 177 177 179
-0.2952632375247361 -0.7742808097992111 -0.04005162650279905 177 177 179
0.0037740446207674694 -1.0896978313931969 -1.3686453212480325 194 194 196
-0.1474443169873949 -1.0106391187250132 -1.3169271851153617 195 196 198
-0.1505974078517225 -1.0096491994614698 -1.3209255698757982 195 196 198
-0.15157902864293482 -1.0098269754505236 -1.3259165859596647 196 197 199
0.08562397671964561 -1.1382022481417675 -1.4406749617168044 197 198 200
0.10511620833785262 -1.1494636910707174 -1.4555953278768938 197 198 200
0.11294588278919226 -1.1544529838801194 -1.4651792263734502 198 199 201
-0.048880646028461316 -1.0680097508573538 -1.3956604429202741 199 199 201
-0.06984578045672563 -1.0574411839668092 -1.3915139998062633 200 200 202
-0.15079529682312498 -1.0145049870140292 -1.3590886105298887 200 200 202
-0.6301377177246197 -0.7565203016582811 -1.1382650280592084 201 201 203
-0.9025361251923426 -0.6598153123386196 -1.397464556085114 217 217 217
-1.0294883631719476 -0.7636864019369969 -2.6664467107877945 216 216 216
-1.0400744606279189 -0.7576778830721909 -2.6591722282700045 216 216 216
-1.0506226577493092 -0.7516865511795606 -2.65189045067063 216 216 216
-0.21555546254724095 -0.8078223026777356 -0.0376650437426756 177 177 179
-0.33425919716864844 -0.7514209883934079 -0.039325547278871234 177 177 179
0.00989975419857525 -1.087371176593705 -1.3709331608790398 194 194 196
0.007349496570059455 -1.0867426952728876 -1.3754895046472817 194 194 196
-0.022891398612607805 -1.0712879511205116 -1.3674954124022505 194 195 197
-0.1676789571834793 -0.9944616325851879 -1.3072712373661182 195 196 198
-0.15794612027861288 -1.000374166818402 -1.3171183357578389 195 196 198
-0.16022060574590968 -0.9998547675808956 -1.3215006988794118 196 197 199
0.10243364731929394 -1.1414390463014288 -1.4479287676395718 197 198 200
0.11154430022481265 -1.1470932403522143 -1.4580735674232916 197 198 200
0.09311044030900772 -1.1379651409119398 -1.4554685466487516 198 199 201
-0.06640851681131943 -1.0530505596372084 -1.387011962161815 199 199 201
-0.08345406446823267 -1.0446184225712531 -1.3846689866724722 200 200 202
-0.16322750124143315 -1.0024565106385563 -1.3527816945425206 200 200 202
-0.1678637127980922 -1.0006688209042491 -1.3560644685392187 201 201 203
-1.0400115385049153 -0.7518346069707628 -2.6514849372825573 216 216 216
-1.0504941423015444 -0.7459098084895315 -2.644314444068041 216 216 216
-1.0608882512877342 -0.7400350116465126 -2.637204361465235 216 216 216
-0.361063457758305 -0.7345040422308794 -0.038807070174045416 177 177 179
-0.011270665026285265 -1.0704735085298718 -1.3609549454769647 194 194 196
-0.024458728020979037 -1.0641667731152649 -1.3606708260319598 194 194 196
-0.051671747870920215 -1.0503712611888696 -1.353991854385368 194 195 197
-0.186713999757253 -0.9790018231710454 -1.2981674782584989 195 196 198
-0.1847350433745436 -0.9807468322671817 -1.3044338614533346 195 196 198
-0.18251614206839095 -0.9874807716468467 -1.3486895420265395 201 201 203
-0.18550236461775882 -0.9865775737830862 -1.3527153983237121 202 202 204
-1.0507906438757566 -0.7398739942959259 -2.636197720777881 216 216 216
-1.061077136311111 -0.7340920792942498 -2.629252728587641 216 216 216
-1.0710924097487144 -0.7284780976009122 -2.622611519848081 216 216 216
-0.38528274501968673 -0.7189007966036216 -0.038333474783979735 177 177 179
-0.029768868842105833 -1.0550761918642655 -1.352183680322386 194 194 196
-0.026012783194064526 -1.0577910777112285 -1.3595073605140418 194 194 196
-0.04624572228282098 -1.0477525527077036 -1.3559888896336347 194 195 197
-0.18638518261627368 -0.9739162465254263 -1.2978755434927087 195 196 198
-0.18244102239100152 -0.9766996620014962 -1.305037740071499 195 196 198
-0.17053726321913332 -0.9837241805073088 -1.3158718165206384 196 197 199
-0.5840847537970313 -0.7664870884065796 -1.1494875202133705 200 200 202
-0.5897009677799644 -0.7640838795674868 -1.1515139431335089 200 200 202
-0.19809694807566858 -0.9738539983594401 -1.340881676570418 201 201 203
-0.18824334817931304 -0.9798100077657431 -1.3509570556175223 202 202 204
-0.19763428438218844 -0.9754830107467213 -1.3519276938675595 202 202 204
-1.0610506746148365 -0.7283040958545751 -2.6216069841793317 216 216 216
-1.0711395743335603 -0.7226653028036147 -2.6148910005404344 216 216 216
-1.0811458691466365 -0.7170726860736581 -2.6082300646366146 216 216 216
-0.40480441069049816 -0.7056021236391603 -0.03794010814061159 177 177 179
0.02920858758476852 -1.0807690754201311 -1.3782054343746488 194 194 196
0.0023794040060775012 -1.067286289533883 -1.371846420085479 194 194 196
-0.03422855766557342 -1.048609880420556 -1.3609685333972878 194 195 197
-0.36753911469588535 -0.8732552209688519 -1.2201033582213396 195 196 198
-0.36882363455366707 -0.8732118150263579 -1.2245427755846499 196 197 199
-0.3976638958521273 -0.8585401908525738 -1.216303223685709 197 198 200
-0.40995407356901675 -0.852645640575861 -1.2156102449942225 197 198 200
-0.580632660711291 -0.7637697739213756 -1.1507108794650318 200 200 202
-0.5927318988896227 -0.7579249007871222 -1.1496985501148085 200 200 202
-1.0711987446432307 -0.7168605523552639 -2.60717548786538 216 216 216
-1.0811913154594415 -0.7112991660468124 -2.6005549516871445 216 216 216
-1.091102347829118 -0.7057831814672945 -2.5939886065575464 216 216 216
-0.4589283006665603 -0.6759946037419249 -0.03696652164694367 177 177 179
-0.025230829753208006 -1.0471195933628619 -1.3589359497982785 194 194 196
-0.33761133299810664 -0.883506296699065 -1.2282697114034489 195 196 198
-0.360892852953599 -0.8718411956948077 -1.2227212245811285 195 196 198
-0.378558507776251 -0.8631356808582387 -1.2196660297786004 196 197 199
-0.4208939268920702 -0.8413715775290471 -1.2052025095477847 197 198 200
-0.43281615285559216 -0.835685161167089 -1.2046361272374813 197 198 200
-0.581024176030089 -0.7590052980475556 -1.1501362050758102 200 200 202
-0.5905236790177771 -0.7545576052653088 -1.1503439101249153 200 200 202
-1.0817404742160366 -0.7052202824808044 -2.592237123492134 216 216 216
-1.0913937918621592 -0.699890594612857 -2.58603140591829 216 216 216
-1.1009514335918609 -0.6946154425525415 -2.5799007589969922 216 216 216
-0.47789254368879386 -0.6631327293080093 -0.03658530669429311 177 177 179
-0.38849245573617724 -0.8517423723975835 -1.2047374696698352 195 196 198
-0.4090107669126487 -0.8415597108358874 -1.2003562904985485 195 196 198
-0.4193892701611309 -0.8367116325744807 -1.20054983465685 196 197 199
-0.43432730663891306 -0.8294557869275183 -1.1986147158845049 197 198 200
-0.4482928889879819 -0.822706707322122 -1.1970797381104314 198 199 201
-0.5873532649846009 -0.7516931732282137 -1.1514403501007138 200 200 202
-1.0916935046262815 -0.6940096847811235 -2.578085778165247 217 217 217
-1.100969433006945 -0.6889345198498809 -2.5723468366237516 216 216 216
-1.1106948390484865 -0.6835675197370674 -2.565964070628297 216 216 216
-0.5709164907783427 -0.6155170932723734 -0.03496469209334288 177 177 179
-0.4386080855981852 -0.8205691117617069 -1.1815687291024917 195 196 198
-0.4748214513122072 -0.8021703575650776 -1.1699385045138138 195 196 198
-0.4720622119037269 -0.8042213280454599 -1.1760243367966563 196 197 199
-0.46371377652600626 -0.8092108234815889 -1.184697025498239 197 198 200
-0.4818561526186711 -0.8002815442262855 -1.1811793752811681 198 199 201
-1.100987536327375 -0.6832687666008581 -2.5648130127018054 217 217 217
-1.110699852901697 -0.6779317162692089 -2.5584690632142855 217 217 217
-1.1203341258758261 -0.6726375772981685 -2.5521762936944414 216 216 216
-0.531017349844257 -0.6304658409494931 -0.03557159312407332 177 177 179
-0.46980857727199266 -0.7988735661143149 -1.1621864127432184 194 195 197
-0.4742905090725277 -0.7971281334625574 -1.1649680140398828 195 196 198
-0.4780114718292852 -0.7957795221530581 -1.1680866949697863 195 196 198
-0.5044178759443951 -0.7825587514460167 -1.1608149104225163 196 197 199
-0.48282097063386653 -0.7944578573208678 -1.1755129192622766 197 198 200
-0.48369232001681284 -0.7945997794307632 -1.1799305205745807 197 198 200
-1.110704739133098 -0.6723110490696453 -2.550994239981712 216 216 216
-1.1203262909912957 -0.6670463438406419 -2.544739559603396 216 216 216
-1.1298713196946069 -0.661823503733421 -2.5385345706880122 216 216 216
-0.5758093269862461 -0.6057411642654431 -0.034762292969584024 177 177 179
-0.4578610665248315 -0.800373974586771 -1.167191392546099 194 195 197
-0.45383468030406693 -0.8030688313085234 -1.1738555956207157 195 196 198
-0.4783276893191596 -0.7909009791046356 -1.1675456668254567 195 196 198
-0.4845680264461728 -0.7882409056022652 -1.1695029269774637 196 197 199
-0.4880485246816643 -0.7870186138314753 -1.1727117201323598 197 198 200
-0.5124441868460341 -0.7748792809300065 -1.1662661332727757 197 198 200
-1.120318560100851 -0.6614699239497872 -2.5373224886346852 216 216 216
-1.1298507761237713 -0.6562762975418568 -2.5311554728036407 216 216 216
-1.1393078339845322 -0.6511235933885496 -2.525036857657484 216 216 216
-0.5729326693633598 -0.6033450286131055 -0.034750077325974016 177 177 179
-0.5687239920743721 -0.7369666389448654 -1.1074677356636025 194 194 196
-0.4591368175743077 -0.7943788243386848 -1.1613925450250309 195 195 197
-0.45288519311765585 -0.798215490001445 -1.1690430710865187 194 195 197
-0.4699553226848268 -0.7899476271747566 -1.1661433032273305 195 196 198
-0.47636997886081883 -0.7872073737615037 -1.1680408251904475 195 196 198
-0.48328752601993963 -0.7842037077147193 -1.169691291689014 196 197 199
-0.49003431808040465 -0.7812864863660702 -1.1714012347237048 197 198 200
-0.5260450220358099 -0.7631468700317403 -1.159597815362757 197 198 200
-1.1298304150141252 -0.6507436812057898 -2.5237957209677164 216 216 216
-1.139275032297703 -0.6456196842946436 -2.5177143561046282 216 216 216
-1.1486452384665498 -0.6405360581032835 -2.5116809075383695 216 216 216
-0.21640163699817663 -0.7650505187406169 -0.04062640341974093 177 177 179
-0.4629722221214277 -0.7847370497041056 -1.1352901591584361 192 192 194
-0.5981290882824943 -0.7172447534502989 -1.0939196423252133 194 194 196
-0.48414479997917526 -0.7767199828877446 -1.149749485377828 195 195 197
-0.48012148959275647 -0.7793836863055732 -1.156344488647525 194 195 197
-0.4775024003238976 -0.7813235710470512 -1.1623244745580248 195 196 198
-0.48498443488270704 -0.7780373085180624 -1.1637211955266134 196 197 199
-0.493255465696932 -0.7743399277861279 -1.1647361157987377 196 197 199
-0.5168968381331294 -0.7626771669919331 -1.158670163133717 197 198 200
-0.543857511153075 -0.7492841567876567 -1.1509924181079143 198 199 201
-1.139242184775256 -0.6401303365687147 -2.5104112914566152 216 216 216
-1.148600323964153 -0.6350749154954031 -2.5044143720158227 216 216 216
-1.1578847974905844 -0.6300593167772893 -2.498464880104345 216 216 216
