ply
format ascii 1.0
element vertex 853
property float x
property float y
property float z
property float nx
property float ny
property float nz
property uchar diffuse_red
property uchar diffuse_green
property uchar diffuse_blue
property uchar class
property uchar detection
end_header
0.0141 0.0550 -1.0045 0.452 -0.723 -0.522 182 183 184 0 0
0.0093 0.0622 -1.1919 0.419 -0.753 0.508 48 37 25 0 0
0.0180 0.0291 -1.2089 0.133 -0.667 0.733 119 101 55 0 0
0.0243 0.0051 -1.2191 -0.024 -0.444 0.896 121 101 62 0 0
0.0495 -0.0891 -1.2285 -0.126 -0.923 0.365 133 109 78 0 0
0.0508 -0.0944 -1.2361 0.048 -0.701 0.712 179 156 120 0 0
0.0509 -0.0950 -1.2408 0.104 -0.980 0.171 151 123 88 0 0
0.0521 -0.0996 -1.2437 0.215 -0.690 0.691 102 79 50 0 0
0.0520 -0.0996 -1.2487 0.493 -0.840 0.225 57 39 17 0 0
0.0522 -0.1006 -1.2533 0.727 -0.660 0.191 60 43 23 0 0
0.0475 -0.0848 -1.2857 0.242 -0.926 0.289 45 29 13 0 0
0.0477 -0.0861 -1.2902 0.241 -0.930 0.276 38 22 8 0 0
0.0485 -0.0896 -1.3038 0.081 -0.911 0.405 65 48 27 0 0
0.0542 -0.1146 -1.3683 0.165 -0.786 0.596 159 136 112 0 0
0.0575 -0.1276 -1.3824 0.185 -0.864 0.468 176 148 109 0 0
0.0569 -0.1255 -1.3886 0.379 -0.732 0.566 214 191 144 0 0
0.0824 -0.2278 -1.5198 0.430 -0.845 0.317 77 50 20 0 0
0.0827 -0.2291 -1.5243 0.404 -0.896 0.183 69 45 14 0 0
0.1073 -0.3245 -1.5969 0.427 -0.756 0.496 164 141 101 0 0
0.1016 -0.3134 -1.7700 0.464 -0.884 -0.057 70 46 18 0 0
0.0995 -0.3061 -1.7805 0.089 -0.827 0.555 83 59 32 0 0
0.1001 -0.3088 -1.7842 0.121 -0.858 0.499 85 63 34 0 0
0.1006 -0.3110 -1.7881 0.121 -0.858 0.499 82 60 32 0 0
0.1010 -0.3125 -1.7926 0.148 -0.817 0.558 67 41 16 0 0
0.1013 -0.3150 -1.8129 0.222 -0.941 0.253 76 50 23 0 0
0.1047 -0.3296 -1.8468 -0.207 -0.859 0.468 79 53 26 0 0
0.1069 -0.3395 -1.8842 0.483 -0.823 0.298 73 47 20 0 0
0.1112 -0.3588 -1.9372 0.443 -0.819 0.364 84 61 30 0 0
0.1110 -0.3598 -1.9706 0.412 -0.836 0.362 81 58 27 0 0
0.1141 -0.3723 -1.9836 0.340 -0.822 0.456 82 57 27 0 0
0.1146 -0.3744 -1.9876 0.418 -0.770 0.483 84 59 29 0 0
0.1142 -0.3747 -2.0219 0.314 -0.901 0.299 69 45 19 0 0
0.1199 -0.3978 -2.0550 0.120 -0.947 0.298 78 55 24 0 0
0.1201 -0.3989 -2.0600 0.098 -0.969 0.227 76 53 22 0 0
0.1210 -0.4028 -2.0741 0.265 -0.940 0.215 82 59 27 0 0
0.1216 -0.4052 -2.0779 0.324 -0.853 0.409 97 75 43 0 0
0.1254 -0.4213 -2.1109 0.161 -0.836 0.524 70 46 20 0 0
0.0184 0.0235 -0.9700 -0.012 -0.989 0.146 95 72 41 0 0
0.0104 0.0513 -0.9987 0.174 -0.691 -0.702 179 179 175 0 0
0.0083 0.0588 -1.0062 0.101 -0.686 -0.721 182 183 184 0 0
0.0064 0.0653 -1.0133 0.105 -0.711 -0.695 181 183 184 0 0
0.0006 0.0775 -1.1729 0.406 -0.832 0.379 100 99 94 0 0
0.0092 0.0440 -1.2002 0.359 -0.440 0.823 88 71 42 0 0
0.0135 0.0275 -1.2087 0.169 -0.638 0.752 97 78 35 0 0
0.0200 0.0030 -1.2187 -0.115 -0.379 0.918 122 102 62 0 0
0.0304 -0.0355 -1.2224 0.417 -0.231 0.879 131 108 71 0 0
0.0431 -0.0871 -1.3004 0.416 -0.879 0.234 66 50 27 0 0
0.0432 -0.0877 -1.3052 0.409 -0.862 0.300 58 42 21 0 0
0.0422 -0.0867 -1.3466 0.179 -0.799 0.574 70 53 33 0 0
0.0527 -0.1275 -1.3830 -0.146 -0.840 0.522 186 158 117 0 0
0.0685 -0.1884 -1.4232 0.444 -0.841 0.310 150 118 73 0 0
0.0755 -0.2185 -1.4997 0.352 -0.858 0.375 75 51 23 0 0
0.0782 -0.2298 -1.5192 0.368 -0.866 0.339 81 57 28 0 0
0.0794 -0.2347 -1.5268 0.184 -0.923 0.338 89 67 35 0 0
0.0807 -0.2405 -1.5443 0.323 -0.891 0.320 66 42 14 0 0
0.0811 -0.2421 -1.5486 0.228 -0.917 0.329 71 48 19 0 0
0.0816 -0.2452 -1.5678 0.270 -0.938 0.219 96 73 32 0 0
0.0824 -0.2484 -1.5712 0.505 -0.720 0.476 109 84 43 0 0
0.0833 -0.2521 -1.5795 0.328 -0.547 0.770 102 75 34 0 0
0.1052 -0.3345 -1.6017 0.173 -0.806 0.566 100 74 35 0 0
0.0914 -0.2906 -1.7208 0.236 -0.948 0.213 88 67 32 0 0
0.0943 -0.3032 -1.7559 -0.425 -0.899 0.105 85 60 28 0 0
0.0989 -0.3226 -1.7972 0.617 -0.645 0.450 73 47 20 0 0
0.0975 -0.3185 -1.8112 0.718 -0.689 -0.102 77 51 24 0 0
0.0993 -0.3252 -1.8120 0.578 -0.787 0.214 76 50 23 0 0
0.0990 -0.3255 -1.8395 0.242 -0.925 0.292 74 48 21 0 0
0.0998 -0.3289 -1.8481 0.177 -0.847 0.502 74 48 21 0 0
0.1020 -0.3377 -1.8584 0.189 -0.846 0.498 73 47 20 0 0
0.1024 -0.3395 -1.8627 0.203 -0.920 0.334 73 47 20 0 0
0.1029 -0.3424 -1.8773 0.446 -0.875 0.188 73 47 20 0 0
0.1039 -0.3461 -1.8801 0.356 -0.878 0.321 73 47 20 0 0
0.1038 -0.3460 -1.8858 0.278 -0.828 0.487 74 48 21 0 0
0.1043 -0.3481 -1.8898 0.278 -0.828 0.487 78 52 25 0 0
0.1048 -0.3503 -1.8938 0.311 -0.841 0.443 75 49 22 0 0
0.1053 -0.3523 -1.8979 0.311 -0.841 0.443 74 48 21 0 0
0.1094 -0.3723 -1.9788 0.265 -0.834 0.484 77 52 22 0 0
0.1097 -0.3737 -1.9834 0.199 -0.844 0.498 81 56 26 0 0
0.1102 -0.3758 -1.9874 0.219 -0.859 0.463 83 58 28 0 0
0.1147 -0.3967 -2.0627 0.543 -0.769 0.338 73 50 19 0 0
0.1159 -0.4018 -2.0701 0.134 -0.872 0.471 79 54 24 0 0
0.1165 -0.4040 -2.0741 0.134 -0.872 0.471 77 54 23 0 0
0.1179 -0.4098 -2.0808 0.183 -0.793 0.581 89 68 38 0 0
0.1217 -0.4256 -2.1141 0.153 -0.854 0.497 74 50 24 0 0
0.1222 -0.4278 -2.1180 0.153 -0.854 0.497 71 47 21 0 0
0.1265 -0.4460 -2.1550 0.401 -0.712 0.576 90 68 33 0 0
0.0028 0.0683 -0.8941 0.273 -0.452 0.849 119 105 86 0 0
0.0073 0.0507 -0.9077 0.296 -0.640 0.708 118 99 72 0 0
0.0137 0.0236 -0.9703 -0.063 -0.966 0.252 81 58 29 0 0
0.0127 0.0268 -0.9762 -0.280 -0.953 -0.117 88 64 33 0 0
-0.0000 0.0603 -1.1920 0.238 -0.953 0.187 48 37 27 0 0
0.0087 0.0270 -1.2089 0.138 -0.760 0.635 109 90 48 0 0
0.0095 0.0241 -1.2128 -0.006 -0.625 0.780 125 105 61 0 0
0.0111 0.0181 -1.2154 0.006 -0.471 0.882 124 103 63 0 0
0.0409 -0.0928 -1.2377 -0.093 -0.839 0.536 151 128 94 0 0
0.0420 -0.0970 -1.2408 0.036 -0.838 0.545 140 119 83 0 0
0.0401 -0.0908 -1.2537 0.539 -0.817 0.206 56 39 17 0 0
0.0376 -0.0869 -1.3368 0.181 -0.933 0.310 35 22 9 0 0
0.0509 -0.1393 -1.3930 0.112 -0.782 0.614 202 172 120 0 0
0.0575 -0.1646 -1.4107 0.288 -0.571 0.769 190 161 110 0 0
0.0637 -0.1884 -1.4289 0.353 -0.891 0.285 145 114 65 0 0
0.0712 -0.2202 -1.4993 0.352 -0.858 0.375 80 54 28 0 0
0.0725 -0.2252 -1.5017 0.484 -0.785 0.388 73 46 17 0 0
0.0869 -0.2916 -1.7209 0.217 -0.936 0.277 92 72 36 0 0
0.0872 -0.2928 -1.7256 0.272 -0.938 0.214 89 69 35 0 0
0.0946 -0.3272 -1.8390 0.337 -0.890 0.307 68 42 15 0 0
0.0949 -0.3282 -1.8438 0.339 -0.923 0.182 73 47 20 0 0
0.0954 -0.3305 -1.8478 0.356 -0.815 0.457 74 48 21 0 0
0.0959 -0.3326 -1.8518 0.356 -0.815 0.457 75 49 22 0 0
0.0969 -0.3364 -1.8546 0.353 -0.749 0.561 74 48 21 0 0
0.0974 -0.3384 -1.8587 0.270 -0.882 0.386 73 47 20 0 0
0.0979 -0.3405 -1.8627 0.203 -0.920 0.334 73 47 20 0 0
0.0983 -0.3424 -1.8669 0.102 -0.939 0.329 74 48 21 0 0
0.1011 -0.3553 -1.9134 0.102 -0.977 0.187 76 51 21 0 0
0.1022 -0.3602 -1.9266 0.213 -0.935 0.284 78 53 23 0 0
0.1044 -0.3713 -1.9748 0.337 -0.861 0.382 79 54 24 0 0
0.1047 -0.3728 -1.9792 0.219 -0.859 0.463 78 53 23 0 0
0.1052 -0.3749 -1.9833 0.219 -0.859 0.463 80 55 25 0 0
0.1057 -0.3770 -1.9874 0.219 -0.859 0.463 81 56 26 0 0
0.1059 -0.3780 -1.9923 0.295 -0.878 0.376 81 56 26 0 0
0.1066 -0.3807 -1.9959 0.445 -0.887 0.122 78 53 23 0 0
0.1058 -0.3790 -2.0146 0.565 -0.583 0.584 81 57 26 0 0
0.1134 -0.4109 -2.0809 0.183 -0.793 0.581 83 62 33 0 0
0.1156 -0.4196 -2.0909 0.420 -0.858 0.297 66 41 16 0 0
0.1167 -0.4245 -2.1043 0.359 -0.860 0.362 69 45 19 0 0
0.1179 -0.4295 -2.1175 0.335 -0.918 0.214 78 54 26 0 0
0.1225 -0.4484 -2.1480 0.007 -0.897 0.442 94 71 34 0 0
0.1288 -0.4744 -2.1955 0.310 -0.887 0.342 107 84 42 0 0
0.1343 -0.4965 -2.2226 0.391 -0.789 0.475 116 94 47 0 0
-0.0034 0.0733 -0.8959 0.513 -0.427 0.744 112 98 80 0 0
0.0063 0.0375 -0.9038 0.250 -0.889 0.384 119 99 74 0 0
0.0085 0.0250 -0.9711 0.065 -0.995 0.081 80 57 31 0 0
-0.0047 0.0591 -1.1920 0.238 -0.953 0.187 48 38 29 0 0
0.0325 -0.0862 -1.3427 0.132 -0.848 0.513 42 28 11 0 0
0.0330 -0.0884 -1.3468 0.074 -0.860 0.505 51 35 14 0 0
0.0374 -0.1053 -1.3643 -0.272 -0.730 0.627 141 117 79 0 0
0.0464 -0.1401 -1.3931 0.096 -0.730 0.677 201 170 117 0 0
0.0596 -0.1905 -1.4284 0.162 -0.905 0.393 131 101 53 0 0
0.0599 -0.1930 -1.4477 0.270 -0.919 0.289 116 87 44 0 0
0.0605 -0.1956 -1.4566 0.270 -0.919 0.289 102 75 36 0 0
0.0680 -0.2260 -1.5018 0.367 -0.819 0.442 75 49 20 0 0
0.0687 -0.2286 -1.5055 0.354 -0.880 0.316 58 32 16 0 0
0.0721 -0.2441 -1.5488 0.276 -0.918 0.284 83 59 29 0 0
0.0731 -0.2488 -1.5670 0.438 -0.866 0.243 98 74 34 0 0
0.0735 -0.2505 -1.5712 0.303 -0.796 0.524 107 84 41 0 0
0.0741 -0.2528 -1.5751 0.303 -0.796 0.524 106 81 40 0 0
0.0902 -0.3126 -1.5907 -0.365 -0.598 0.714 134 109 71 0 0
0.0922 -0.3201 -1.5913 -0.440 -0.745 0.501 147 118 76 0 0
0.0824 -0.2920 -1.7159 0.204 -0.929 0.308 94 74 37 0 0
0.0823 -0.2921 -1.7213 0.268 -0.859 0.437 95 77 40 0 0
0.0828 -0.2943 -1.7253 0.362 -0.872 0.329 82 63 29 0 0
0.0929 -0.3395 -1.8587 0.345 -0.823 0.451 75 49 22 0 0
0.0934 -0.3416 -1.8628 0.345 -0.823 0.451 75 49 22 0 0
0.1113 -0.4217 -2.0960 0.403 -0.862 0.309 71 47 20 0 0
0.1134 -0.4306 -2.1117 0.224 -0.912 0.344 81 58 31 0 0
0.1136 -0.4317 -2.1167 0.236 -0.962 0.136 79 56 27 0 0
0.1149 -0.4372 -2.1295 0.280 -0.896 0.345 71 48 23 0 0
0.1202 -0.4587 -2.1634 0.273 -0.895 0.352 96 73 38 0 0
0.1210 -0.4629 -2.1834 0.202 -0.905 0.375 94 72 38 0 0
0.1233 -0.4718 -2.1930 0.399 -0.722 0.566 112 90 46 0 0
0.1239 -0.4744 -2.1966 0.484 -0.667 0.566 108 85 43 0 0
0.1245 -0.4768 -2.2004 0.226 -0.715 0.662 110 87 45 0 0
0.1253 -0.4799 -2.2034 0.282 -0.690 0.667 107 84 42 0 0
0.1265 -0.4843 -2.2053 0.265 -0.769 0.582 113 91 46 0 0
0.0021 0.0356 -0.9035 0.333 -0.843 0.423 120 99 74 0 0
0.0035 0.0291 -0.9251 0.382 -0.867 0.319 135 110 71 0 0
0.0038 0.0248 -0.9714 0.142 -0.970 0.195 68 47 22 0 0
0.0030 0.0272 -0.9770 0.127 -0.981 -0.148 85 63 31 0 0
0.0050 0.0045 -1.2156 0.358 -0.324 0.876 102 81 40 0 0
0.0065 -0.0009 -1.2183 0.308 -0.213 0.927 104 84 48 0 0
0.0299 -0.0954 -1.3594 -0.071 -0.682 0.728 149 126 93 0 0
0.0470 -0.1604 -1.4038 0.118 -0.562 0.819 151 127 80 0 0
0.0477 -0.1633 -1.4074 0.088 -0.733 0.675 196 165 119 0 0
0.0525 -0.1819 -1.4284 0.047 -0.833 0.551 147 118 77 0 0
0.0547 -0.1906 -1.4392 0.182 -0.833 0.522 125 95 52 0 0
0.0558 -0.1953 -1.4470 0.380 -0.775 0.504 109 79 37 0 0
0.0638 -0.2277 -1.5014 0.367 -0.819 0.442 75 50 21 0 0
0.0642 -0.2297 -1.5055 0.367 -0.819 0.442 74 48 24 0 0
0.0697 -0.2540 -1.5750 0.294 -0.848 0.440 108 83 42 0 0
0.0701 -0.2559 -1.5791 0.294 -0.848 0.440 104 75 35 0 0
0.0844 -0.3083 -1.5889 -0.019 -0.282 0.959 137 111 70 0 0
0.0866 -0.3165 -1.5890 -0.416 -0.839 0.352 142 115 70 0 0
0.0951 -0.3488 -1.6103 0.185 -0.896 0.403 84 61 30 0 0
0.0779 -0.2931 -1.7160 0.204 -0.929 0.308 94 73 37 0 0
0.0779 -0.2934 -1.7212 0.268 -0.859 0.437 102 84 50 0 0
0.0847 -0.3254 -1.8309 0.367 -0.782 0.504 73 46 19 0 0
0.0853 -0.3276 -1.8348 0.367 -0.782 0.504 74 48 21 0 0
0.0864 -0.3322 -1.8426 0.367 -0.782 0.504 75 49 22 0 0
0.0886 -0.3414 -1.8581 0.180 -0.901 0.396 73 47 20 0 0
0.0887 -0.3420 -1.8633 0.096 -0.870 0.483 76 50 23 0 0
0.0893 -0.3446 -1.8670 0.029 -0.932 0.362 81 55 28 0 0
0.0899 -0.3472 -1.8762 0.021 -0.997 0.071 80 54 27 0 0
0.0907 -0.3512 -1.8900 0.167 -0.907 0.386 74 48 23 0 0
0.0955 -0.3738 -1.9746 0.380 -0.911 0.161 78 52 25 0 0
0.0965 -0.3793 -1.9989 0.105 -0.952 0.289 76 50 23 0 0
0.0994 -0.3930 -2.0455 0.126 -0.880 0.459 78 55 24 0 0
0.1009 -0.3986 -2.0524 0.176 -0.904 0.389 86 63 32 0 0
0.1086 -0.4302 -2.1072 0.153 -0.928 0.339 79 56 25 0 0
0.1089 -0.4318 -2.1117 0.153 -0.928 0.339 79 58 30 0 0
0.1097 -0.4348 -2.1150 0.164 -0.952 0.257 77 56 25 0 0
0.1103 -0.4381 -2.1297 0.153 -0.928 0.339 74 50 24 0 0
0.1190 -0.4735 -2.1866 0.595 -0.647 0.476 107 85 41 0 0
-0.0169 0.0876 -0.8961 0.401 -0.177 0.899 160 158 155 0 0
-0.0010 0.0251 -0.9718 0.212 -0.939 0.270 69 47 27 0 0
-0.0015 0.0265 -0.9771 0.304 -0.932 -0.197 82 59 31 0 0
-0.0148 0.0605 -1.1882 0.217 -0.910 0.354 41 34 26 0 0
-0.0050 0.0235 -1.2087 0.105 -0.462 0.881 109 90 51 0 0
0.0303 -0.1146 -1.3659 -0.208 -0.767 0.607 139 112 78 0 0
0.0313 -0.1188 -1.3740 0.346 -0.572 0.744 136 114 81 0 0
0.0325 -0.1234 -1.3769 0.262 -0.642 0.721 156 130 92 0 0
0.0433 -0.1646 -1.4072 0.167 -0.648 0.743 197 166 113 0 0
0.0513 -0.1966 -1.4520 0.392 -0.853 0.346 119 92 49 0 0
0.0589 -0.2269 -1.4973 0.304 -0.914 0.268 76 51 21 0 0
0.0600 -0.2314 -1.5051 0.367 -0.819 0.442 70 44 18 0 0
0.0643 -0.2511 -1.5669 0.614 -0.783 0.095 96 72 35 0 0
0.0664 -0.2593 -1.5724 0.326 -0.788 0.523 103 78 39 0 0
0.0672 -0.2623 -1.5759 0.403 -0.890 0.212 108 81 42 0 0
0.0799 -0.3090 -1.5892 -0.019 -0.282 0.959 146 122 76 0 0
0.0783 -0.3186 -1.8144 0.284 -0.862 0.420 74 48 21 0 0
0.0821 -0.3339 -1.8421 0.325 -0.828 0.456 74 48 21 0 0
0.0840 -0.3423 -1.8639 -0.020 -0.878 0.479 76 50 23 0 0
0.0845 -0.3446 -1.8678 -0.046 -0.903 0.428 79 53 26 0 0
0.0918 -0.3801 -2.0049 0.228 -0.821 0.524 78 54 24 0 0
0.0938 -0.3885 -2.0212 0.463 -0.812 0.356 92 68 42 0 0
0.0945 -0.3911 -2.0248 0.434 -0.885 0.171 83 59 32 0 0
0.0948 -0.3938 -2.0457 0.126 -0.880 0.459 75 52 21 0 0
0.0959 -0.3978 -2.0482 0.176 -0.904 0.389 78 55 24 0 0
0.0963 -0.3996 -2.0526 0.176 -0.904 0.389 84 61 30 0 0
0.1040 -0.4310 -2.1075 0.153 -0.928 0.339 81 58 27 0 0
0.1043 -0.4326 -2.1120 0.153 -0.928 0.339 74 53 24 0 0
0.1133 -0.4692 -2.1737 0.040 -0.984 0.174 98 75 41 0 0
0.1150 -0.4761 -2.1852 0.595 -0.647 0.476 105 83 39 0 0
0.1286 -0.5296 -2.2480 0.148 -0.916 0.373 99 81 46 0 0
0.1336 -0.5486 -2.2654 -0.091 -0.995 0.046 177 177 179 0 0
0.1324 -0.5452 -2.2748 -0.202 -0.865 0.460 195 194 196 0 0
-0.0229 0.0920 -0.8977 0.116 -0.108 0.987 167 165 163 0 0
-0.0143 0.0613 -0.8931 0.215 -0.585 0.782 116 105 90 0 0
-0.0044 0.0227 -0.9332 0.344 -0.832 0.435 79 57 27 0 0
-0.0208 0.0648 -1.1802 0.342 -0.709 0.616 30 23 15 0 0
-0.0200 0.0615 -1.1840 0.410 -0.749 0.521 26 19 13 0 0
-0.0190 0.0574 -1.1925 0.278 -0.767 0.578 46 37 27 0 0
0.0242 -0.1013 -1.2408 0.253 -0.820 0.513 106 83 51 0 0
0.0201 -0.0905 -1.2962 0.290 -0.912 0.290 56 37 20 0 0
0.0303 -0.1334 -1.3878 -0.110 -0.694 0.711 187 156 108 0 0
0.0314 -0.1379 -1.3907 0.016 -0.829 0.559 198 166 119 0 0
0.0453 -0.1908 -1.4351 0.473 -0.718 0.512 120 91 48 0 0
0.0584 -0.2460 -1.5495 0.137 -0.881 0.452 72 51 19 0 0
0.0596 -0.2502 -1.5523 0.283 -0.836 0.471 78 55 23 0 0
0.0623 -0.2615 -1.5718 0.595 -0.682 0.426 120 94 56 0 0
0.0782 -0.3201 -1.5933 0.241 -0.532 0.812 147 119 72 0 0
0.0854 -0.3468 -1.6077 0.155 -0.798 0.583 85 63 32 0 0
0.0854 -0.3492 -1.6376 0.316 -0.863 -0.394 110 87 55 0 0
0.0689 -0.2950 -1.7162 0.297 -0.831 0.469 80 57 28 0 0
0.0689 -0.2959 -1.7264 0.219 -0.967 0.130 89 66 31 0 0
0.0691 -0.2968 -1.7313 0.239 -0.957 0.165 87 63 31 0 0
0.0739 -0.3201 -1.8141 0.336 -0.835 0.437 72 46 19 0 0
0.0791 -0.3427 -1.8701 0.238 -0.891 0.387 74 48 21 0 0
0.0845 -0.3629 -1.8829 0.375 -0.565 0.735 75 49 23 0 0
0.0853 -0.3659 -1.8863 0.399 -0.624 0.672 74 48 22 0 0
0.0859 -0.3740 -1.9705 0.449 -0.787 0.422 80 56 26 0 0
0.0856 -0.3735 -1.9824 -0.083 -0.785 0.614 78 52 25 0 0
0.0867 -0.3777 -1.9848 -0.090 -0.975 0.201 77 51 24 0 0
0.0869 -0.3787 -1.9897 -0.090 -0.975 0.201 76 50 23 0 0
0.0895 -0.3903 -2.0206 0.357 -0.810 0.465 89 65 39 0 0
0.0901 -0.3928 -2.0244 0.400 -0.877 0.267 77 53 27 0 0
0.0903 -0.3940 -2.0292 0.481 -0.868 0.123 81 57 30 0 0
0.1011 -0.4392 -2.1248 0.300 -0.907 0.297 88 65 35 0 0
0.1060 -0.4594 -2.1600 0.095 -0.932 0.351 92 70 33 0 0
0.1068 -0.4630 -2.1686 0.138 -0.908 0.396 89 67 28 0 0
0.1075 -0.4656 -2.1722 0.131 -0.849 0.512 93 71 33 0 0
0.1089 -0.4711 -2.1790 -0.022 -0.954 0.298 95 72 38 0 0
0.1095 -0.4734 -2.1828 0.148 -0.698 0.701 92 70 31 0 0
0.1113 -0.4802 -2.1885 0.364 -0.736 0.572 112 89 46 0 0
0.1119 -0.4827 -2.1921 0.364 -0.736 0.572 104 81 39 0 0
0.1236 -0.5286 -2.2441 0.325 -0.756 0.568 107 90 42 0 0
0.1268 -0.5415 -2.2676 0.134 -0.908 0.398 151 146 140 0 0
-0.0087 0.0212 -0.9330 0.193 -0.912 0.361 77 56 29 0 0
-0.0086 0.0204 -0.9375 0.185 -0.837 0.515 73 51 28 0 0
-0.0080 0.0181 -0.9415 0.171 -0.852 0.496 67 45 21 0 0
-0.0065 0.0125 -0.9444 0.472 -0.801 0.367 71 51 23 0 0
-0.0321 0.0883 -1.1695 0.725 -0.071 0.685 191 193 196 0 0
-0.0155 0.0262 -1.2057 0.073 -0.403 0.912 107 88 46 0 0
-0.0140 0.0204 -1.2083 0.073 -0.403 0.912 101 82 40 0 0
0.0025 -0.0397 -1.2233 0.481 -0.127 0.868 108 91 58 0 0
0.0225 -0.1218 -1.3736 0.434 -0.761 0.482 134 113 74 0 0
0.0248 -0.1310 -1.3845 0.141 -0.777 0.614 197 169 119 0 0
0.0255 -0.1335 -1.3884 -0.141 -0.743 0.654 184 151 106 0 0
0.0393 -0.1857 -1.4281 0.438 -0.735 0.517 130 98 60 0 0
0.0453 -0.2097 -1.4616 0.106 -0.830 0.548 101 74 37 0 0
0.0510 -0.2330 -1.5003 0.149 -0.889 0.434 71 47 18 0 0
0.0554 -0.2525 -1.5568 0.160 -0.960 0.229 82 55 25 0 0
0.0582 -0.2641 -1.5761 0.412 -0.590 0.695 106 82 40 0 0
0.0692 -0.3040 -1.5883 -0.115 -0.109 0.987 142 116 75 0 0
0.0645 -0.2964 -1.7160 0.297 -0.831 0.469 86 63 32 0 0
0.0648 -0.2988 -1.7307 0.464 -0.860 0.211 83 59 26 0 0
0.0734 -0.3375 -1.8468 0.301 -0.901 0.313 72 46 19 0 0
0.0734 -0.3379 -1.8520 0.170 -0.878 0.447 71 45 18 0 0
0.0735 -0.3389 -1.8569 -0.004 -0.920 0.391 71 45 18 0 0
0.0740 -0.3410 -1.8610 0.057 -0.912 0.406 71 45 18 0 0
0.0751 -0.3451 -1.8691 0.044 -0.905 0.422 74 48 21 0 0
0.0767 -0.3545 -1.9183 -0.030 -0.950 0.310 76 51 21 0 0
0.0825 -0.3791 -1.9731 0.181 -0.912 0.369 79 54 24 0 0
0.0823 -0.3792 -1.9844 0.127 -0.972 0.197 78 53 23 0 0
0.0851 -0.3927 -2.0311 -0.149 -0.967 0.206 75 53 24 0 0
0.1022 -0.4638 -2.1689 0.138 -0.908 0.396 91 69 31 0 0
0.1044 -0.4714 -2.1679 0.204 -0.813 0.546 93 71 34 0 0
0.1070 -0.4821 -2.1878 0.223 -0.859 0.460 113 90 47 0 0
0.1076 -0.4844 -2.1916 0.342 -0.776 0.530 108 85 43 0 0
0.1090 -0.4901 -2.1982 0.268 -0.741 0.615 103 80 36 0 0
0.1193 -0.5302 -2.2437 0.325 -0.756 0.568 106 90 45 0 0
0.1203 -0.5352 -2.2628 0.201 -0.922 0.330 93 81 59 0 0
0.1217 -0.5401 -2.2641 0.109 -0.946 0.306 114 105 90 0 0
0.1221 -0.5419 -2.2684 0.079 -0.774 0.629 151 146 140 0 0
-0.0150 0.0273 -0.9258 0.177 -0.981 0.077 146 118 84 0 0
-0.0036 -0.0347 -1.2208 0.205 -0.411 0.888 99 82 54 0 0
0.0110 -0.0923 -1.2963 0.190 -0.919 0.345 54 37 18 0 0
0.0117 -0.0954 -1.3050 0.190 -0.919 0.345 62 41 19 0 0
0.0352 -0.1880 -1.4274 0.248 -0.919 0.308 128 96 59 0 0
0.0383 -0.2004 -1.4466 0.228 -0.778 0.585 111 84 42 0 0
0.0407 -0.2103 -1.4618 0.409 -0.759 0.507 101 76 38 0 0
0.0413 -0.2126 -1.4657 0.409 -0.759 0.507 105 81 42 0 0
0.0420 -0.2154 -1.4693 0.254 -0.899 0.357 80 51 25 0 0
0.0751 -0.3426 -1.5961 0.171 -0.916 0.364 131 107 64 0 0
0.0755 -0.3442 -1.6003 0.171 -0.916 0.364 97 73 36 0 0
0.0592 -0.2965 -1.7439 0.437 -0.870 0.227 75 50 20 0 0
0.0594 -0.2976 -1.7486 0.437 -0.870 0.227 105 82 51 0 0
0.0620 -0.3089 -1.7738 0.278 -0.834 0.477 74 50 22 0 0
0.0690 -0.3389 -1.8465 0.175 -0.936 0.306 71 45 18 0 0
0.0690 -0.3396 -1.8516 0.144 -0.922 0.358 71 45 18 0 0
0.0694 -0.3411 -1.8561 0.252 -0.913 0.322 72 46 19 0 0
0.0698 -0.3429 -1.8604 0.144 -0.922 0.358 74 48 21 0 0
0.0701 -0.3443 -1.8649 0.170 -0.858 0.485 72 46 19 0 0
0.0707 -0.3472 -1.8740 0.158 -0.958 0.239 75 49 22 0 0
0.0712 -0.3507 -1.8995 0.011 -0.987 0.163 75 50 20 0 0
0.0716 -0.3529 -1.9091 -0.255 -0.769 0.586 76 51 21 0 0
0.0746 -0.3671 -1.9550 0.291 -0.901 0.321 83 60 28 0 0
0.0756 -0.3707 -1.9578 0.361 -0.870 0.335 83 60 30 0 0
0.0775 -0.3790 -1.9798 0.257 -0.934 0.247 79 54 24 0 0
0.0777 -0.3802 -1.9846 0.341 -0.859 0.383 79 54 24 0 0
0.0781 -0.3820 -1.9889 0.341 -0.859 0.383 80 55 25 0 0
0.0781 -0.3822 -1.9945 0.239 -0.919 0.314 81 58 27 0 0
0.0784 -0.3838 -1.9989 0.222 -0.923 0.314 76 53 22 0 0
0.0798 -0.3892 -2.0061 0.345 -0.818 0.460 80 55 26 0 0
0.0919 -0.4407 -2.1197 0.341 -0.884 0.321 77 56 25 0 0
0.0923 -0.4422 -2.1242 0.341 -0.884 0.321 78 57 26 0 0
0.0942 -0.4512 -2.1517 0.333 -0.848 0.413 92 70 34 0 0
0.0994 -0.4710 -2.1693 0.120 -0.862 0.492 98 76 39 0 0
0.1084 -0.5070 -2.2252 0.167 -0.642 0.748 112 92 42 0 0
0.1113 -0.5184 -2.2382 0.087 -0.798 0.597 112 91 44 0 0
0.1138 -0.5274 -2.2416 0.019 -0.763 0.647 105 86 38 0 0
0.1154 -0.5337 -2.2475 0.374 -0.871 0.319 111 94 56 0 0
0.1176 -0.5425 -2.2628 -0.164 -0.922 0.351 116 106 92 0 0
-0.0295 0.0640 -0.8949 -0.540 -0.478 0.693 120 112 102 0 0
-0.0221 0.0367 -0.9101 0.018 -0.831 0.556 143 117 85 0 0
-0.0207 0.0315 -0.9179 0.059 -0.835 0.547 127 105 68 0 0
-0.0201 0.0289 -0.9219 0.059 -0.835 0.547 96 73 45 0 0
-0.0191 0.0250 -0.9253 0.239 -0.918 0.315 123 99 67 0 0
-0.0191 0.0246 -0.9300 0.270 -0.860 0.432 143 120 86 0 0
-0.0182 0.0213 -0.9337 0.198 -0.942 0.272 77 55 23 0 0
-0.0180 0.0201 -0.9380 0.198 -0.942 0.272 69 47 24 0 0
-0.0384 0.0758 -1.1603 0.142 -0.863 0.484 191 192 194 0 0
-0.0384 0.0754 -1.1652 0.146 -0.844 0.516 174 173 175 0 0
-0.0094 -0.0314 -1.2177 0.688 -0.366 0.626 92 75 48 0 0
0.0049 -0.0893 -1.3186 -0.001 -1.000 0.008 54 37 19 0 0
0.0085 -0.1056 -1.3622 0.062 -0.673 0.737 118 89 43 0 0
0.0348 -0.2052 -1.4497 0.366 -0.693 0.621 99 76 37 0 0
0.0365 -0.2122 -1.4613 0.462 -0.742 0.487 96 72 35 0 0
0.0370 -0.2142 -1.4654 0.303 -0.826 0.476 105 81 43 0 0
0.0375 -0.2163 -1.4694 0.303 -0.826 0.476 78 50 21 0 0
0.0458 -0.2522 -1.5583 0.096 -0.961 0.261 84 58 26 0 0
0.0459 -0.2528 -1.5632 0.342 -0.698 0.629 82 57 25 0 0
0.0466 -0.2559 -1.5666 0.375 -0.618 0.691 94 70 35 0 0
0.0558 -0.2899 -1.5880 -0.187 -0.467 0.864 155 127 78 0 0
0.0706 -0.3433 -1.6015 0.222 -0.915 0.335 94 70 33 0 0
0.0578 -0.3109 -1.7732 0.410 -0.770 0.489 74 52 23 0 0
0.0609 -0.3248 -1.8131 0.243 -0.851 0.465 74 48 19 0 0
0.0645 -0.3403 -1.8464 0.301 -0.901 0.313 73 47 20 0 0
0.0653 -0.3436 -1.8551 0.329 -0.910 0.252 71 45 18 0 0
0.0654 -0.3443 -1.8602 0.189 -0.900 0.392 78 52 25 0 0
0.0660 -0.3470 -1.8694 0.117 -0.911 0.396 72 46 19 0 0
0.0652 -0.3469 -1.9032 -0.036 -0.918 0.395 75 50 20 0 0
0.0754 -0.3908 -2.0057 0.345 -0.818 0.460 79 55 24 0 0
0.0760 -0.3929 -2.0097 0.141 -0.929 0.341 79 56 25 0 0
0.0765 -0.3967 -2.0356 0.306 -0.873 0.379 77 54 23 0 0
0.0812 -0.4178 -2.0936 0.117 -0.965 0.233 71 50 23 0 0
0.0865 -0.4387 -2.1224 0.267 -0.873 0.409 77 56 25 0 0
0.0947 -0.4715 -2.1700 0.255 -0.895 0.366 101 79 42 0 0
0.0951 -0.4730 -2.1745 0.166 -0.957 0.237 100 78 41 0 0
0.0959 -0.4761 -2.1776 0.134 -0.799 0.586 97 74 40 0 0
0.0978 -0.4833 -2.1829 0.075 -0.749 0.658 101 79 38 0 0
0.0988 -0.4876 -2.1908 0.324 -0.819 0.473 103 80 39 0 0
-0.0260 0.0335 -0.9141 -0.060 -0.930 0.364 170 145 101 0 0
-0.0228 0.0204 -0.9384 0.155 -0.860 0.485 69 47 23 0 0
-0.0225 0.0189 -0.9427 0.311 -0.851 0.423 66 44 21 0 0
-0.0421 0.0713 -1.1589 0.555 -0.658 0.509 191 192 194 0 0
-0.0396 0.0623 -1.1655 0.174 -0.577 0.798 34 28 22 0 0
-0.0385 0.0580 -1.1689 0.174 -0.577 0.798 22 16 7 0 0
-0.0029 -0.0760 -1.2794 -0.217 -0.971 -0.097 40 29 17 0 0
-0.0032 -0.0754 -1.2848 -0.217 -0.971 -0.097 40 29 17 0 0
-0.0001 -0.0890 -1.3193 -0.069 -0.997 0.032 64 46 29 0 0
0.0018 -0.0982 -1.3560 0.193 -0.798 0.571 109 89 59 0 0
0.0023 -0.1006 -1.3600 0.550 -0.641 0.535 118 92 51 0 0
0.0032 -0.1041 -1.3634 0.341 -0.664 0.666 134 105 61 0 0
0.0068 -0.1173 -1.3724 0.222 -0.742 0.633 130 107 79 0 0
0.0236 -0.1803 -1.4224 -0.005 -0.884 0.468 159 127 80 0 0
0.0329 -0.2169 -1.4697 0.292 -0.848 0.442 85 58 22 0 0
0.0510 -0.2898 -1.5887 -0.334 -0.510 0.793 154 127 74 0 0
0.0649 -0.3390 -1.5945 -0.033 -0.698 0.716 175 149 103 0 0
0.0560 -0.3247 -1.8140 0.351 -0.885 0.306 75 49 21 0 0
0.0606 -0.3477 -1.9035 0.123 -0.911 0.393 75 50 20 0 0
0.0608 -0.3487 -1.9084 0.066 -0.935 0.350 77 52 22 0 0
0.0653 -0.3678 -1.9504 0.022 -0.947 0.322 82 59 28 0 0
0.0694 -0.3841 -1.9718 -0.018 -0.905 0.425 80 54 25 0 0
0.0724 -0.3997 -2.0398 0.321 -0.876 0.361 78 54 24 0 0
0.0903 -0.4727 -2.1699 0.240 -0.901 0.362 97 75 38 0 0
0.0913 -0.4770 -2.1778 0.134 -0.799 0.586 94 72 36 0 0
0.0990 -0.5066 -2.2098 0.342 -0.885 0.316 112 89 40 0 0
0.0993 -0.5081 -2.2144 0.342 -0.885 0.316 113 92 42 0 0
0.1000 -0.5113 -2.2233 0.326 -0.726 0.605 115 95 45 0 0
0.1057 -0.5331 -2.2502 0.145 -0.949 0.278 101 85 46 0 0
0.1084 -0.5443 -2.2693 0.056 -0.768 0.639 155 151 145 0 0
-0.0397 0.0663 -0.8961 0.145 -0.770 0.621 130 123 113 0 0
-0.0303 0.0320 -0.9139 0.294 -0.928 0.227 159 136 95 0 0
-0.0482 0.0850 -1.0385 0.765 -0.365 -0.530 180 184 186 0 0
-0.0432 0.0570 -1.1689 0.294 -0.864 0.409 17 13 5 0 0
-0.0036 -0.0863 -1.2248 0.230 -0.493 0.839 137 113 86 0 0
0.0007 -0.1028 -1.2425 -0.046 -0.979 0.197 65 46 22 0 0
-0.0027 -0.0995 -1.3559 0.382 -0.673 0.633 95 78 48 0 0
-0.0019 -0.1026 -1.3595 0.382 -0.673 0.633 93 73 39 0 0
-0.0011 -0.1059 -1.3631 0.341 -0.664 0.666 111 88 52 0 0
0.0001 -0.1101 -1.3661 -0.054 -0.818 0.573 107 86 54 0 0
0.0099 -0.1465 -1.3890 0.431 -0.680 0.593 190 161 119 0 0
0.0104 -0.1487 -1.3982 0.384 -0.866 0.320 164 135 96 0 0
0.0271 -0.2119 -1.4575 -0.066 -0.647 0.760 89 63 26 0 0
0.0307 -0.2274 -1.4903 0.410 -0.864 0.293 86 63 30 0 0
0.0302 -0.2262 -1.4962 0.228 -0.806 0.547 74 51 19 0 0
0.0365 -0.2535 -1.5641 0.334 -0.560 0.758 76 51 20 0 0
0.0460 -0.2889 -1.5899 -0.273 -0.556 0.785 151 122 74 0 0
0.0604 -0.3398 -1.5947 0.065 -0.579 0.813 180 153 109 0 0
0.0511 -0.3226 -1.7941 0.322 -0.880 0.349 70 44 19 0 0
0.0523 -0.3276 -1.8016 0.299 -0.730 0.615 71 45 18 0 0
0.0518 -0.3266 -1.8134 0.295 -0.879 0.374 74 48 22 0 0
0.0559 -0.3482 -1.9039 0.202 -0.928 0.312 75 50 20 0 0
0.0562 -0.3495 -1.9086 0.320 -0.889 0.327 78 53 23 0 0
0.0609 -0.3693 -1.9501 0.291 -0.899 0.327 82 59 28 0 0
0.0679 -0.4011 -2.0396 0.230 -0.923 0.308 79 56 25 0 0
0.0676 -0.4005 -2.0459 0.337 -0.733 0.591 78 54 24 0 0
0.0706 -0.4134 -2.0759 0.422 -0.851 0.312 73 50 20 0 0
0.0724 -0.4210 -2.0928 0.346 -0.902 0.257 63 42 16 0 0
0.0727 -0.4224 -2.0975 0.251 -0.937 0.242 64 42 17 0 0
0.0760 -0.4344 -2.1047 0.206 -0.890 0.408 69 48 19 0 0
0.0798 -0.4495 -2.1268 0.116 -0.832 0.543 76 53 22 0 0
0.0800 -0.4515 -2.1427 0.059 -0.851 0.522 76 54 22 0 0
0.1011 -0.5339 -2.2506 0.145 -0.949 0.278 102 87 48 0 0
-0.0366 0.0379 -0.9066 0.204 -0.751 0.628 170 147 112 0 0
-0.0359 0.0353 -0.9105 0.265 -0.805 0.530 153 128 94 0 0
-0.0348 0.0312 -0.9140 0.143 -0.951 0.273 147 122 83 0 0
-0.0556 0.0929 -1.0466 0.823 -0.238 -0.516 182 184 186 0 0
-0.0220 -0.0376 -1.2113 0.239 -0.265 0.934 107 90 67 0 0
-0.0188 -0.0486 -1.2116 0.259 -0.366 0.894 88 72 46 0 0
0.0144 -0.1815 -1.4229 -0.198 -0.745 0.637 162 132 85 0 0
0.0209 -0.2067 -1.4506 0.083 -0.881 0.465 97 72 32 0 0
0.0475 -0.3105 -1.5877 0.302 -0.083 0.950 147 119 75 0 0
0.0561 -0.3411 -1.5946 0.170 -0.583 0.794 185 160 119 0 0
0.0571 -0.3446 -1.5976 0.370 -0.815 0.445 170 144 102 0 0
0.0618 -0.3634 -1.6273 0.039 -0.888 -0.458 82 59 28 0 0
0.0513 -0.3485 -1.8989 -0.113 -0.992 0.061 72 47 17 0 0
0.0513 -0.3492 -1.9040 0.202 -0.928 0.312 77 52 22 0 0
0.0515 -0.3502 -1.9090 0.014 -0.919 0.394 79 54 24 0 0
0.0564 -0.3707 -1.9500 0.291 -0.899 0.327 83 60 29 0 0
0.0662 -0.4149 -2.0756 0.456 -0.831 0.320 78 54 22 0 0
0.0666 -0.4165 -2.0801 0.456 -0.831 0.320 105 80 44 0 0
0.0685 -0.4246 -2.0966 0.256 -0.900 0.353 64 42 18 0 0
0.0734 -0.4432 -2.1157 -0.053 -0.817 0.574 81 58 27 0 0
-0.0402 0.0336 -0.9103 0.125 -0.744 0.656 139 113 80 0 0
-0.0333 0.0092 -0.9168 0.057 -0.985 0.162 94 72 48 0 0
-0.0591 0.0877 -1.0502 0.645 -0.364 -0.672 183 184 186 0 0
-0.0262 -0.0398 -1.2108 0.218 -0.265 0.939 102 87 58 0 0
-0.0238 -0.0482 -1.2122 -0.058 -0.433 0.900 77 64 31 0 0
-0.0093 -0.1007 -1.2393 0.025 -0.733 0.680 139 118 83 0 0
0.0172 -0.2114 -1.4641 0.236 -0.824 0.515 97 74 32 0 0
0.0179 -0.2139 -1.4679 0.349 -0.808 0.475 94 70 29 0 0
0.0189 -0.2182 -1.4759 0.349 -0.808 0.475 112 84 45 0 0
0.0266 -0.2520 -1.5610 0.088 -0.892 0.443 79 54 22 0 0
0.0415 -0.3217 -1.7798 0.455 -0.822 0.343 77 55 25 0 0
0.0427 -0.3287 -1.8135 0.343 -0.890 0.301 75 49 23 0 0
0.0462 -0.3474 -1.8949 -0.258 -0.966 -0.022 79 54 24 0 0
0.0477 -0.3533 -1.9018 0.171 -0.953 0.250 81 56 26 0 0
0.0477 -0.3537 -1.9072 0.147 -0.933 0.329 80 55 25 0 0
0.0486 -0.3570 -1.9103 -0.108 -0.862 0.496 79 54 24 0 0
0.0489 -0.3584 -1.9149 0.264 -0.832 0.488 80 55 25 0 0
0.0497 -0.3616 -1.9181 0.196 -0.887 0.418 82 57 27 0 0
0.0517 -0.3706 -1.9452 0.164 -0.956 0.243 83 60 29 0 0
0.0571 -0.3971 -2.0390 0.461 -0.789 0.407 80 57 26 0 0
0.0589 -0.4034 -2.0396 0.230 -0.923 0.308 81 58 27 0 0
0.0588 -0.4036 -2.0453 0.350 -0.678 0.647 84 63 32 0 0
0.0623 -0.4181 -2.0739 0.509 -0.831 0.225 85 60 26 0 0
0.0626 -0.4195 -2.0785 0.360 -0.873 0.328 102 78 36 0 0
0.0629 -0.4210 -2.0831 0.360 -0.873 0.328 102 77 44 0 0
0.0635 -0.4234 -2.0869 0.264 -0.895 0.359 75 53 24 0 0
0.0694 -0.4470 -2.1251 0.082 -0.888 0.452 71 47 19 0 0
0.0768 -0.4771 -2.1809 0.247 -0.807 0.537 96 73 32 0 0
0.0917 -0.5342 -2.2465 0.583 -0.744 0.325 108 89 39 0 0
-0.0451 0.0345 -0.9061 0.404 -0.594 0.696 168 141 104 0 0
-0.0423 0.0242 -0.9124 0.561 -0.627 0.540 158 130 93 0 0
-0.0384 0.0109 -0.9129 -0.013 -0.963 0.270 122 95 65 0 0
-0.0386 0.0092 -0.9408 0.032 -0.995 0.098 58 36 15 0 0
-0.0640 0.0872 -1.0553 0.698 -0.331 -0.635 183 184 185 0 0
-0.0286 -0.0484 -1.2126 -0.058 -0.433 0.900 88 73 40 0 0
-0.0185 -0.0846 -1.2269 -0.123 -0.753 0.646 141 120 92 0 0
-0.0173 -0.0889 -1.2300 0.418 -0.559 0.716 119 100 76 0 0
-0.0139 -0.1016 -1.2394 0.422 -0.636 0.646 116 93 59 0 0
-0.0133 -0.1038 -1.2434 0.266 -0.885 0.383 70 51 29 0 0
0.0133 -0.2141 -1.4632 0.014 -0.845 0.534 90 65 26 0 0
0.0139 -0.2166 -1.4670 0.167 -0.858 0.486 84 58 20 0 0
0.0144 -0.2185 -1.4712 0.188 -0.915 0.356 109 81 46 0 0
0.0148 -0.2203 -1.4754 0.317 -0.827 0.464 90 63 33 0 0
0.0210 -0.2475 -1.5433 0.272 -0.919 0.285 70 46 19 0 0
0.0221 -0.2527 -1.5613 0.293 -0.836 0.463 80 57 25 0 0
0.0324 -0.2902 -1.5806 -0.102 -0.636 0.765 141 111 69 0 0
0.0418 -0.3234 -1.5914 -0.403 -0.458 0.793 149 124 82 0 0
0.0484 -0.3475 -1.6075 0.209 -0.834 0.511 81 57 27 0 0
0.0364 -0.3222 -1.7968 0.247 -0.869 0.429 78 53 25 0 0
0.0424 -0.3479 -1.8561 0.195 -0.981 -0.000 79 54 24 0 0
0.0431 -0.3542 -1.9020 0.664 -0.625 0.410 81 58 27 0 0
0.0440 -0.3574 -1.9052 0.464 -0.805 0.370 80 56 25 0 0
0.0444 -0.3597 -1.9148 0.264 -0.832 0.488 80 56 26 0 0
0.0452 -0.3626 -1.9182 0.196 -0.887 0.418 81 58 27 0 0
0.0519 -0.3951 -2.0300 0.218 -0.945 0.245 75 52 21 0 0
0.0523 -0.3968 -2.0344 0.476 -0.794 0.378 79 56 25 0 0
0.0589 -0.4236 -2.0818 0.559 -0.773 0.301 91 67 34 0 0
0.0666 -0.4567 -2.1589 0.217 -0.885 0.411 94 70 33 0 0
0.0890 -0.5431 -2.2630 -0.073 -0.946 0.315 91 83 62 0 0
-0.0589 0.0654 -0.9066 0.714 -0.678 0.172 107 90 61 0 0
-0.0579 0.0618 -0.9102 0.858 -0.438 0.268 123 98 71 0 0
-0.0692 0.0877 -1.0609 0.811 -0.250 -0.528 183 184 186 0 0
-0.0331 -0.0495 -1.2126 -0.006 -0.517 0.856 97 80 50 0 0
-0.0180 -0.1037 -1.2389 0.272 -0.726 0.632 101 79 48 0 0
-0.0277 -0.0779 -1.3272 -0.045 -0.782 0.622 62 43 23 0 0
0.0050 -0.2008 -1.4504 -0.179 -0.868 0.463 99 74 34 0 0
0.0123 -0.2280 -1.4716 0.206 -0.936 0.285 74 48 24 0 0
0.0126 -0.2293 -1.4761 0.206 -0.936 0.285 85 62 25 0 0
0.0129 -0.2306 -1.4806 0.206 -0.936 0.285 87 64 30 0 0
0.0143 -0.2371 -1.4977 0.388 -0.805 0.449 71 47 19 0 0
0.0455 -0.3541 -1.6144 0.143 -0.916 0.375 77 54 24 0 0
0.0477 -0.3630 -1.6296 0.200 -0.432 0.879 94 70 41 0 0
0.0409 -0.3644 -1.9177 0.239 -0.834 0.497 81 58 27 0 0
0.0544 -0.4258 -2.0927 -0.022 -0.898 0.439 81 58 26 0 0
0.0620 -0.4578 -2.1589 0.217 -0.885 0.411 90 66 28 0 0
0.0715 -0.4931 -2.1921 0.362 -0.821 0.443 101 78 36 0 0
0.0726 -0.4983 -2.2052 0.237 -0.882 0.408 106 84 36 0 0
0.0828 -0.5371 -2.2520 -0.177 -0.876 0.449 95 80 41 0 0
0.0828 -0.5377 -2.2574 -0.177 -0.779 0.602 87 74 40 0 0
-0.0627 0.0621 -0.9058 0.824 -0.350 0.445 114 97 68 0 0
-0.0503 0.0179 -0.9252 0.265 -0.908 0.326 131 108 75 0 0
-0.0498 0.0157 -0.9293 0.384 -0.780 0.494 133 108 73 0 0
-0.0490 0.0125 -0.9377 -0.183 -0.908 0.377 61 41 19 0 0
-0.0487 0.0110 -0.9420 -0.018 -0.894 0.447 61 40 14 0 0
-0.0729 0.0831 -1.0646 0.852 -0.230 -0.471 184 185 187 0 0
-0.0379 -0.0498 -1.2129 -0.233 -0.477 0.848 92 75 48 0 0
-0.0323 -0.0788 -1.3272 0.123 -0.796 0.593 65 45 22 0 0
-0.0191 -0.1286 -1.3802 0.307 -0.644 0.701 176 143 101 0 0
-0.0169 -0.1363 -1.3815 0.224 -0.716 0.661 150 120 79 0 0
0.0097 -0.2377 -1.4979 -0.032 -0.874 0.486 71 47 19 0 0
0.0088 -0.2355 -1.5096 -0.317 -0.941 -0.121 71 47 19 0 0
0.0146 -0.2603 -1.5685 0.034 -0.909 0.414 95 70 36 0 0
0.0307 -0.3175 -1.5912 -0.242 -0.341 0.908 146 118 73 0 0
0.0264 -0.3102 -1.6756 0.071 -0.945 -0.320 110 86 46 0 0
0.0282 -0.3282 -1.8108 0.169 -0.895 0.412 74 51 20 0 0
0.0307 -0.3409 -1.8573 0.125 -0.991 0.052 80 55 25 0 0
0.0323 -0.3468 -1.8642 -0.244 -0.965 0.094 78 53 23 0 0
0.0323 -0.3473 -1.8694 -0.244 -0.965 0.094 77 52 22 0 0
0.0323 -0.3479 -1.8746 -0.154 -0.984 0.088 69 44 14 0 0
0.0337 -0.3562 -1.9135 0.174 -0.801 0.573 80 57 26 0 0
0.0504 -0.4286 -2.0913 0.229 -0.931 0.285 79 56 25 0 0
0.0510 -0.4316 -2.1004 0.223 -0.873 0.435 77 53 24 0 0
0.0515 -0.4335 -2.1046 0.223 -0.873 0.435 71 48 22 0 0
0.0519 -0.4355 -2.1088 0.223 -0.873 0.435 64 42 18 0 0
0.0569 -0.4566 -2.1551 0.127 -0.876 0.465 88 64 28 0 0
0.0593 -0.4656 -2.1648 0.314 -0.815 0.487 96 72 31 0 0
0.0674 -0.4967 -2.2017 0.027 -0.952 0.304 101 78 33 0 0
0.0681 -0.4994 -2.2052 0.237 -0.882 0.408 106 84 38 0 0
0.0721 -0.5139 -2.2155 0.193 -0.740 0.645 114 92 43 0 0
0.0729 -0.5170 -2.2185 0.090 -0.718 0.691 113 91 42 0 0
-0.0697 0.0706 -0.8944 -0.085 -0.527 0.846 180 179 181 0 0
-0.0542 0.0150 -0.9246 0.055 -0.767 0.639 131 107 73 0 0
-0.0534 0.0108 -0.9422 -0.059 -0.969 0.240 65 45 17 0 0
-0.0777 0.0815 -1.0744 0.902 -0.189 -0.388 184 185 187 0 0
-0.0640 0.0338 -1.0867 -0.678 -0.732 0.065 185 186 188 0 0
-0.0647 0.0306 -1.1508 0.641 -0.732 0.233 11 9 7 0 0
-0.0645 0.0295 -1.1553 0.534 -0.675 0.509 10 9 7 0 0
-0.0231 -0.1319 -1.3843 -0.116 -0.841 0.529 154 123 78 0 0
-0.0050 -0.1986 -1.4424 -0.269 -0.764 0.586 118 92 50 0 0
0.0053 -0.2389 -1.4979 0.212 -0.800 0.561 70 46 19 0 0
0.0060 -0.2422 -1.5116 -0.511 -0.756 0.410 70 46 17 0 0
0.0073 -0.2482 -1.5291 -0.418 -0.908 -0.011 76 53 21 0 0
0.0074 -0.2492 -1.5337 -0.238 -0.971 0.004 70 46 16 0 0
0.0227 -0.3060 -1.5886 0.217 -0.273 0.937 162 132 89 0 0
0.0242 -0.3114 -1.5905 0.124 -0.288 0.950 140 112 68 0 0
0.0273 -0.3221 -1.5942 -0.193 -0.504 0.842 150 125 79 0 0
0.0217 -0.3105 -1.6761 0.084 -0.949 -0.305 113 89 50 0 0
0.0209 -0.3084 -1.6829 0.084 -0.949 -0.305 117 96 55 0 0
0.0220 -0.3213 -1.7832 -0.095 -0.963 0.254 89 68 39 0 0
0.0225 -0.3232 -1.7874 0.173 -0.972 0.156 71 47 21 0 0
0.0226 -0.3240 -1.7924 0.173 -0.972 0.156 65 41 15 0 0
0.0228 -0.3260 -1.8076 0.507 -0.856 0.102 75 52 21 0 0
0.0302 -0.3614 -1.9218 0.176 -0.843 0.508 83 60 29 0 0
0.0329 -0.3761 -1.9846 0.173 -0.911 0.374 80 55 25 0 0
0.0331 -0.3774 -1.9893 0.048 -0.873 0.485 80 55 25 0 0
0.0407 -0.4081 -2.0453 0.032 -0.853 0.520 80 57 26 0 0
0.0476 -0.4372 -2.1083 0.246 -0.805 0.539 77 53 23 0 0
0.0532 -0.4605 -2.1527 0.347 -0.791 0.504 92 68 32 0 0
0.0637 -0.5006 -2.2051 0.237 -0.882 0.408 110 87 42 0 0
0.0676 -0.5149 -2.2156 0.090 -0.718 0.691 115 93 44 0 0
0.0683 -0.5176 -2.2190 0.060 -0.674 0.736 117 95 47 0 0
-0.0803 0.0726 -1.0866 0.954 -0.282 -0.101 185 187 188 0 0
-0.0673 0.0233 -1.1432 0.200 -0.894 0.402 12 8 7 0 0
-0.0667 0.0197 -1.1620 0.643 -0.736 0.210 39 29 22 0 0
-0.0473 -0.0509 -1.2133 0.048 -0.359 0.932 98 82 57 0 0
-0.0451 -0.0660 -1.2982 -0.153 -0.961 0.229 85 66 36 0 0
-0.0442 -0.0695 -1.3017 -0.239 -0.892 0.382 91 71 36 0 0
-0.0451 -0.0667 -1.3082 0.045 -0.918 0.394 91 70 36 0 0
-0.0286 -0.1294 -1.3809 0.030 -0.947 0.320 167 138 94 0 0
-0.0276 -0.1330 -1.3843 0.440 -0.866 0.238 151 119 81 0 0
-0.0266 -0.1366 -1.3876 0.305 -0.799 0.519 133 100 67 0 0
-0.0257 -0.1400 -1.3910 0.226 -0.642 0.732 156 125 84 0 0
-0.0210 -0.1573 -1.4029 0.098 -0.776 0.623 157 129 87 0 0
-0.0196 -0.1620 -1.4056 0.040 -0.952 0.302 144 117 73 0 0
-0.0193 -0.1635 -1.4100 -0.012 -0.940 0.341 138 110 69 0 0
-0.0190 -0.1651 -1.4143 -0.017 -0.923 0.384 135 108 64 0 0
-0.0182 -0.1679 -1.4180 -0.107 -0.903 0.416 140 113 70 0 0
0.0023 -0.2480 -1.5350 -0.196 -0.973 0.123 69 46 15 0 0
0.0039 -0.2540 -1.5420 0.411 -0.840 0.354 74 51 20 0 0
0.0184 -0.3074 -1.5884 0.022 -0.347 0.938 151 123 78 0 0
0.0230 -0.3236 -1.5940 0.406 -0.577 0.709 151 127 82 0 0
0.0239 -0.3268 -1.5972 0.406 -0.577 0.709 134 110 67 0 0
0.0264 -0.3360 -1.6019 0.109 -0.957 0.270 182 158 121 0 0
0.0162 -0.3086 -1.6835 0.084 -0.949 -0.305 118 99 58 0 0
0.0179 -0.3244 -1.7929 0.077 -0.966 0.246 64 40 13 0 0
0.0226 -0.3484 -1.8816 0.141 -0.959 0.244 77 54 23 0 0
0.0262 -0.3631 -1.9100 -0.247 -0.784 0.569 80 57 26 0 0
0.0249 -0.3595 -1.9185 0.264 -0.841 0.472 80 57 26 0 0
0.0254 -0.3616 -1.9225 0.495 -0.707 0.505 81 58 27 0 0
0.0284 -0.3731 -1.9363 0.229 -0.885 0.404 83 60 29 0 0
0.0325 -0.3952 -2.0279 0.239 -0.936 0.259 85 62 31 0 0
0.0327 -0.3964 -2.0327 0.239 -0.936 0.259 82 59 28 0 0
0.0322 -0.3955 -2.0393 0.403 -0.684 0.609 80 57 26 0 0
0.0344 -0.4038 -2.0499 0.403 -0.863 0.303 77 54 23 0 0
0.0434 -0.4399 -2.1129 0.152 -0.853 0.500 85 61 29 0 0
0.0439 -0.4421 -2.1168 0.152 -0.853 0.500 88 62 32 0 0
0.0480 -0.4592 -2.1549 0.275 -0.800 0.533 92 68 32 0 0
0.0592 -0.5018 -2.2051 0.237 -0.882 0.408 110 87 43 0 0
0.0595 -0.5034 -2.2096 0.381 -0.826 0.416 114 91 47 0 0
0.0684 -0.5377 -2.2548 0.046 -0.985 0.168 89 71 32 0 0
-0.0628 0.0078 -0.9706 0.152 -0.953 0.262 73 49 25 0 0
-0.0722 0.0240 -1.1338 0.117 -0.993 0.029 13 12 11 0 0
-0.0722 0.0236 -1.1387 0.162 -0.982 0.095 9 8 6 0 0
-0.0719 0.0223 -1.1432 0.200 -0.894 0.402 12 8 6 0 0
-0.0713 0.0197 -1.1472 0.289 -0.801 0.524 33 28 23 0 0
-0.0596 -0.0244 -1.1998 0.429 -0.676 0.599 68 53 30 0 0
-0.0582 -0.0294 -1.2028 0.470 -0.700 0.537 113 101 81 0 0
-0.0502 -0.0644 -1.2892 -0.267 -0.960 -0.082 41 29 19 0 0
-0.0509 -0.0626 -1.2952 -0.137 -0.965 0.226 61 46 28 0 0
-0.0478 -0.0759 -1.3250 -0.317 -0.881 0.352 66 43 18 0 0
-0.0471 -0.0791 -1.3338 -0.252 -0.891 0.377 111 89 60 0 0
-0.0466 -0.0811 -1.3380 -0.252 -0.891 0.377 108 89 61 0 0
-0.0461 -0.0830 -1.3423 -0.252 -0.891 0.377 90 73 48 0 0
-0.0452 -0.0874 -1.3557 0.007 -0.914 0.407 112 90 65 0 0
-0.0337 -0.1280 -1.3770 0.255 -0.891 0.375 146 119 78 0 0
-0.0336 -0.1291 -1.3816 0.169 -0.983 0.071 138 114 78 0 0
-0.0336 -0.1294 -1.3866 0.145 -0.978 0.147 125 98 65 0 0
-0.0327 -0.1328 -1.3901 -0.035 -0.846 0.532 132 101 63 0 0
-0.0172 -0.1890 -1.4333 -0.135 -0.779 0.612 162 132 93 0 0
-0.0129 -0.2054 -1.4554 -0.025 -0.891 0.453 110 82 42 0 0
0.0265 -0.3525 -1.6077 0.117 -0.891 0.439 75 52 23 0 0
0.0129 -0.3241 -1.7939 -0.084 -0.952 0.293 73 49 21 0 0
0.0135 -0.3299 -1.8343 0.638 -0.634 0.438 83 60 29 0 0
0.0180 -0.3492 -1.8818 0.141 -0.959 0.244 79 56 25 0 0
0.0182 -0.3503 -1.8866 0.141 -0.959 0.244 79 56 25 0 0
0.0190 -0.3535 -1.8898 0.376 -0.864 0.334 80 57 26 0 0
0.0217 -0.3644 -1.9099 -0.366 -0.873 0.322 80 57 26 0 0
0.0224 -0.3670 -1.9135 -0.132 -0.969 0.209 80 57 26 0 0
0.0209 -0.3629 -1.9224 0.264 -0.841 0.472 81 58 27 0 0
0.0214 -0.3650 -1.9264 0.264 -0.841 0.472 80 57 26 0 0
0.0219 -0.3670 -1.9306 0.241 -0.883 0.402 80 57 26 0 0
0.0223 -0.3687 -1.9350 0.242 -0.891 0.384 81 58 27 0 0
0.0279 -0.3963 -2.0279 0.239 -0.936 0.259 82 59 28 0 0
0.0282 -0.3976 -2.0327 0.202 -0.928 0.312 81 58 27 0 0
0.0285 -0.3990 -2.0373 0.202 -0.928 0.312 80 57 26 0 0
0.0307 -0.4079 -2.0533 0.575 -0.602 0.554 77 54 23 0 0
0.0361 -0.4298 -2.0932 0.364 -0.906 0.214 77 53 22 0 0
0.0393 -0.4429 -2.1172 0.087 -0.878 0.471 84 58 28 0 0
0.0426 -0.4572 -2.1518 0.270 -0.909 0.317 89 65 29 0 0
0.0580 -0.5157 -2.2230 0.083 -0.874 0.478 117 95 48 0 0
0.0640 -0.5384 -2.2492 0.134 -0.899 0.417 94 77 31 0 0
-0.0824 0.0643 -0.8981 -0.062 -0.520 0.852 175 169 165 0 0
-0.0689 0.0166 -0.9213 0.081 -0.651 0.755 140 115 86 0 0
-0.0674 0.0109 -0.9289 0.188 -0.735 0.652 140 109 70 0 0
-0.0684 0.0113 -0.9625 0.252 -0.909 0.332 73 51 27 0 0
-0.0675 0.0080 -0.9661 0.251 -0.918 0.308 78 56 32 0 0
-0.0673 0.0066 -0.9705 0.251 -0.918 0.308 76 52 28 0 0
-0.0675 0.0070 -0.9754 0.330 -0.844 0.424 74 50 26 0 0
-0.0769 0.0230 -1.1389 0.170 -0.881 0.442 7 6 4 0 0
-0.0763 0.0207 -1.1430 0.289 -0.801 0.524 17 14 10 0 0
-0.0757 0.0182 -1.1470 0.289 -0.801 0.524 27 21 14 0 0
-0.0641 -0.0258 -1.1997 0.248 -0.729 0.638 81 66 41 0 0
-0.0545 -0.0650 -1.2740 -0.514 -0.845 -0.149 51 37 22 0 0
-0.0564 -0.0596 -1.2867 -0.400 -0.906 0.140 63 49 36 0 0
-0.0558 -0.0625 -1.2957 -0.285 -0.919 0.274 61 46 24 0 0
-0.0524 -0.0774 -1.3300 -0.326 -0.732 0.598 96 72 42 0 0
-0.0519 -0.0799 -1.3391 -0.282 -0.870 0.404 120 97 66 0 0
-0.0514 -0.0820 -1.3433 -0.282 -0.870 0.404 94 75 48 0 0
-0.0456 -0.1032 -1.3640 0.214 -0.808 0.549 156 124 91 0 0
-0.0222 -0.1885 -1.4341 -0.104 -0.639 0.762 147 118 79 0 0
-0.0204 -0.1950 -1.4409 0.102 -0.837 0.538 138 109 66 0 0
-0.0197 -0.1977 -1.4447 0.177 -0.744 0.644 114 85 45 0 0
-0.0176 -0.2059 -1.4558 0.147 -0.864 0.481 113 85 45 0 0
-0.0122 -0.2306 -1.5255 -0.732 -0.616 0.290 68 47 17 0 0
-0.0041 -0.2612 -1.5601 0.299 -0.883 0.362 85 62 28 0 0
-0.0034 -0.2636 -1.5639 0.239 -0.799 0.552 84 59 25 0 0
0.0037 -0.2995 -1.6909 0.074 -0.799 0.597 106 83 43 0 0
0.0038 -0.3002 -1.6959 0.157 -0.872 0.464 96 73 38 0 0
0.0042 -0.3026 -1.7052 0.257 -0.927 0.275 76 57 24 0 0
0.0062 -0.3158 -1.7728 0.158 -0.908 0.388 86 63 32 0 0
0.0066 -0.3176 -1.7771 0.158 -0.908 0.388 76 53 22 0 0
0.0070 -0.3191 -1.7816 0.057 -0.886 0.460 87 64 33 0 0
0.0075 -0.3212 -1.7856 0.082 -0.959 0.270 80 57 26 0 0
0.0077 -0.3230 -1.7955 0.320 -0.921 0.223 75 51 21 0 0
0.0133 -0.3499 -1.8821 0.141 -0.959 0.244 80 57 26 0 0
0.0168 -0.3644 -1.9107 -0.255 -0.830 0.497 80 57 26 0 0
0.0175 -0.3670 -1.9144 -0.012 -0.953 0.303 80 57 26 0 0
0.0167 -0.3651 -1.9216 0.275 -0.896 0.348 80 57 26 0 0
0.0171 -0.3668 -1.9259 0.280 -0.917 0.283 80 57 26 0 0
0.0174 -0.3683 -1.9305 0.275 -0.896 0.348 81 58 27 0 0
0.0178 -0.3699 -1.9349 0.275 -0.896 0.348 81 58 27 0 0
0.0185 -0.3725 -1.9386 0.211 -0.838 0.503 82 59 28 0 0
0.0245 -0.4018 -2.0360 0.542 -0.625 0.561 80 57 26 0 0
0.0316 -0.4312 -2.0930 0.357 -0.828 0.433 78 54 23 0 0
0.0360 -0.4494 -2.1301 0.242 -0.911 0.333 79 54 24 0 0
0.0481 -0.4950 -2.1838 0.241 -0.842 0.482 107 83 39 0 0
0.0529 -0.5135 -2.2083 0.378 -0.895 0.236 113 90 43 0 0
0.0534 -0.5156 -2.2122 0.356 -0.926 0.122 113 91 42 0 0
0.0534 -0.5162 -2.2176 0.278 -0.949 0.145 114 92 44 0 0
0.0538 -0.5180 -2.2219 0.317 -0.815 0.486 114 92 45 0 0
0.0594 -0.5392 -2.2495 0.134 -0.899 0.417 93 75 29 0 0
0.0598 -0.5408 -2.2540 0.309 -0.939 0.151 87 69 30 0 0
0.0606 -0.5440 -2.2569 0.609 -0.644 0.463 81 67 33 0 0
-0.0717 0.0094 -0.9288 0.252 -0.681 0.688 160 131 93 0 0
-0.0734 0.0123 -0.9584 0.271 -0.920 0.283 73 51 27 0 0
-0.0731 0.0103 -0.9673 0.274 -0.934 0.230 80 57 33 0 0
-0.0815 0.0220 -1.1389 0.192 -0.976 0.104 39 38 34 0 0
-0.0808 0.0192 -1.1428 0.329 -0.758 0.564 21 17 11 0 0
-0.0801 0.0165 -1.1468 0.329 -0.758 0.564 28 21 13 0 0
-0.0620 -0.0582 -1.2930 -0.400 -0.906 0.140 65 48 31 0 0
-0.0622 -0.0580 -1.2983 -0.270 -0.883 0.384 83 62 39 0 0
-0.0585 -0.0740 -1.3373 0.222 -0.894 0.389 128 103 72 0 0
-0.0578 -0.0766 -1.3412 0.134 -0.848 0.512 105 82 50 0 0
-0.0575 -0.0781 -1.3457 0.131 -0.854 0.503 102 83 55 0 0
-0.0563 -0.0830 -1.3537 -0.102 -0.966 0.238 84 63 38 0 0
-0.0489 -0.1085 -1.3619 0.061 -0.696 0.715 164 132 95 0 0
-0.0480 -0.1119 -1.3654 0.027 -0.760 0.650 147 117 80 0 0
-0.0470 -0.1155 -1.3688 0.061 -0.696 0.715 140 111 74 0 0
-0.0261 -0.1917 -1.4381 -0.397 -0.829 0.394 155 127 82 0 0
-0.0161 -0.2312 -1.4995 0.570 -0.777 0.267 67 43 15 0 0
-0.0132 -0.2455 -1.5490 0.349 -0.892 0.287 84 61 29 0 0
-0.0118 -0.2509 -1.5563 0.160 -0.983 0.086 78 55 24 0 0
0.0203 -0.3648 -1.6274 0.519 -0.795 0.314 76 52 25 0 0
-0.0016 -0.3014 -1.7286 0.043 -0.920 0.391 87 66 30 0 0
-0.0008 -0.3047 -1.7318 -0.152 -0.944 0.294 103 81 42 0 0
0.0005 -0.3122 -1.7652 0.237 -0.776 0.584 77 54 23 0 0
0.0017 -0.3169 -1.7729 0.284 -0.839 0.464 86 63 32 0 0
0.0022 -0.3190 -1.7770 0.284 -0.839 0.464 73 50 19 0 0
0.0027 -0.3211 -1.7810 0.284 -0.839 0.464 85 62 31 0 0
0.0025 -0.3208 -1.7867 0.057 -0.985 0.165 79 56 25 0 0
0.0027 -0.3230 -1.8018 -0.002 -0.716 0.699 82 59 28 0 0
0.0043 -0.3290 -1.8087 0.455 -0.782 0.426 76 53 22 0 0
0.0130 -0.3696 -1.9303 0.275 -0.896 0.348 82 57 27 0 0
0.0133 -0.3711 -1.9349 0.242 -0.891 0.384 81 57 27 0 0
0.0137 -0.3730 -1.9391 0.087 -0.859 0.504 80 57 26 0 0
0.0178 -0.3878 -1.9503 0.331 -0.927 0.177 84 61 30 0 0
0.0361 -0.4679 -2.1502 0.380 -0.717 0.585 93 69 33 0 0
0.0384 -0.4767 -2.1600 0.183 -0.873 0.452 106 83 41 0 0
0.0428 -0.4955 -2.2023 0.063 -0.901 0.429 105 82 39 0 0
0.0432 -0.4970 -2.2069 0.171 -0.715 0.678 107 84 40 0 0
0.0439 -0.4999 -2.2102 0.171 -0.715 0.678 108 85 39 0 0
0.0561 -0.5446 -2.2514 0.256 -0.844 0.472 87 70 29 0 0
-0.0905 0.0595 -0.8925 -0.253 -0.966 -0.060 180 179 180 0 0
-0.0862 0.0236 -1.1148 0.262 -0.859 0.440 9 7 5 0 0
-0.0853 0.0193 -1.1281 0.722 -0.679 0.133 14 13 10 0 0
-0.0673 -0.0568 -1.2942 -0.354 -0.882 0.311 99 77 52 0 0
-0.0629 -0.0757 -1.3370 -0.189 -0.886 0.423 74 54 28 0 0
-0.0625 -0.0775 -1.3413 -0.185 -0.964 0.191 94 74 46 0 0
-0.0207 -0.2317 -1.4999 0.573 -0.794 0.206 69 45 17 0 0
0.0004 -0.3185 -1.6691 0.119 -0.760 -0.639 100 77 42 0 0
-0.0064 -0.3018 -1.7290 0.043 -0.920 0.391 85 65 27 0 0
-0.0063 -0.3025 -1.7341 0.111 -0.814 0.570 103 81 41 0 0
-0.0055 -0.3054 -1.7376 -0.110 -0.942 0.317 90 67 33 0 0
0.0001 -0.3304 -1.8029 0.597 -0.382 0.705 80 57 26 0 0
0.0001 -0.3310 -1.8081 0.436 -0.738 0.515 75 52 21 0 0
0.0005 -0.3327 -1.8124 0.345 -0.866 0.361 70 47 16 0 0
0.0215 -0.4256 -2.0471 -0.283 -0.817 0.501 80 57 26 0 0
0.0180 -0.4164 -2.0724 0.303 -0.923 0.238 81 59 28 0 0
0.0182 -0.4176 -2.0773 0.303 -0.923 0.238 92 70 36 0 0
0.0212 -0.4294 -2.0965 0.114 -0.908 0.404 79 54 23 0 0
0.0273 -0.4523 -2.1237 0.274 -0.882 0.383 80 55 24 0 0
0.0311 -0.4671 -2.1460 0.380 -0.717 0.585 92 68 32 0 0
0.0334 -0.4757 -2.1561 0.183 -0.873 0.452 99 76 34 0 0
0.0339 -0.4777 -2.1602 0.183 -0.873 0.452 103 80 38 0 0
0.0368 -0.4887 -2.1739 0.199 -0.777 0.597 91 68 27 0 0
-0.0956 0.0604 -0.8931 -0.352 -0.928 -0.118 179 179 180 0 0
-0.0839 0.0183 -0.9275 0.188 -0.799 0.571 182 152 106 0 0
-0.0798 0.0042 -0.9324 0.197 -0.734 0.650 90 68 39 0 0
-0.0796 0.0031 -0.9368 0.128 -0.884 0.451 72 51 25 0 0
-0.0822 0.0098 -0.9582 0.271 -0.920 0.283 69 47 23 0 0
-0.0803 0.0016 -0.9746 -0.013 -0.994 0.108 76 54 30 0 0
-0.0905 0.0214 -1.1143 0.605 -0.727 0.324 14 10 5 0 0
-0.0792 -0.0226 -1.1821 0.263 -0.826 0.499 64 47 26 0 0
-0.0782 -0.0271 -1.1954 0.291 -0.820 0.492 56 38 25 0 0
-0.0393 -0.1786 -1.4255 -0.211 -0.883 0.418 146 117 77 0 0
-0.0033 -0.3140 -1.5876 -0.188 -0.357 0.915 163 135 89 0 0
-0.0017 -0.3195 -1.5895 -0.180 -0.332 0.926 166 139 91 0 0
-0.0115 -0.3014 -1.7356 0.315 -0.901 0.299 102 80 40 0 0
-0.0085 -0.3155 -1.7754 0.078 -0.828 0.555 80 57 26 0 0
-0.0003 -0.3484 -1.8352 0.168 -0.796 0.582 77 54 23 0 0
0.0334 -0.4967 -2.2034 0.063 -0.901 0.429 106 83 41 0 0
0.0339 -0.4986 -2.2076 0.063 -0.901 0.429 107 84 41 0 0
0.0475 -0.5479 -2.2504 -0.163 -0.885 0.436 82 66 25 0 0
-0.0875 0.0142 -0.9312 0.048 -0.719 0.693 167 138 92 0 0
-0.0851 0.0016 -0.9749 -0.057 -0.984 0.170 75 53 29 0 0
-0.0848 -0.0193 -1.1738 0.263 -0.826 0.499 60 40 18 0 0
-0.0829 -0.0278 -1.1955 0.074 -0.900 0.430 66 48 34 0 0
-0.0760 -0.0520 -1.2105 0.203 -0.402 0.893 129 113 91 0 0
-0.0441 -0.1788 -1.4260 -0.188 -0.860 0.474 158 128 88 0 0
-0.0390 -0.1983 -1.4519 0.124 -0.864 0.488 112 87 45 0 0
-0.0255 -0.2521 -1.5470 0.212 -0.903 0.375 70 47 17 0 0
-0.0209 -0.2714 -1.5883 -0.304 -0.638 0.708 149 120 76 0 0
-0.0147 -0.2923 -1.5913 0.165 -0.319 0.933 126 103 61 0 0
-0.0081 -0.3137 -1.5885 -0.188 -0.357 0.915 161 134 87 0 0
0.0090 -0.4189 -2.0723 0.153 -0.717 0.680 86 62 31 0 0
0.0120 -0.4301 -2.0862 0.295 -0.857 0.423 80 55 23 0 0
0.0181 -0.4548 -2.1295 0.270 -0.894 0.357 81 57 24 0 0
0.0185 -0.4564 -2.1340 0.270 -0.894 0.357 80 55 23 0 0
0.0304 -0.5016 -2.1939 0.221 -0.866 0.449 107 84 42 0 0
0.0289 -0.4982 -2.2090 0.430 -0.884 0.184 106 83 40 0 0
0.0394 -0.5354 -2.2337 0.557 -0.440 0.704 99 78 31 0 0
0.0419 -0.5457 -2.2537 -0.168 -0.928 0.333 84 68 28 0 0
-0.0938 0.0199 -0.9239 0.187 -0.779 0.598 133 108 66 0 0
-0.0932 0.0175 -0.9279 0.112 -0.727 0.677 156 127 85 0 0
-0.0922 0.0136 -0.9314 0.111 -0.662 0.741 153 123 80 0 0
-0.0892 -0.0199 -1.1640 0.490 -0.820 0.296 59 37 13 0 0
-0.0876 -0.0277 -1.1859 0.071 -0.903 0.424 81 63 38 0 0
-0.0801 -0.0545 -1.2098 0.421 -0.315 0.851 118 98 74 0 0
-0.0418 -0.2087 -1.4885 0.043 -0.552 0.833 82 58 23 0 0
-0.0160 -0.3034 -1.5903 -0.188 -0.239 0.953 131 104 62 0 0
