ply
format ascii 1.0
element vertex 668
property float x
property float y
property float z
property uchar diffuse_red
property uchar diffuse_green
property uchar diffuse_blue
end_header
-0.29500993144175425 -0.3112769499511035 -2.0785551288548256 98 80 56
-0.30181018957689953 -0.3073012834538998 -2.079383849070214 106 88 63
-0.3060032998360299 -0.30496870974370266 -2.082337428262781 111 91 66
-0.3120447559135403 -0.30146967299224 -2.0837519667055844 112 95 65
-0.3152336473289977 -0.29976939259843904 -2.0875118387462313 115 96 68
-0.3192969449856059 -0.29751703759811643 -2.0905384901319777 117 97 70
-0.323152906763877 -0.2953950443828305 -2.093727820233418 115 94 67
-0.3214032361824175 -0.2968113938632265 -2.1015993801133517 114 94 65
-0.3178900258041807 -0.2993422111930358 -2.1109706959996197 113 92 62
-0.320576505622466 -0.29795904867059475 -2.1151500051959644 110 91 58
-0.3263369825125988 -0.2946339860837729 -2.1167297132804483 110 91 58
-0.3336490171351294 -0.29032773516050203 -2.116975916649684 110 91 58
-0.3397831928769691 -0.2867644727179276 -2.118195878874422 110 91 58
-0.34156303068094973 -0.285952302079369 -2.123105941911233 111 91 58
-0.3413913534079084 -0.28637387545143433 -2.129685592271743 112 92 59
-0.3620810441258865 -0.27360553108342917 -2.118388829922524 114 94 61
-0.36623445619444894 -0.2712903244554644 -2.121217524557959 115 94 63
-0.3709498772869736 -0.26861908376041427 -2.1235503374106535 115 94 64
-0.369534658659868 -0.2698258311726826 -2.131173528066397 115 94 65
-0.37047735110815216 -0.2695413677910414 -2.1367682663676746 114 93 63
-0.36760214161188143 -0.2716736127147995 -2.14569178188783 113 92 61
-0.3813778700153516 -0.2632662285326633 -2.140103971312958 112 91 60
-0.38440819020000283 -0.2616595985740797 -2.1438639216702713 113 90 59
-0.3865752985199967 -0.26059938413492123 -2.1483766540843394 114 91 59
-0.3955909619966259 -0.2552010398521392 -2.1468558189730698 111 88 56
-0.39614898300435153 -0.2551593217441789 -2.1527705480471195 110 87 55
-0.39521748570001314 -0.2560618611822857 -2.1600127715832267 111 89 56
-0.39964321557410487 -0.2535696618755148 -2.1625091553894653 113 93 60
-0.40212749035074435 -0.2523076140002185 -2.1667233866724445 114 94 61
-0.40383602590137246 -0.251537316992476 -2.171628620869373 119 98 66
-0.405365432064248 -0.25088069987045114 -2.176696037877614 120 97 64
-0.41142439920536233 -0.2473509715240322 -2.1776923922068 120 97 63
-0.426921371809601 -0.23783217306701623 -2.1701542853844953 121 98 64
-0.43435380686289904 -0.2334275407170681 -2.1698399594874416 122 99 65
-0.4371858914094685 -0.23194142061157336 -2.1736705755165833 122 99 65
-0.4293426446768881 -0.23723228493040435 -2.1872109343128927 120 98 63
-0.4373181403984252 -0.2324811635653874 -2.186366919061369 120 98 61
-0.44629080505324914 -0.22709517475570312 -2.184578158082215 124 100 64
-0.4555938191796196 -0.22149751340624707 -2.1824486941352945 125 101 65
-0.45169811915038893 -0.22428398613998066 -2.1924317740787256 125 101 66
-0.4558228498055591 -0.22197501714460377 -2.1950405775156 128 102 66
-0.4485911398625625 -0.2268839852078025 -2.2081546590484424 132 107 68
-0.446525216886995 -0.22851116231987217 -2.2165206383468936 134 109 68
-0.44431074155788663 -0.23023386880010122 -2.2250468936693286 133 109 68
-0.47585841982276844 -0.2104841103970419 -2.2020561535410623 130 107 66
-0.47410096735937723 -0.21191384181526432 -2.2101082653004056 126 102 64
-0.4747398827987389 -0.2118197755071063 -2.2159289853808497 122 99 62
-0.4753793946788544 -0.21172568258320945 -2.2217563967881953 126 104 67
-0.47977065337520064 -0.20924375351657087 -2.2240454938956367 122 101 64
-0.4832694597797429 -0.20732939500783815 -2.227167241737708 118 99 62
-0.4879593960737595 -0.20465609487824635 -2.2291484568984075 118 101 63
-0.48933091420224895 -0.20409574729976132 -2.2342780644732203 118 102 64
-0.48847419452580965 -0.2049551400367493 -2.241541132329787 119 103 65
-0.4916449350069906 -0.2032489082817015 -2.2449584319203204 104 90 57
-0.49888515665152666 -0.1989486531471816 -2.24445633981827 86 76 50
-0.5010437686216545 -0.19788645238137056 -2.2488251446817307 78 68 46
-0.5023246726843613 -0.1973838466618876 -2.254041642578942 81 74 54
-0.5049195976323971 -0.19604339842904928 -2.257987616984666 103 100 81
-0.5057375974536847 -0.19583626802028223 -2.263658262096246 129 126 115
-0.5150758247156074 -0.1901933069595972 -2.261025254001776 152 150 146
-0.5182569136749462 -0.18847760867869945 -2.2643736087391613 171 170 170
-0.5266294576413015 -0.18344788147129992 -2.2626228910606594 181 182 182
-0.5275681693701167 -0.18316242631891408 -2.268148939979973 187 188 190
-0.5281887129417656 -0.18308042013021775 -2.2739945317714665 194 195 197
-0.5194739187980226 -0.18896131884224934 -2.2890828566481987 198 199 201
-0.521848530089522 -0.18776074088517028 -2.2932294084093523 200 200 202
-0.4967086518346222 -0.20414125153985507 -2.3247476386223704 202 202 204
-0.6198409176487854 -0.12576599055783935 -2.208486243112381 204 204 206
-0.6250250120767704 -0.12275631356901578 -2.209552098131678 206 206 208
-0.6208096698439369 -0.1257556471049803 -2.2200302400245135 206 206 208
-0.6267811985798787 -0.12224186134445808 -2.220293073216594 207 207 209
-0.6338972224395661 -0.11799485402085735 -2.219377957270495 207 207 209
-0.3112057131797321 -0.3247588452321804 -2.5521483622359984 207 207 207
-0.34589432546182297 -0.302909679920184 -2.5241336788089392 208 208 208
-0.3201295505754874 -0.3197466060687393 -2.557447380996319 209 209 209
-1.6937138603988395 0.5366463683421929 -1.6285705131527755 216 216 216
-1.6948750374614012 0.5372126489876397 -1.6310255499781359 215 215 215
-1.6989670907663292 0.5397144021662517 -1.6292761869599914 216 216 216
0.17648191655055467 -0.5491101834490869 -1.3743702557586683 190 191 193
0.1701943918101806 -0.5455546130259521 -1.3774298863886347 191 192 194
0.15871278484501417 -0.5388251334421125 -1.378076466305587 191 192 194
0.15863538898555352 -0.5390619273762897 -1.3839708110504763 192 193 195
0.16185948299263175 -0.5413166560533559 -1.3914097630232805 193 194 196
0.08570161527474829 -0.49505444461372583 -1.3617693790110792 193 194 196
-0.24552536977796546 -0.2931037346592377 -1.217276371198866 194 195 197
-0.24014317529922902 -0.2966423748898688 -1.2249910036153324 195 196 198
0.05135333365816541 -0.4754402431057636 -1.3745096710247662 197 197 199
0.02428338621779469 -0.45915672835333154 -1.3673175797811679 198 198 200
0.03627170738739771 -0.4667668206404397 -1.3788255290640874 198 198 200
0.007531428390427308 -0.4494552698602514 -1.3707038228389739 199 199 201
-0.0029855979754093154 -0.4432922681110246 -1.3713196283079294 200 200 202
-0.6002272066312285 -0.07796158598911475 -1.0859496765384085 200 200 202
-0.5950081892003719 -0.08137305831936899 -1.0930153486425047 199 200 202
-0.7682549427944553 0.015608119433487569 -1.19796953814394 204 205 207
-0.7092476134644798 -0.020997855105108088 -1.2368392316866104 205 206 208
-0.7001244414991561 -0.026845365295999103 -1.246769843855608 206 207 209
-0.9797806358389003 0.14546792303187392 -1.0870833592739326 208 209 211
-0.9816292583095351 0.14641610254342033 -1.090012166833918 210 212 212
-0.9780710704910645 0.14402751508732517 -1.0961389625941917 213 215 214
-0.9742672545273863 0.14148628366524305 -1.1024330984180573 213 215 214
-0.13982288199437298 -0.3924429919337092 -1.9917531870938878 217 217 217
-0.13944612861967465 -0.39298788180805916 -1.9984969225397808 217 217 217
-0.1472077102811188 -0.3884511045536945 -1.9991920239937402 216 216 216
-0.15263999166137598 -0.38536790031300816 -2.0016002048846664 216 216 216
-0.15082910040441178 -0.38680882625610125 -2.0094211949789136 216 216 216
-0.15060150789575433 -0.3872613689326768 -2.016070571790306 216 216 217
-0.14751903393871035 -0.389498590929807 -2.0248847670459402 215 215 216
-0.15927773650448462 -0.3824604073838886 -2.022493045855844 213 213 213
-0.15328230813175836 -0.3865194237651342 -2.0335330409485963 209 209 208
-0.14419964948051822 -0.39251074160579985 -2.0469635843591183 204 204 206
-0.14093432420858476 -0.39486646230017897 -2.0560039490107114 193 190 189
-0.13064805897222032 -0.4016152068573624 -2.070451818382269 174 170 165
-0.1204389195008333 -0.408318597653285 -2.0849009078844434 151 146 138
-0.19937377945120083 -0.360171056902643 -2.050037287845888 142 131 120
-0.2105866470561849 -0.3534598122383694 -2.0477613657773404 138 128 116
-0.21486369265865102 -0.35109063718234534 -2.0508754932551505 134 123 110
-0.2253782653841987 -0.34481336224115283 -2.049075698908535 132 121 107
-0.23366335862485788 -0.3399310443042886 -2.048992307302428 128 116 102
-0.24335312086846594 -0.33416694962038385 -2.047767112339063 126 112 99
-0.24481142074245532 -0.3335606822697781 -2.0530357326873236 125 111 98
-0.25335896082670584 -0.32851004856731436 -2.052664577317173 122 107 96
-0.25461672514516664 -0.3280289738876128 -2.0580817409136203 112 102 90
-0.26240228640441154 -0.3234540148981799 -2.058274542735101 107 96 84
-0.270082153892942 -0.3189439904459258 -2.058523733440066 109 96 83
-0.27450238965105034 -0.31647776224751917 -2.0613718784139947 109 96 80
-0.28023335508080727 -0.3131884389210549 -2.0631485571286237 109 94 77
-0.2891641179762273 -0.30788986557752995 -2.0623119903438423 110 94 75
-0.2906198011842702 -0.30728230345545526 -2.0675214202610377 111 94 74
-0.29212442311956455 -0.3066441542321338 -2.0726938677262603 108 92 69
-0.29895231306262915 -0.3026630400267007 -2.0735121014401336 104 86 62
-0.3028964569489745 -0.3004921559169624 -2.0766737401172213 104 86 60
-0.3090791803336319 -0.2969144075886102 -2.0779822650788637 106 87 61
-0.315592503525693 -0.2931279134966433 -2.0789967421460425 106 89 61
-0.32237716513050674 -0.28916979665146053 -2.079763711292759 108 90 60
-0.32762075481484576 -0.28617927493222434 -2.0817873656708437 110 90 60
-0.3303580956615775 -0.28476375631894046 -2.085884013989862 112 91 61
-0.3354945800538217 -0.28183932717506305 -2.0879708817598748 113 92 61
-0.3280112690129916 -0.2868518234036015 -2.1006266717220496 113 92 61
-0.32969526667322324 -0.28609940677850476 -2.1056185581664026 112 92 59
-0.3365409596793525 -0.28209917264881984 -2.1062564880385812 110 91 58
-0.35928056205085945 -0.2680948555082874 -2.0934168798731236 110 91 58
-0.35814488152890045 -0.2691143945738464 -2.1007406739096006 110 91 58
-0.3576294106690925 -0.2697442236248906 -2.1075524889443953 111 91 58
-0.3563791040273848 -0.27083741930769734 -2.115004954294487 112 92 59
-0.35954755420995677 -0.2691482797464012 -2.118688683780335 113 93 60
-0.36328123526209455 -0.2671027761516896 -2.121880767846169 114 93 62
-0.37439820335076 -0.26040467626601305 -2.118700512698606 115 94 65
-0.3684895104593756 -0.2644342096421096 -2.1301911441970947 116 95 66
-0.36814728953741727 -0.2649569232483961 -2.1368964007541393 115 94 64
-0.37644352848365414 -0.2600339535877927 -2.13610140362606 111 90 59
-0.3784765902064432 -0.259058929099641 -2.14073682180452 112 91 60
-0.3869455377657286 -0.25402467418691765 -2.139741568307311 115 92 61
-0.3917096305532026 -0.2513259824885101 -2.1419635084156234 113 90 58
-0.39194794371491615 -0.25148222009331 -2.148154129516568 112 89 57
-0.3976404741682923 -0.2481967806128519 -2.149539467587028 108 85 53
-0.3967269105135398 -0.24908030575304146 -2.156754087991013 100 78 46
-0.4003509946831645 -0.24709974380496041 -2.159954735060386 111 91 58
-0.4048079751984581 -0.24459282286096296 -2.1624050636180265 115 95 62
-0.4093696655384633 -0.2420191469527036 -2.1647489080914726 117 96 63
-0.4074299568632772 -0.24355191260186013 -2.172903710250669 120 97 64
-0.4146286948484069 -0.23931154150284906 -2.1728681841328115 122 99 65
-0.4287156545995451 -0.23071664700045885 -2.166597568312956 121 98 64
-0.4331124380386583 -0.22824388573461551 -2.169021076846195 121 98 64
-0.43020229782005115 -0.23039018422916246 -2.178055457515663 122 99 65
-0.4246035917983165 -0.23423787350959233 -2.1895602510875802 123 101 64
-0.439145033359469 -0.22534910395217872 -2.182741191903042 122 100 62
-0.45128462460135776 -0.21797657018857003 -2.1780515576532284 125 101 64
-0.4586545789970108 -0.21361939137043212 -2.1776821531243304 126 102 66
-0.46892970169424275 -0.20742222533155605 -2.1746114737146742 128 104 67
-0.45124050004713956 -0.2189243751731304 -2.197294543705193 129 103 66
-0.44502583015234 -0.22316671926236992 -2.2094667245988866 130 105 66
-0.4638353399711752 -0.21156438596200453 -2.1984623704710047 135 110 69
-0.46235942269362074 -0.2128062598244771 -2.206245431557536 134 110 69
-0.46216566568871453 -0.21323675564951955 -2.2128504646332345 130 107 65
-0.47525618954720994 -0.20525025852286 -2.207032597846032 127 104 64
-0.4764846672351003 -0.20477877490527102 -2.2122900033561606 126 103 65
-0.4782929442082051 -0.2039399447494333 -2.217005569419894 125 103 64
-0.48124478047569497 -0.20237609621869987 -2.2206422715806684 125 103 63
-0.49051745530799173 -0.196803511126053 -2.2182882767020313 123 103 63
-0.49068592155984625 -0.19700381320813695 -2.2245402305366415 123 105 63
-0.48991882131155995 -0.19779813800338142 -2.2316930272780606 124 105 61
-0.49221972539712266 -0.19664634042444748 -2.235930453783533 128 107 64
-0.5005720220415572 -0.1916536742757243 -2.234369571035234 122 104 65
-0.5084442817106862 -0.18696406558432407 -2.2332347073642014 105 90 60
-0.5075025978570606 -0.18786937536666545 -2.2405584463937425 87 75 51
-0.5060326762130862 -0.18911092942273736 -2.248408525640235 79 71 49
-0.5079337906188445 -0.18821203534696018 -2.2530113554537303 93 87 64
-0.5082630913456361 -0.18831181621144252 -2.2591418025531715 115 109 91
-0.5119076063457838 -0.1863052540431977 -2.2620508189533517 139 135 126
-0.5185539417687164 -0.1823902261528112 -2.262017058132658 158 156 152
-0.5218371440232098 -0.18061207375481542 -2.2652531048811877 173 174 173
-0.5236120346464309 -0.17979268343897453 -2.2699641142582347 182 183 185
-0.5283212125722045 -0.17710707364895276 -2.2717841632588045 190 191 193
-0.5347483654540609 -0.17332782831468885 -2.2718908129217636 194 195 197
-0.540522583161154 -0.16996283812344584 -2.272619579828829 199 199 201
-0.5154599789791403 -0.1862220967090926 -2.303978169295603 201 201 203
-0.5196604518939276 -0.18386097996896078 -2.306319336001487 203 203 205
-0.6154413113493777 -0.12319067420448213 -2.2171033625400973 204 204 206
-0.6261268962512143 -0.116686079199767 -2.212660245390081 205 205 207
-0.6276672203879741 -0.11600429951551278 -2.217360737568937 206 206 208
-0.6319566922150333 -0.11357113314317965 -2.219291787107905 207 207 209
-0.34781293042555594 -0.295615048075663 -2.5269461203038546 208 208 208
-1.6962692173825986 0.5416566768560135 -1.623253691397378 216 216 216
-1.6953243235364472 0.5408391407060273 -1.6287057097100297 216 216 216
-1.7015352799680992 0.5447255091765256 -1.6239188408421552 217 217 217
0.1635144976485181 -0.5353872987449674 -1.3791929046523368 191 192 194
0.16552279409670223 -0.5368899062872443 -1.386057321280311 192 193 195
0.15606357517862157 -0.5314098516586052 -1.387605588083723 193 194 196
0.07475855587940994 -0.48216938152955036 -1.3555730649983444 193 194 196
0.15555507391312584 -0.5316602774724397 -1.3992488989388838 193 194 196
0.056303648771934056 -0.4714713651322978 -1.358456993139503 195 196 198
0.044160428494049664 -0.46461459513622116 -1.3642246976812 197 197 199
0.03179992607843096 -0.4573517577834724 -1.3640850490348186 197 197 199
0.016323502272466484 -0.4481874108347307 -1.3624118260970264 198 198 200
0.0029472837014143938 -0.44030108102802357 -1.3616949435902166 198 198 200
-0.024454946870523186 -0.4238592430148631 -1.3541585922930994 199 199 201
-0.05498876501420513 -0.40550259483097384 -1.3450016250411059 200 200 202
-0.17100502627723962 -0.33499529811864115 -1.2941016784437154 200 200 202
-0.5995679221869596 -0.0737797463517579 -1.089908841279507 199 200 202
-0.7031038683652354 -0.019614288418201047 -1.2302263394657658 204 205 207
-0.7728243656257607 0.023007451947058617 -1.1943338745555594 204 205 207
-0.7004916422575876 -0.02165227487539677 -1.2409264743363402 205 206 208
-0.7061725813475187 -0.01837771892286766 -1.2422086190125792 207 208 210
-0.9961411929729248 0.15965740161155914 -1.0765854339439855 209 210 212
-0.9944760363959111 0.15844598048007713 -1.0815463068650364 211 213 212
-0.9902594967156391 0.15566501212911754 -1.0880291044330752 213 215 214
-0.9876202855848275 0.15385301342091115 -1.0935999311879203 213 215 214
-0.16061144208742906 -0.37258114999361086 -1.9618972849554086 217 217 219
-0.15965557569153177 -0.37347665825695164 -1.9689893219965815 217 217 219
-0.1610705600585871 -0.37289840757997095 -1.974343225086224 216 216 216
-0.1592666196909499 -0.3743225410320087 -1.982087736988142 216 216 216
-0.1567734976138747 -0.37617631731529066 -1.9903637310601892 216 216 216
-0.15183488353712804 -0.3795528273088497 -2.000487230921273 216 216 216
-0.14909014461246262 -0.38156555750389015 -2.009001669102707 215 215 215
-0.1483469944608924 -0.3823334572163395 -2.016035735290167 215 214 215
-0.15389443940300673 -0.37918557380350587 -2.018342441580741 213 211 212
-0.14674577206522066 -0.383942767320269 -2.0302320948672508 206 205 204
-0.14068885915537688 -0.38802211409102344 -2.041338435767453 193 192 189
-0.1353435488647492 -0.39166005193389547 -2.051942907153516 175 174 169
-0.1278495426713614 -0.3966384270390578 -2.0642238897910388 160 154 148
-0.11894131362532079 -0.40250029054228237 -2.0776346792721054 148 139 131
-0.10972429986905508 -0.4085571467394298 -2.0913364785766206 140 132 123
-0.2010573693913662 -0.35254291949766653 -2.04049509222425 137 127 116
-0.2141933333343461 -0.3446542432733031 -2.036736880206522 133 121 109
-0.22515191794250589 -0.33812136436818346 -2.0346238176913847 131 118 105
-0.22833096391704055 -0.33644057940155264 -2.0385579147313067 128 115 102
-0.23741923749354876 -0.3310717063262083 -2.0378455188057645 124 112 97
-0.24403922008128975 -0.327241899862168 -2.0390431722632325 122 110 96
-0.24943386314788285 -0.32417602789565697 -2.041186745893172 122 108 95
-0.25545459303889817 -0.32071843157898605 -2.042817471246964 121 107 94
-0.26055181223451773 -0.31783668491602607 -2.045163013446223 123 107 94
-0.26668953340156554 -0.3143042633708454 -2.046663394119254 115 104 89
-0.2727682083857149 -0.3108077755811245 -2.0481907247004245 111 100 85
-0.27767304461575426 -0.30804387145639617 -2.0506402786778954 115 100 85
-0.28285616551340687 -0.30510536330169347 -2.052851500317732 116 101 85
-0.2921169071718813 -0.29961706043536795 -2.051753453580002 117 101 81
-0.29508994734350347 -0.29805844688936833 -2.0557137534339542 116 100 78
-0.29515330962045994 -0.29831923503989893 -2.062034149531958 116 99 79
-0.297461303852794 -0.2971765008203232 -2.066534531097236 114 98 75
-0.30099326428015716 -0.2952679819527787 -2.070032649832025 111 93 69
-0.3024950957829673 -0.29462941012803623 -2.075188502662478 105 88 61
-0.30877897866042325 -0.29099814919172573 -2.076412406943962 105 88 61
-0.31489478592349995 -0.2874710858114963 -2.0777535729266043 100 84 57
-0.3238182538103672 -0.28218522294766407 -2.0767497615816244 95 79 48
-0.3292010539911001 -0.2791148841559332 -2.0786511286675924 99 79 47
-0.33080697205562015 -0.27840928252432484 -2.08368129649212 106 86 54
-0.33801375128406164 -0.27419517195316306 -2.084034261627139 112 91 59
-0.3447157044044291 -0.27029612093923705 -2.084783873855193 112 92 60
-0.34777790531683994 -0.26867690783347176 -2.0885690263537855 113 93 60
-0.35663215327325715 -0.263426977707998 -2.0874654636368284 113 93 60
-0.36451004070068804 -0.2587874993195148 -2.08715257694284 112 92 59
-0.36105425988958584 -0.2612533008239387 -2.096423230972981 111 91 58
-0.3598835493864381 -0.26228730949319823 -2.103777764603062 112 92 59
-0.36060296633004907 -0.26213643944137216 -2.1095356549381927 112 92 59
-0.3772856435287235 -0.2519704256497057 -2.101636449686884 112 92 59
-0.3729944841990458 -0.2549625205428915 -2.111668199107874 112 92 60
-0.3678371015543407 -0.25849983308312185 -2.12247836796383 113 93 61
-0.36264975166282154 -0.26205770578334 -2.1333514859872755 114 93 62
-0.37752572329350753 -0.253019690847212 -2.1268812148768275 113 92 61
-0.3819483941576072 -0.25054337596714044 -2.1294269215006407 111 90 59
-0.3835370535574105 -0.2498466226013482 -2.1344298665281283 113 92 61
-0.3922437692735128 -0.24467796544554915 -2.1332131232629283 117 94 63
-0.39595654303116057 -0.24264577852586075 -2.1363396076980283 117 94 62
-0.39579559502112305 -0.2430478358646864 -2.1428633581540373 113 90 59
-0.3984809446676214 -0.2416611525496856 -2.146888159653201 111 88 57
-0.39993011744061435 -0.24105155241684395 -2.1520028281083543 112 90 58
-0.40150231659158364 -0.24036471950258195 -2.1570112334512657 112 92 59
-0.40320818410881465 -0.23959391452380693 -2.1619029425555496 115 95 62
-0.4087913133735479 -0.23638389042826752 -2.1633359451898215 117 96 64
-0.42380739831166514 -0.22723726905525343 -2.1563067218465783 120 97 63
-0.42810378249142134 -0.2248341305673433 -2.1588320576441893 122 99 65
-0.42885567693336035 -0.22466167632360995 -2.1645365353541512 122 99 65
-0.43595747406055674 -0.22049146360599886 -2.1645133955516975 122 100 65
-0.4364562700399104 -0.2204782200901884 -2.17044331603926 123 101 64
-0.43736500415622204 -0.220207137688294 -2.176008755724416 123 101 64
-0.443563109527612 -0.2166040062900519 -2.176761230533635 124 101 62
-0.4564677640517919 -0.20877382481529327 -2.171363539632857 126 102 64
-0.4515156059602341 -0.21219522920842557 -2.182270624661993 128 104 66
-0.46147583687766913 -0.20621789483412004 -2.179509781262423 129 105 67
-0.4531958402111359 -0.21173914125234075 -2.193518445945899 129 104 65
-0.43627797343016317 -0.2227103215945344 -2.215567098999021 131 106 67
-0.45357330334837775 -0.21210594285795706 -2.2059985012507792 136 111 71
-0.45531405383271817 -0.2113108753928095 -2.2108099419123013 138 114 73
-0.4573832578593897 -0.2103086097086291 -2.215316397089107 130 107 65
-0.47350589613474325 -0.2004365923389153 -2.2066795910960546 127 104 62
-0.4770438358949931 -0.1985053157850714 -2.2097694616025447 125 103 62
-0.46262280587891536 -0.20791291179671273 -2.2297434748904568 120 98 58
-0.46670260216393156 -0.20564093618807414 -2.232353962081989 121 99 57
-0.4893607944273528 -0.1916332753019627 -2.2173765962149607 122 102 60
-0.4921923267747952 -0.1901464643175956 -2.2210978577344442 123 106 63
-0.4933212507694128 -0.18973532967855888 -2.2264344493459185 124 106 62
-0.4938489098919808 -0.18970443462920963 -2.2323493660408937 126 105 61
-0.5058796548570706 -0.1824019897765446 -2.2272636080179407 127 107 64
-0.5170861309391458 -0.17561812366209253 -2.2229136472511577 123 105 66
-0.5138429745468592 -0.17797024577814538 -2.232420630783623 106 93 62
-0.5105746798831701 -0.1803396180689451 -2.24198048582358 92 83 59
-0.5093356770221004 -0.18142643526418578 -2.249604760830737 89 80 57
-0.5120361906317473 -0.18002107708323986 -2.253422276125105 103 93 72
-0.5142030612350655 -0.17895329531570453 -2.2577552137873784 126 120 103
-0.5145051066248348 -0.17906604674082466 -2.2639076781169565 144 141 131
-0.5201570149189959 -0.17579162771974258 -2.2648312465375215 161 161 159
-0.5223122754609422 -0.17473082223808664 -2.269167590175984 175 176 178
-0.5278205273695699 -0.1715459248482602 -2.270201196526613 186 187 189
-0.530583040937632 -0.17009981284214484 -2.2739263054004097 192 193 195
-0.5390751041708045 -0.16502244478708938 -2.271973071975322 197 197 199
-0.49637695276739047 -0.19239137839247 -2.32081888470673 200 200 202
-0.5223159564907331 -0.17625589331585528 -2.3015608609270766 202 202 204
-0.618351148465452 -0.11566349343932783 -2.2121634701388087 203 203 205
-0.6195907651467358 -0.11517204664588973 -2.2171749092469546 204 204 206
-0.6263812555260957 -0.1111592832638725 -2.2166150644668057 206 206 208
-0.5595735405602204 -0.15384590567580267 -2.290152584323866 206 206 208
-0.5370883216966814 -0.16842074073014476 -2.319313766799092 207 207 207
-0.5358441778240791 -0.1695182102909883 -2.3270999692624605 207 207 207
-0.5844989427113578 -0.13893387984550576 -2.2842236869490824 208 208 208
-1.6988080607490628 0.5466346599240446 -1.617971202223008 216 216 216
-1.6977758836101535 0.5457665627872854 -1.6235316441889485 217 217 217
-1.7040868934827054 0.5497041438452017 -1.6185961376509597 217 217 217
-0.46256653099511147 -0.1485500294370247 -1.075627295320855 190 191 193
0.08046734052111482 -0.4794468272089232 -1.3571566681151248 193 194 196
0.1288704061184529 -0.5090978646224922 -1.3856287533270721 194 195 197
0.06369089227779245 -0.4697989287807075 -1.3608498690368909 194 195 197
0.0455255779970376 -0.4590363753819907 -1.3580382989538038 195 196 198
0.023873939418609158 -0.44615355428550574 -1.353508061966232 197 197 199
0.01089558652992706 -0.43853531438825255 -1.353033097822784 197 197 199
-0.0011662281012800868 -0.43147184365440683 -1.352953070283725 198 198 200
-0.018818566689819405 -0.4210097554931427 -1.350146274815685 198 198 200
-0.054365457373425796 -0.39967051702647716 -1.3386413937077846 199 199 201
-0.03677720158371567 -0.41061939935563807 -1.3527503108532286 199 199 201
-0.17367670704971694 -0.327663298520205 -1.2917654440100206 199 200 202
-0.6033339829864536 -0.06669571655453797 -1.0871950017862189 199 200 202
-0.7782605864002023 0.030910082545370345 -1.190201236642123 204 205 207
-0.7084685805767681 -0.012029508789682994 -1.2352642110273095 205 206 208
-0.7135241346637737 -0.009146063406587416 -1.2368930494140347 207 208 210
-0.7201817953828638 -0.005280619211112277 -1.2375671774660244 209 210 212
-1.0060033759380067 0.16960404649558128 -1.0738710052305016 211 213 214
-1.0048248964732538 0.1686982503391472 -1.0785279525593339 213 214 215
-0.15128500278532342 -0.3712078312052919 -1.947918151565703 218 218 220
-0.14732385424290018 -0.3739559272887338 -1.9571797607116566 217 217 219
-0.1635394233227141 -0.36421129269470226 -1.9517110574861967 217 216 219
-0.16308608021950388 -0.3647873016357355 -1.958407980130596 217 217 218
-0.16017604887504067 -0.36688567437003233 -1.9669257522651167 217 217 218
-0.15922973907536286 -0.36776850390027155 -1.974016902178671 216 216 216
-0.14015264674876393 -0.37988718852079045 -1.9945580476380083 216 216 216
-0.14088145506055605 -0.3797351676125397 -2.0004763753194874 216 215 215
-0.14897131969379807 -0.3750203598247427 -2.0009112856325575 215 215 216
-0.14816440342661408 -0.37582029627504254 -2.007974276313682 212 212 213
-0.14609223525753134 -0.37740549087303266 -2.016001026746536 207 206 205
-0.14149469703783168 -0.38055793437483754 -2.0259496356141997 194 192 189
-0.13412062266757274 -0.3854342863751013 -2.038028177912235 174 172 166
-0.12659745313696769 -0.39040527400672015 -2.0502656026395494 152 149 141
-0.12071455104447426 -0.39436053159754286 -2.0613026636944696 139 136 124
-0.11469139372793513 -0.3984046462040575 -2.0724855737400434 132 125 114
-0.10646704568108944 -0.40381708384154663 -2.0853923605835663 130 120 110
-0.20869793981269147 -0.3412443580439822 -2.026388528301798 122 112 101
-0.2211061353879279 -0.33383392987129595 -2.023199591092623 120 109 97
-0.23146063531057182 -0.3276972380525585 -2.0215565153048924 118 105 91
-0.2382258177948161 -0.323789324732532 -2.022671758142261 119 106 91
-0.24251341808311644 -0.32142037227761844 -2.0257020067292753 122 107 92
-0.2483097773951567 -0.31811291501884637 -2.0275373583762284 121 107 91
-0.2551519862410767 -0.31415427856586425 -2.028531027970916 121 108 93
-0.25607409146094195 -0.31387643305452156 -2.0341758406214416 121 107 94
-0.2599654100812103 -0.31175186493905677 -2.037474282442172 120 106 94
-0.2745059177391339 -0.3030013869720619 -2.03230189964018 121 105 89
-0.2792179667734064 -0.3003640295513885 -2.0349015376649304 119 105 88
-0.2839202968560194 -0.29773210579908305 -2.037495682733024 119 105 88
-0.287878459115259 -0.29556281529327755 -2.0406734311068564 119 103 87
-0.29113427639892575 -0.29383037479494406 -2.0444066644181667 119 104 87
-0.29597205641949476 -0.29111250705524294 -2.0468571269916724 118 103 82
-0.29483278356529075 -0.2921168066730955 -2.0541321359535214 115 100 78
-0.29402111786921625 -0.2929177540542049 -2.0611569952734388 115 98 77
-0.29340003568463313 -0.29360061392210235 -2.068040889406886 115 98 75
-0.2991824613103361 -0.2902934234303041 -2.069706190390771 111 94 69
-0.30412624701148017 -0.28750809818030565 -2.072039976621598 108 91 64
-0.3129879355507793 -0.28227953922735805 -2.071138295685516 105 88 60
-0.31706642994432743 -0.28003194799903425 -2.07414638254392 101 84 57
-0.3228700656113842 -0.27670796004633785 -2.075717195640645 94 78 47
-0.32874336720595476 -0.27333962847303833 -2.077211089045301 93 76 43
-0.33613205416761693 -0.26902493730106597 -2.0774243679807007 97 79 46
-0.3421610349562939 -0.26555746683378617 -2.0787453749859592 105 86 53
-0.3483780098972473 -0.2619717148994566 -2.0798885659058484 110 91 58
-0.3568604236263141 -0.2569707524502337 -2.079107766261603 113 93 60
-0.36423414686457567 -0.252660497014665 -2.079227867046058 114 94 61
-0.3725782524608876 -0.24774297009259408 -2.078500614391331 114 94 61
-0.3681131923628739 -0.2508247084245385 -2.0885965412900425 113 93 60
-0.3679046411158289 -0.2512488062589845 -2.0951073260354027 112 92 59
-0.37502020923161694 -0.2470969460279823 -2.095384735077162 112 92 58
-0.37113587300494555 -0.24981848075596708 -2.1050429142637572 110 90 56
-0.3678817733599832 -0.25214746704086566 -2.114190805036838 110 90 57
-0.3640033054277705 -0.25486807311884285 -2.123903005992308 110 89 56
-0.3724475220170108 -0.24988435074131177 -2.123011909272042 112 90 58
-0.3775135863718435 -0.24701194756179745 -2.1250113871501997 112 91 60
-0.38377158839352377 -0.24339316762054547 -2.1259602475119075 111 91 59
-0.38654446723385893 -0.24195397109221792 -2.129921569801254 113 94 62
-0.39053540216036287 -0.23975231483745293 -2.132815117713736 115 95 63
-0.3958572075477652 -0.23671714246627124 -2.1345325408265343 117 95 64
-0.4045868218459666 -0.2315476951948991 -2.1332387223275684 116 94 63
-0.408600627355297 -0.2293295337819029 -2.1360650344230243 114 92 61
-0.40946624184964553 -0.22908258020306763 -2.1416630265882923 116 93 61
-0.4092185023421564 -0.22953332455841433 -2.148253779628801 115 93 59
-0.41030774772041056 -0.22914694019181345 -2.153667678316486 116 95 61
-0.41207295761130003 -0.2283371749136994 -2.158483596804245 118 96 63
-0.42199380400292263 -0.22241564230553929 -2.156007201547122 121 97 63
-0.4267731580924905 -0.21971540226524047 -2.1581004964212847 122 98 64
-0.43251927714752925 -0.21640828671717777 -2.159309333161808 124 100 65
-0.43484116830224484 -0.21524775801325977 -2.163587655924773 125 102 67
-0.4355494194952503 -0.21509934149287951 -2.169324312638197 124 101 65
-0.4413335770982315 -0.21176662232119878 -2.1704611564069953 125 102 64
-0.44530371626500365 -0.20957130018395473 -2.1732288658986683 125 102 64
-0.44992958379048054 -0.20696391993061408 -2.1753873558595362 126 102 64
-0.44853757499497793 -0.2081337231255034 -2.1830412786437137 127 102 65
-0.4593916544712968 -0.20161511915010769 -2.1794686969033736 128 103 65
-0.4511295686752107 -0.2070996057417884 -2.193452471705692 129 103 65
-0.45157177191977527 -0.20711910547196005 -2.1994520935833584 134 108 69
-0.4423651502272834 -0.2132010302850777 -2.2143973554667373 135 110 70
-0.44618329100195064 -0.21110108944871844 -2.217303391373135 136 111 70
-0.4504398909002253 -0.20872511134037672 -2.219791059581689 132 108 67
-0.4608255298292201 -0.20249558753850103 -2.2165397297080363 132 109 68
-0.4670094339752394 -0.19890587207427776 -2.217180226698737 128 106 65
-0.47241547419117325 -0.19580429263685564 -2.218528934688884 123 102 60
-0.47675570568116277 -0.19337226368315544 -2.2208635208477947 120 100 58
-0.49098703195919635 -0.1847166901890174 -2.21383600895565 119 100 58
-0.4960725382705158 -0.18181323243280686 -2.2154113571942506 123 105 63
-0.49767329257920867 -0.18110228390217195 -2.2202824860907673 126 107 65
-0.49978022562507696 -0.18007277284021828 -2.2246729685122677 127 108 65
-0.5130574886349709 -0.17200978833566882 -2.2183822043377326 129 109 66
-0.5183687734066744 -0.16896074091831825 -2.219667791165197 133 115 72
-0.5206235441486409 -0.16783615867208435 -2.223874136732636 122 107 70
-0.5181284410290634 -0.16970408750634533 -2.2326594865172478 106 93 65
-0.5138643990561336 -0.17268787292105295 -2.2431801335528068 98 86 64
-0.514064882924198 -0.1728592962141999 -2.249404927302196 95 83 63
-0.5154757075063466 -0.17226814626320525 -2.2544621548275656 110 101 82
-0.5179768379647256 -0.17098964524014668 -2.2584588657900966 126 120 107
-0.5192440813209863 -0.1704891883380769 -2.2636595566537983 146 145 140
-0.5217560258321758 -0.16920374331620666 -2.267643019985056 166 167 168
-0.5285209034051014 -0.1652348275489545 -2.267439415134398 180 181 184
-0.5332352089657663 -0.1625587110106378 -2.269232011948101 188 189 192
-0.5375754113095152 -0.16011800988768066 -2.2713792885576973 194 194 196
-0.5445105079524324 -0.15603846715334074 -2.2709386039226227 198 198 200
-0.5457503807461371 -0.15555390188459492 -2.2761365289244595 200 201 203
-0.5403940320117933 -0.15923559358116554 -2.287919980984432 202 202 204
-0.5600218982593131 -0.1471362766106759 -2.2747454457428566 204 204 206
-0.5189245262651988 -0.17340134607955532 -2.322403726328151 205 205 207
-0.5651051145459773 -0.14452001139624693 -2.2824827732329442 206 206 208
-0.5468057211673252 -0.15638541018663996 -2.3073761796541428 207 207 207
-0.545886069364105 -0.15726796326790496 -2.3147977140598512 207 207 207
-0.5780375113939076 -0.13723805886057666 -2.288677168081223 208 208 208
-0.5786345487323141 -0.13715845336632218 -2.2944939667333615 209 209 209
-0.5802063828547943 -0.1364625082852793 -2.299323632023687 209 209 209
-1.6966656459536464 0.5485423739803866 -1.61935987698477 216 216 216
-1.7002119961543414 0.5506630324539574 -1.6183901327471233 216 216 216
-1.7067490021967706 0.5547333193288309 -1.6131262656962875 217 217 217
-0.43875570495331917 -0.15792231742644264 -1.0855923837783534 190 191 193
0.12249209044502174 -0.4976066915224687 -1.3522808717291008 191 192 194
0.038926933688929743 -0.4481318330620174 -1.3367074500173335 193 194 196
0.03290184547254926 -0.44474739813418385 -1.3395887963388713 194 195 197
0.03699987237133362 -0.44748677653047136 -1.3472144704488933 194 195 197
0.029785097287023943 -0.4433819430035264 -1.3495225440182481 195 196 198
0.020790641453942826 -0.43819913246225195 -1.3509661272555171 196 196 198
0.01365248487034243 -0.43413863362680505 -1.3532659657917128 197 197 199
-0.027382905457412954 -0.4095568898141686 -1.33933612130357 198 198 200
-0.04091747145951985 -0.4016186711919093 -1.338455960768362 198 198 200
-0.04537177057833652 -0.39917691180886594 -1.3419080801911079 199 199 201
-0.0650069174423431 -0.38754053646146214 -1.3379998529275017 199 199 201
-0.7861550934942698 0.04028112799939945 -1.184650369964061 205 205 207
-0.7169245395143843 -0.0021571521874349728 -1.2293324271911241 206 207 209
-0.7219960357514229 0.0007293145976197055 -1.2309318811475043 208 209 211
-1.0217797283497982 0.18311914587456923 -1.0676315681678958 213 214 216
-0.14203018171930681 -0.3700759893073112 -1.94023342473488 217 218 220
-0.13898527110540937 -0.37224404863857463 -1.9488062861626732 217 218 220
-0.13995616284543155 -0.3719367420767513 -1.9544874900744644 217 217 219
-0.1612434676400063 -0.3590987025018602 -1.945373620760956 217 217 219
-0.16045355604967682 -0.359875922056112 -1.9523042271544735 217 217 219
-0.15966184275948236 -0.36065487692827825 -1.959249821195332 217 217 217
-0.1597195154751908 -0.3609102874127767 -1.9655842912334371 217 217 217
-0.15903771143716716 -0.3616225635980577 -1.9724741920614892 216 216 216
-0.15835449381525446 -0.36233631677975126 -1.9793783828584606 215 215 215
-0.15648283388692918 -0.36378447163529637 -1.9871786196915204 213 213 213
-0.15533812417527182 -0.36478456390543956 -1.9944561492331898 208 208 208
-0.15301435102548366 -0.3665136290528243 -2.0026306936706106 196 196 195
-0.1504151173235434 -0.36841383639644787 -2.0110330972532013 175 173 169
-0.12686677105689248 -0.38325914638523484 -2.035220189758731 153 150 144
-0.11975301617492329 -0.3879536631931884 -2.0471260305032017 143 138 130
-0.11305291406409845 -0.3923945371526033 -2.05876327431976 138 132 121
-0.10613000741007883 -0.3969751017136057 -2.070612504241181 132 126 114
-0.10077562418290764 -0.400587816792176 -2.081310335980152 129 121 110
-0.19967316940054525 -0.33972932825020674 -2.0123451555794274 127 117 106
-0.21021528329240557 -0.3335011246341494 -2.010671259866253 124 115 102
-0.2186082394389519 -0.32860062899755793 -2.010609631456303 123 113 100
-0.2290526139167025 -0.32242937838435626 -2.008933927287276 121 110 97
-0.23482624687734432 -0.3191468799046921 -2.0108335541037925 118 106 93
-0.239058106147767 -0.31681789453099984 -2.013912482802458 116 103 88
-0.24116038173125875 -0.3158068511158902 -2.0186399756674205 114 101 85
-0.24814801920803198 -0.311770716970212 -2.0195489499189483 112 96 80
-0.25456684884311753 -0.30808575411503974 -2.020879657662475 111 97 79
-0.2608875011266112 -0.3044606253271744 -2.0222660913644765 113 100 80
-0.26771262969000853 -0.3005219873100998 -2.0232334558268206 116 102 85
-0.27460106474606816 -0.29654304374479434 -2.024127119416938 117 104 87
-0.2824368033741169 -0.2919758908762335 -2.0242447495516673 119 104 85
-0.28347499914221685 -0.2916211464545753 -2.0297470767282437 122 107 87
-0.28753925947134573 -0.28939046201466145 -2.0328369424320014 120 105 85
-0.2955435032514968 -0.2847160740014022 -2.032759442805029 118 102 83
-0.29598796258149573 -0.2847291246347627 -2.038729012838136 116 100 82
-0.2975349507475349 -0.284058590003702 -2.043817479142056 111 95 75
-0.2967213131841745 -0.2848528302359884 -2.050817671426205 109 94 72
-0.2898255886145653 -0.2894220822850245 -2.062766597619198 112 94 71
-0.29023651529282046 -0.28945824830784217 -2.0688139066151083 110 92 68
-0.293254503996243 -0.2878763251088229 -2.0727411516727834 109 92 66
-0.29809003718831684 -0.2851656392342835 -2.07517519553416 109 92 66
-0.3071315748119975 -0.27984226207136953 -2.074140517651787 109 91 64
-0.32292480366261134 -0.27032350371093833 -2.067507937780472 108 90 62
-0.3304031121697042 -0.2659672922148499 -2.0676773748954775 107 89 59
-0.33492869373109047 -0.2634445695152402 -2.0702668274256695 99 82 52
-0.3396855909483394 -0.26077750639549274 -2.0726512364114282 96 80 48
-0.3456867054840882 -0.25733639584943535 -2.073984047197058 99 80 47
-0.3518208225680802 -0.25381166964942015 -2.0751853228494976 102 84 48
-0.36010132722734256 -0.24895128069827083 -2.074564589305182 109 89 54
-0.366225117107595 -0.24543080906806553 -2.075727037552279 113 93 60
-0.3738867671597125 -0.24095271920964878 -2.075570181121512 114 94 62
-0.3678475019004078 -0.2449978402715818 -2.086985579612298 114 94 62
-0.3679852964843281 -0.24520082971482218 -2.0931958831370556 113 93 60
-0.3658957416623755 -0.24679060407218445 -2.101313158094357 112 92 58
-0.36978662566345566 -0.24465828509145454 -2.1043414956826982 111 91 56
-0.3681172217605302 -0.2459876682100468 -2.112125387879214 110 90 57
-0.3601712570957595 -0.251226790460447 -2.1253235201738176 112 90 57
-0.37107186813757154 -0.2447288902836251 -2.122323922429916 113 90 58
-0.37784262749107855 -0.2408018281462037 -2.1228497029566697 113 92 59
-0.383466535102984 -0.2375882742487299 -2.12434552332495 115 95 62
-0.3902337380408266 -0.23366130839705118 -2.1248279356808957 115 95 63
-0.3952098645465477 -0.23084970498132587 -2.1268483650742547 114 94 63
-0.4021092279318692 -0.22683828711262635 -2.127170146064746 116 96 63
-0.4070089038204211 -0.22407271127463632 -2.1292215845514813 117 97 64
-0.4136932527305408 -0.2201933025382437 -2.1296866392604508 117 96 63
-0.41792552177705466 -0.21784247974784304 -2.1322922708184047 118 95 63
-0.4194459303101632 -0.21718321264960605 -2.1372877591231587 118 95 61
-0.4209669263663681 -0.21652368910333317 -2.142285140749195 119 96 62
-0.4227349387248801 -0.21571008827050409 -2.1470648828003487 120 97 63
-0.42439204315832646 -0.21496578076536302 -2.151944843688527 122 98 63
-0.44341815116282945 -0.20337563766727904 -2.141261567148826 123 99 64
-0.44155945963797083 -0.20482522259453848 -2.1492589772492487 126 102 66
-0.43763277339738627 -0.2075675709145196 -2.159140774797996 128 104 67
-0.4346954820230978 -0.20969316904899107 -2.168159352440552 127 103 67
-0.4383763686489771 -0.2076840981196812 -2.171203133445374 128 104 67
-0.4405411426298306 -0.2066222537607278 -2.1756165995290244 129 105 67
-0.44372936476731484 -0.2049205379404577 -2.179095635488045 128 103 64
-0.44864646503978267 -0.20213747917826347 -2.1809867761750503 130 104 65
-0.4565832616907045 -0.19746515244535007 -2.1800919574989623 129 104 65
-0.4499976930933808 -0.20187558778820341 -2.192526793184062 127 101 62
-0.44607811183571267 -0.20462012762142534 -2.202547470677378 132 107 67
-0.45286120662520923 -0.2006686143280854 -2.202695178505926 136 111 71
-0.45662277441822496 -0.19860709799803414 -2.2056214113024373 134 109 69
-0.46165851474815356 -0.19574748074837847 -2.2073520027619478 132 108 67
-0.4802146883486005 -0.18442133275161213 -2.1964444697348044 136 113 72
-0.4825404034220333 -0.18325574614978987 -2.2006426218129955 135 113 72
-0.48681011629851045 -0.1808723608771563 -2.2030135089682514 127 107 65
-0.49063262723117185 -0.17876858356467198 -2.205792968525455 125 106 64
-0.492916923012621 -0.17762825346751895 -2.210014927718296 123 104 62
-0.4976662109113601 -0.17494286895005928 -2.2119005430787775 124 105 63
-0.5002655960144217 -0.17360454251854218 -2.21581292950677 126 107 65
-0.5041546922597097 -0.17145738700777735 -2.218493283605465 128 109 67
-0.5087769942371025 -0.16884992567037732 -2.2204626297186527 124 105 63
-0.5132911246284753 -0.16630964860989944 -2.222520968999425 125 107 64
-0.5245448557022616 -0.1595403706324388 -2.218090066529482 129 111 69
-0.5222662539632246 -0.16126050608303835 -2.226646564303252 121 105 71
-0.5199788398931142 -0.1629872326793358 -2.235234809182939 101 89 63
-0.5203225618518104 -0.16306328376879822 -2.2412967556720735 95 84 63
-0.5196510321965082 -0.1637772085927078 -2.248354169212318 96 84 67
-0.5214322639422879 -0.16295141314862455 -2.253035727672606 108 100 84
-0.5215773684869585 -0.16315338715186378 -2.259317256316473 128 126 113
-0.5222181066498728 -0.16304442556932452 -2.26512303688667 154 154 150
-0.5276892635213632 -0.15990036318438694 -2.2661883484381744 172 173 173
-0.529864625950877 -0.1588269012644902 -2.2704826327218344 184 185 188
-0.5363393323293777 -0.15505058107198103 -2.2705259003410863 190 192 192
-0.5438461780067436 -0.15062411565467498 -2.269520741464597 194 195 197
-0.5497767286870745 -0.14718757580291536 -2.270051368032266 197 198 200
-0.5401960932632478 -0.1535071347798039 -2.2860222265584746 201 202 204
-0.5456317705836897 -0.15038189591210416 -2.2870463303103756 203 203 205
-0.565517203408943 -0.13816261088766385 -2.2735649976373273 205 205 207
-0.554073626895923 -0.14565790945700488 -2.2914779773231873 205 205 207
-0.5619924702722059 -0.1409670061232767 -2.2899464978696837 206 206 206
-0.5772747709033867 -0.13163792924157083 -2.2809369659100995 207 207 207
-0.5759069168128635 -0.13279184074593514 -2.288731745579347 208 208 208
-0.5764083326433442 -0.1327690774063191 -2.294644840111398 209 209 209
-1.6994513661849966 0.5536513183433915 -1.6137411217673079 216 216 216
-1.70292913143327 0.555721028599281 -1.612858632808081 216 216 216
-1.7092491829225174 0.55963540885427 -1.607898832325136 216 216 216
-0.42839208660350503 -0.15910405325981047 -1.0894357442824592 190 191 193
0.05389224830099515 -0.4508016772909474 -1.3368967651884347 193 194 196
0.042687433110708994 -0.44430512921907495 -1.3373956121219384 193 194 196
0.028618149505065915 -0.4360802679547612 -1.3365180337489277 194 195 197
0.0238289502605199 -0.4334480803679373 -1.3399530206629535 194 195 197
0.019286999134965344 -0.43096448672270343 -1.3434937495916757 195 196 198
0.00603592433512834 -0.42322830231208397 -1.3428979280149902 196 196 198
-0.004095650385065097 -0.41737164477533584 -1.3437417432925756 197 197 199
-0.015467647087612169 -0.4107652630639286 -1.3439605499759555 198 198 200
-0.03805776179232723 -0.39738896926035105 -1.338759473303457 198 198 200
-0.05921943661933804 -0.38487093178626475 -1.334164326586596 199 199 201
-0.06088666412301391 -0.3841145522331054 -1.3389240438253622 199 199 201
-0.07037322103996246 -0.37863847944167606 -1.3398862868629624 199 200 202
-0.8069685198287768 0.05746223847591328 -1.171626409370688 205 205 207
-0.7253585005794007 0.007657156582906624 -1.2234230258788008 206 207 209
-0.7307975012167818 0.010760292966135777 -1.2247880775971387 208 209 211
-0.7358347401227604 0.013619874673392873 -1.2263717328778427 211 212 214
-0.7404597292970841 0.016229408291207822 -1.2281827156761274 213 214 216
-0.06750759312770105 -0.3949298806162485 -1.6657471076938175 215 215 215
-0.08111386709186419 -0.38691538469924025 -1.6635545916474397 216 216 216
-0.09433332382530857 -0.37913421916388756 -1.661546595715074 215 215 215
-0.10685081492942405 -0.37177846551081656 -1.6599176198219696 215 215 215
-0.13055507848733505 -0.35760513092563334 -1.6514002305497 215 215 217
-0.13322315805894114 -0.3562458643974481 -1.6557010756567414 215 215 217
-0.12438589825377944 -0.36189834791639247 -1.6670870338860877 215 215 217
-0.13204783477392235 -0.35749598768672125 -1.6683200655919381 215 215 217
-0.1544026005570046 -0.34413513346942237 -1.660412001472549 215 216 218
-0.20443957979783678 -0.3138912439252392 -1.6351774843580524 215 216 218
-0.2150617292703917 -0.3076746178236605 -1.634360078822702 215 216 218
-0.2259118744020241 -0.30131721090922714 -1.6333614408121588 215 216 218
-0.23318006083580278 -0.2971431759572529 -1.634577591108341 215 216 218
-0.24599462277377526 -0.28958402079625334 -1.632267525227195 215 216 218
-0.25912479915688097 -0.28183009955274585 -1.6297091824365755 215 216 218
-0.07462532363808161 -0.4046298589029446 -1.9741580180535292 217 218 220
-0.07848050454481525 -0.40255440141783944 -1.9778898141278698 217 218 220
-0.0670542409301168 -0.40986361384228803 -1.9926282026356237 217 218 220
-0.07034128568589038 -0.40813802787645864 -1.9967907431253116 217 218 220
-0.07571009614158297 -0.4051332523922359 -1.9994375723855335 217 217 219
-0.1552062510963481 -0.3565792202871015 -1.948113528658335 217 217 219
-0.15412420706186525 -0.3575296912987972 -1.9552648237456551 217 217 219
-0.15506044625399085 -0.3572402460208147 -1.9609525320206558 216 216 216
-0.1536366053449154 -0.35840198551814123 -1.9683803920066116 215 215 215
-0.15300388021379052 -0.35907802699996594 -1.975241641927434 214 214 214
-0.15231320272755344 -0.35979029291331976 -1.9821587733508568 208 208 207
-0.1510251239415804 -0.36087062088671124 -1.9895325890375477 195 196 193
-0.14930999258550381 -0.3622144042041288 -1.9972405759196783 178 178 173
-0.14687658713972773 -0.36400097674327886 -2.005503370643876 159 156 150
-0.14354525506250193 -0.36634113571130555 -2.014460812002764 149 143 135
-0.10975162166172259 -0.3874330931534812 -2.0463445757962426 143 136 128
-0.10403569955240055 -0.391246952153037 -2.0572261191323395 137 128 118
-0.0973377008714339 -0.39566722726534015 -2.0688885738398537 133 124 114
-0.20329394606039364 -0.3309962850222074 -2.0014657599271057 129 119 107
-0.2129009033179612 -0.3253642294293801 -2.0005131902540683 127 116 102
-0.22245298008467385 -0.31976434903463924 -1.9995660988032185 125 113 99
-0.23116122481181245 -0.31468288523793686 -1.999231260150974 123 111 97
-0.23541852033732913 -0.31234355520040563 -2.0022962979445382 122 109 95
-0.24549912696766196 -0.3064135888926785 -2.000845883197699 119 106 93
-0.25435364019847695 -0.30123790128868416 -2.00030771547147 117 105 89
-0.24875496428549226 -0.3049744875976381 -2.010987400483065 116 103 87
-0.2567204188269565 -0.3003458066577676 -2.011112229212781 115 100 84
-0.26039237945765803 -0.2983647096557047 -2.0145713642799885 116 100 82
-0.26434707327086304 -0.29620878890759367 -2.017800317771571 112 96 76
-0.2697210823737948 -0.2931764802109083 -2.0199010373485526 106 91 71
