ply
format ascii 1.0
element vertex 854
property float x
property float y
property float z
property float nx
property float ny
property float nz
property uchar diffuse_red
property uchar diffuse_green
property uchar diffuse_blue
property uchar class
property uchar detection
end_header
0.1277 0.0465 -1.0763 0.154 -0.988 -0.018 89 67 31 0 0
0.1277 0.0461 -1.0811 0.277 -0.958 0.071 86 65 35 0 0
0.1278 0.0453 -1.0857 0.240 -0.944 0.227 80 61 33 0 0
0.1280 0.0427 -1.1395 -0.165 -0.962 0.219 67 46 17 0 0
0.1281 0.0405 -1.1638 0.087 -0.953 0.289 75 54 27 0 0
0.1281 0.0391 -1.1683 0.087 -0.953 0.289 81 60 30 0 0
0.1287 0.0106 -1.2077 0.009 -0.997 0.071 135 118 80 0 0
0.1288 0.0073 -1.2114 -0.163 -0.822 0.546 113 93 58 0 0
0.1289 0.0046 -1.2154 -0.163 -0.822 0.546 131 103 63 0 0
0.1297 -0.0221 -1.3478 0.369 -0.705 0.606 82 69 50 0 0
0.1298 -0.0267 -1.3509 0.414 -0.584 0.698 83 72 52 0 0
0.1299 -0.0310 -1.3542 0.389 -0.468 0.794 61 48 28 0 0
0.1312 -0.1003 -1.3893 0.318 -0.812 0.490 136 111 68 0 0
0.1312 -0.1027 -1.3933 0.318 -0.812 0.490 150 122 79 0 0
0.1331 -0.1952 -1.4711 0.279 -0.512 0.812 149 118 72 0 0
0.1352 -0.2743 -1.7173 0.091 -0.965 0.245 89 73 39 0 0
0.1353 -0.2777 -1.7260 0.251 -0.901 0.354 82 65 40 0 0
0.1360 -0.3020 -1.8145 0.178 -0.925 0.336 72 51 24 0 0
0.1360 -0.3054 -1.8233 0.079 -0.938 0.337 72 49 22 0 0
0.1361 -0.3070 -1.8278 0.079 -0.938 0.337 71 47 21 0 0
0.1361 -0.3092 -1.8319 0.200 -0.884 0.422 75 51 24 0 0
0.1367 -0.3358 -1.8580 0.121 -0.830 0.544 68 46 22 0 0
0.1376 -0.3679 -1.9930 0.246 -0.912 0.329 83 64 34 0 0
0.1378 -0.3728 -2.0065 0.429 -0.838 0.337 82 61 32 0 0
0.1377 -0.3691 -2.0150 0.242 -0.885 0.399 82 61 32 0 0
0.1382 -0.3889 -2.0517 0.289 -0.936 0.202 76 55 27 0 0
0.1387 -0.4117 -2.0976 0.084 -0.844 0.530 74 54 24 0 0
0.1390 -0.4211 -2.1310 -0.156 -0.867 0.473 77 57 26 0 0
0.1405 -0.4957 -2.2149 0.041 -0.789 0.612 116 92 47 0 0
0.1219 0.0863 -0.9097 0.282 -0.277 0.919 139 116 86 0 0
0.1229 0.0406 -0.9770 0.243 -0.771 0.589 71 48 17 0 0
0.1229 0.0398 -0.9864 0.117 -0.946 0.302 83 62 29 0 0
0.1229 0.0452 -1.0123 0.300 -0.856 0.422 79 58 27 0 0
0.1234 0.0401 -1.1536 -0.215 -0.953 0.215 69 48 22 0 0
0.1250 -0.0249 -1.3466 0.414 -0.584 0.698 65 52 34 0 0
0.1265 -0.0995 -1.3846 0.358 -0.926 0.121 157 126 85 0 0
0.1280 -0.1732 -1.4516 0.144 -0.967 0.208 169 141 97 0 0
0.1280 -0.1739 -1.4564 0.238 -0.971 0.022 148 119 76 0 0
0.1306 -0.2755 -1.7166 0.185 -0.894 0.407 92 74 41 0 0
0.1307 -0.2795 -1.7250 0.063 -0.792 0.607 85 68 41 0 0
0.1311 -0.2978 -1.7732 0.513 -0.747 0.424 88 66 29 0 0
0.1314 -0.3060 -1.8231 0.178 -0.925 0.336 77 53 27 0 0
0.1317 -0.3179 -1.8427 0.092 -0.797 0.597 76 55 26 0 0
0.1318 -0.3230 -1.8503 0.244 -0.864 0.441 79 58 29 0 0
0.1321 -0.3365 -1.8689 -0.197 -0.695 0.692 68 46 22 0 0
0.1320 -0.3311 -1.8782 -0.432 -0.804 0.409 67 45 21 0 0
0.1321 -0.3343 -1.8872 -0.416 -0.818 0.398 73 51 27 0 0
0.1332 -0.3778 -1.9971 0.216 -0.797 0.565 82 61 32 0 0
0.1331 -0.3715 -2.0191 -0.386 -0.861 0.332 78 58 29 0 0
0.1357 -0.4913 -2.2012 0.189 -0.957 0.222 124 100 56 0 0
0.1358 -0.4923 -2.2062 0.044 -0.932 0.360 121 97 51 0 0
0.1359 -0.4959 -2.2149 0.041 -0.789 0.612 120 96 50 0 0
0.1361 -0.5071 -2.2287 0.065 -0.924 0.377 117 95 47 0 0
0.1365 -0.5276 -2.2460 0.098 -0.921 0.377 109 92 46 0 0
0.1183 0.0390 -0.9765 0.212 -0.771 0.600 76 53 22 0 0
0.1187 0.0400 -1.1586 -0.187 -0.938 0.293 80 59 30 0 0
0.1187 0.0401 -1.1637 0.007 -0.872 0.489 81 57 29 0 0
0.1187 0.0392 -1.1684 0.157 -0.918 0.364 87 64 29 0 0
0.1191 0.0227 -1.1873 0.043 -0.901 0.431 73 52 21 0 0
0.1191 0.0203 -1.1913 0.136 -0.952 0.273 77 52 25 0 0
0.1212 -0.0690 -1.3679 0.394 -0.806 0.442 111 91 65 0 0
0.1219 -0.1012 -1.3838 0.358 -0.926 0.121 173 144 97 0 0
0.1219 -0.1021 -1.3886 0.424 -0.827 0.369 182 151 94 0 0
0.1234 -0.1743 -1.4511 0.003 -0.943 0.333 133 104 64 0 0
0.1261 -0.2945 -1.5931 0.375 -0.378 0.846 142 115 72 0 0
0.1263 -0.3068 -1.5911 -0.175 -0.451 0.875 128 103 63 0 0
0.1264 -0.3116 -1.5935 -0.175 -0.451 0.875 133 106 66 0 0
0.1260 -0.2772 -1.7102 0.258 -0.945 0.200 95 76 44 0 0
0.1265 -0.2989 -1.7782 0.176 -0.756 0.631 79 57 27 0 0
0.1270 -0.3191 -1.8420 0.143 -0.848 0.510 81 60 31 0 0
0.1271 -0.3217 -1.8458 0.370 -0.826 0.425 81 60 31 0 0
0.1271 -0.3238 -1.8499 0.311 -0.888 0.340 79 58 29 0 0
0.1272 -0.3265 -1.8536 0.326 -0.824 0.462 76 55 28 0 0
0.1285 -0.3787 -1.9965 0.216 -0.797 0.565 79 60 30 0 0
0.1292 -0.4064 -2.0964 0.034 -0.918 0.395 74 55 26 0 0
0.1300 -0.4388 -2.1460 0.046 -0.905 0.423 83 62 30 0 0
0.1314 -0.5056 -2.2124 0.364 -0.761 0.536 125 101 53 0 0
0.1316 -0.5161 -2.2267 -0.177 -0.705 0.686 127 103 54 0 0
0.1321 -0.5365 -2.2619 0.400 -0.781 0.480 99 88 67 0 0
0.1137 0.0382 -0.9429 0.333 -0.727 0.601 61 39 14 0 0
0.1136 0.0422 -0.9680 0.198 -0.924 0.326 70 46 17 0 0
0.1137 0.0380 -0.9762 0.054 -0.866 0.498 78 56 25 0 0
0.1136 0.0543 -1.1439 -0.511 -0.643 0.570 42 31 18 0 0
0.1149 -0.0031 -1.2124 0.356 -0.920 0.163 127 101 60 0 0
0.1149 -0.0020 -1.2179 0.185 -0.583 0.791 131 105 58 0 0
0.1160 -0.0532 -1.2624 0.607 -0.747 -0.273 96 80 49 0 0
0.1166 -0.0722 -1.3665 0.322 -0.827 0.460 125 101 70 0 0
0.1172 -0.1005 -1.3739 -0.307 -0.946 0.104 111 87 62 0 0
0.1197 -0.2096 -1.5262 0.133 -0.914 0.385 75 49 17 0 0
0.1213 -0.2842 -1.5887 0.298 -0.205 0.932 133 110 69 0 0
0.1217 -0.3031 -1.5934 0.362 -0.332 0.871 153 130 80 0 0
0.1224 -0.3211 -1.8463 -0.267 -0.847 0.460 78 57 28 0 0
0.1225 -0.3233 -1.8504 -0.267 -0.847 0.460 78 57 28 0 0
0.1232 -0.3525 -1.9194 0.277 -0.744 0.608 70 49 20 0 0
0.1233 -0.3545 -1.9520 0.257 -0.892 0.373 82 61 30 0 0
0.1236 -0.3712 -1.9737 0.370 -0.904 0.216 78 57 27 0 0
0.1237 -0.3724 -1.9785 0.370 -0.904 0.216 78 57 28 0 0
0.1235 -0.3628 -2.0145 -0.287 -0.957 0.051 79 60 30 0 0
0.1237 -0.3714 -2.0369 0.092 -0.731 0.676 78 58 27 0 0
0.1273 -0.5284 -2.2456 0.086 -0.928 0.363 109 92 43 0 0
0.1275 -0.5375 -2.2611 0.209 -0.899 0.385 98 85 63 0 0
0.1076 0.1059 -0.9011 0.191 -0.051 0.980 141 132 125 0 0
0.1091 0.0420 -0.9679 0.291 -0.927 0.235 70 49 19 0 0
0.1092 0.0379 -0.9762 0.266 -0.842 0.469 71 50 19 0 0
0.1085 0.0704 -1.0748 -0.519 -0.824 0.230 37 26 18 0 0
0.1117 -0.0694 -1.2304 -0.183 -0.830 0.527 187 162 124 0 0
0.1113 -0.0459 -1.3372 0.197 -0.722 0.663 91 79 60 0 0
0.1125 -0.0984 -1.3698 -0.121 -0.773 0.622 126 103 82 0 0
0.1125 -0.0989 -1.3747 -0.368 -0.786 0.496 121 101 78 0 0
0.1126 -0.1051 -1.3769 0.012 -0.861 0.508 121 97 69 0 0
0.1136 -0.1484 -1.4177 0.161 -0.845 0.511 187 155 104 0 0
0.1147 -0.1944 -1.4822 0.343 -0.831 0.439 106 78 37 0 0
0.1158 -0.2400 -1.5513 0.134 -0.890 0.436 101 74 31 0 0
0.1162 -0.2587 -1.5879 0.066 -0.406 0.912 168 139 95 0 0
0.1170 -0.2895 -1.7135 0.162 -0.932 0.323 96 76 40 0 0
0.1175 -0.3099 -1.7986 0.244 -0.901 0.359 73 52 22 0 0
0.1175 -0.3107 -1.8036 -0.047 -0.816 0.576 77 56 25 0 0
0.1177 -0.3175 -1.8266 0.029 -0.947 0.321 73 52 25 0 0
0.1177 -0.3169 -1.8382 0.149 -0.853 0.500 74 53 25 0 0
0.1177 -0.3190 -1.8423 0.311 -0.764 0.565 76 55 26 0 0
0.1178 -0.3244 -1.8441 0.345 -0.922 0.173 75 54 25 0 0
0.1186 -0.3536 -1.9187 0.277 -0.744 0.608 69 48 21 0 0
0.1189 -0.3671 -1.9655 0.172 -0.729 0.663 81 58 27 0 0
0.1190 -0.3704 -1.9687 -0.002 -0.889 0.458 80 56 28 0 0
0.1190 -0.3725 -1.9728 -0.002 -0.889 0.458 79 55 29 0 0
0.1190 -0.3722 -1.9788 0.077 -0.980 0.182 79 57 29 0 0
0.1204 -0.4317 -2.1346 0.338 -0.890 0.305 70 49 19 0 0
0.1218 -0.4890 -2.1977 -0.085 -0.940 0.330 109 86 43 0 0
0.1228 -0.5355 -2.2571 0.268 -0.923 0.275 100 85 53 0 0
0.1030 0.1033 -0.9003 0.191 -0.051 0.980 128 117 105 0 0
0.1046 0.0378 -0.9380 0.138 -0.922 0.361 80 59 27 0 0
0.1046 0.0362 -0.9422 0.138 -0.922 0.361 90 70 38 0 0
0.1046 0.0377 -0.9666 -0.035 -0.980 0.196 73 52 22 0 0
0.1046 0.0368 -0.9711 -0.035 -0.980 0.196 77 56 25 0 0
0.1038 0.0718 -1.0605 -0.561 -0.817 -0.135 49 38 24 0 0
0.1049 0.0236 -1.1877 -0.112 -0.895 0.431 87 65 31 0 0
0.1054 0.0015 -1.2042 0.096 -0.903 0.419 136 119 93 0 0
0.1055 -0.0004 -1.2085 0.096 -0.903 0.419 139 121 93 0 0
0.1067 -0.0498 -1.3459 0.429 -0.429 0.795 96 80 56 0 0
0.1073 -0.0754 -1.3651 0.262 -0.775 0.574 95 73 44 0 0
0.1080 -0.1045 -1.3773 -0.203 -0.806 0.556 127 104 77 0 0
0.1090 -0.1494 -1.4173 0.201 -0.869 0.451 185 152 94 0 0
0.1091 -0.1515 -1.4214 0.143 -0.864 0.482 195 162 105 0 0
0.1100 -0.1890 -1.4592 0.254 -0.939 0.234 129 100 61 0 0
0.1099 -0.1884 -1.4699 -0.183 -0.874 0.450 119 92 55 0 0
0.1113 -0.2456 -1.5483 0.429 -0.795 0.428 100 75 33 0 0
0.1134 -0.3337 -1.6014 -0.069 -0.872 0.484 103 78 35 0 0
0.1134 -0.3359 -1.6053 -0.069 -0.872 0.484 108 84 45 0 0
0.1125 -0.2969 -1.7798 -0.008 -0.698 0.716 77 57 24 0 0
0.1127 -0.3033 -1.7810 -0.073 -0.763 0.642 79 60 27 0 0
0.1128 -0.3063 -1.7846 -0.073 -0.763 0.642 92 72 36 0 0
0.1128 -0.3089 -1.7883 0.043 -0.817 0.575 114 91 54 0 0
0.1129 -0.3121 -1.7917 0.060 -0.772 0.633 70 49 19 0 0
0.1130 -0.3157 -1.7948 0.048 -0.683 0.729 74 53 24 0 0
0.1130 -0.3172 -1.8381 0.316 -0.921 0.225 74 52 25 0 0
0.1141 -0.3601 -1.9311 0.183 -0.937 0.297 83 60 29 0 0
0.1142 -0.3646 -1.9561 0.190 -0.960 0.205 86 65 34 0 0
0.1144 -0.3728 -1.9785 0.156 -0.975 0.160 75 53 25 0 0
0.1153 -0.4109 -2.1049 -0.031 -0.977 0.212 68 47 20 0 0
0.1152 -0.4099 -2.1115 -0.109 -0.830 0.546 64 44 17 0 0
0.1157 -0.4295 -2.1248 0.035 -0.954 0.297 78 57 26 0 0
0.1157 -0.4309 -2.1295 0.066 -0.927 0.368 72 51 20 0 0
0.1161 -0.4474 -2.1510 -0.069 -0.779 0.624 98 76 38 0 0
0.1171 -0.4874 -2.1994 0.222 -0.829 0.514 111 88 45 0 0
0.1172 -0.4906 -2.2025 0.101 -0.950 0.294 114 91 47 0 0
0.1173 -0.4967 -2.2089 -0.053 -0.871 0.489 126 102 54 0 0
0.1178 -0.5171 -2.2323 0.028 -0.778 0.627 127 105 56 0 0
0.1182 -0.5345 -2.2463 0.148 -0.812 0.564 114 96 49 0 0
0.1182 -0.5361 -2.2508 0.096 -0.936 0.338 104 88 50 0 0
0.1183 -0.5380 -2.2610 0.268 -0.923 0.275 95 81 57 0 0
0.0988 0.0822 -1.0940 0.296 -0.955 0.002 11 9 9 0 0
0.0988 0.0800 -1.0982 0.058 -0.990 0.129 10 8 9 0 0
0.0989 0.0795 -1.1030 -0.038 -0.980 0.193 12 10 11 0 0
0.0989 0.0786 -1.1077 -0.038 -0.980 0.193 8 6 7 0 0
0.1002 0.0232 -1.1876 -0.183 -0.864 0.470 104 77 45 0 0
0.1009 -0.0058 -1.2165 -0.085 -0.989 -0.123 124 99 60 0 0
0.1023 -0.0632 -1.2582 0.410 -0.867 -0.282 81 60 32 0 0
0.1027 -0.0795 -1.3684 0.274 -0.900 0.339 126 104 74 0 0
0.1033 -0.1038 -1.3776 -0.263 -0.690 0.674 103 82 57 0 0
0.1035 -0.1119 -1.3789 -0.171 -0.674 0.718 139 113 82 0 0
0.1044 -0.1492 -1.4124 0.322 -0.718 0.617 202 174 119 0 0
0.1044 -0.1512 -1.4216 0.275 -0.912 0.305 183 153 102 0 0
0.1057 -0.2013 -1.4891 0.071 -0.871 0.487 116 86 45 0 0
0.1077 -0.2845 -1.5888 -0.213 -0.387 0.897 147 120 78 0 0
0.1096 -0.3689 -1.9701 0.094 -0.837 0.539 75 51 23 0 0
0.1097 -0.3713 -1.9741 -0.120 -0.820 0.560 73 49 23 0 0
0.1098 -0.3776 -1.9979 0.493 -0.772 0.400 77 57 30 0 0
0.1113 -0.4424 -2.1436 0.095 -0.855 0.509 76 53 21 0 0
0.1115 -0.4490 -2.1557 0.082 -0.858 0.508 95 73 33 0 0
0.1120 -0.4688 -2.1802 0.090 -0.744 0.662 99 77 41 0 0
0.1124 -0.4857 -2.1951 0.189 -0.865 0.464 112 90 44 0 0
0.1125 -0.4882 -2.1988 0.222 -0.829 0.514 110 87 44 0 0
0.1125 -0.4920 -2.2014 0.058 -0.956 0.288 110 87 43 0 0
0.1126 -0.4933 -2.2062 0.135 -0.970 0.202 115 92 44 0 0
0.1137 -0.5391 -2.2602 0.268 -0.923 0.275 95 80 56 0 0
0.0942 0.0796 -1.0681 -0.050 -0.985 0.162 16 13 13 0 0
0.0942 0.0796 -1.0731 -0.144 -0.985 0.100 12 11 9 0 0
0.0942 0.0792 -1.0780 -0.219 -0.974 0.058 11 10 8 0 0
0.0942 0.0790 -1.0829 -0.085 -0.995 -0.055 11 9 8 0 0
0.0941 0.0799 -1.0882 -0.130 -0.989 -0.064 9 9 9 0 0
0.0941 0.0800 -1.0932 -0.121 -0.991 -0.057 9 10 9 0 0
0.0941 0.0811 -1.0986 -0.113 -0.993 0.022 11 12 11 0 0
0.0946 0.0596 -1.1611 -0.163 -0.765 0.623 52 38 22 0 0
0.0950 0.0445 -1.1706 -0.458 -0.816 0.353 84 68 36 0 0
0.0966 -0.0209 -1.2154 -0.201 -0.450 0.870 119 93 60 0 0
0.0981 -0.0762 -1.2377 0.108 -0.795 0.596 150 123 85 0 0
0.0978 -0.0656 -1.2572 0.425 -0.852 -0.306 79 59 30 0 0
0.0981 -0.0810 -1.3574 0.056 -0.548 0.834 111 92 62 0 0
0.0982 -0.0886 -1.3591 0.159 -0.763 0.627 127 107 78 0 0
0.1007 -0.1866 -1.4657 0.086 -0.620 0.780 126 99 56 0 0
0.1008 -0.1899 -1.4692 0.446 -0.790 0.421 119 91 55 0 0
0.1010 -0.1981 -1.4805 0.143 -0.907 0.397 116 87 38 0 0
0.1010 -0.1993 -1.4850 0.188 -0.806 0.561 107 79 35 0 0
0.1032 -0.2855 -1.5883 -0.423 -0.461 0.780 147 119 77 0 0
0.1039 -0.3154 -1.5968 0.524 -0.724 0.449 141 115 74 0 0
0.1047 -0.3454 -1.6153 0.242 -0.819 0.520 82 60 27 0 0
0.1044 -0.3353 -1.6530 -0.208 -0.737 -0.644 107 86 49 0 0
0.1041 -0.3245 -1.6650 -0.234 -0.746 -0.624 113 92 55 0 0
0.1031 -0.2901 -1.7189 0.020 -0.943 0.333 97 78 40 0 0
0.1047 -0.3569 -1.9224 0.097 -0.931 0.351 75 52 23 0 0
0.1057 -0.4043 -2.0754 0.175 -0.944 0.281 76 55 26 0 0
0.1067 -0.4436 -2.1487 0.047 -0.962 0.268 89 66 33 0 0
0.1067 -0.4454 -2.1530 0.154 -0.910 0.384 95 73 35 0 0
0.1088 -0.5271 -2.2415 -0.058 -0.718 0.694 114 94 43 0 0
0.1089 -0.5337 -2.2593 0.148 -0.987 -0.066 102 85 53 0 0
0.1092 -0.5425 -2.2632 0.325 -0.819 0.473 108 101 85 0 0
0.0908 0.0355 -0.9659 0.297 -0.954 0.050 79 58 27 0 0
0.0894 0.0820 -1.0591 -0.114 -0.991 0.064 12 8 5 0 0
0.0894 0.0816 -1.0639 -0.057 -0.985 0.162 15 12 11 0 0
0.0894 0.0808 -1.0686 -0.057 -0.985 0.162 19 17 16 0 0
0.0894 0.0811 -1.0736 -0.265 -0.945 0.189 15 14 12 0 0
0.0899 0.0585 -1.1658 -0.132 -0.852 0.507 70 55 32 0 0
0.0916 -0.0080 -1.2156 -0.230 -0.880 0.416 123 94 55 0 0
0.0934 -0.0750 -1.2483 0.572 -0.819 -0.048 99 75 42 0 0
0.0933 -0.0715 -1.2548 0.469 -0.867 -0.167 69 49 19 0 0
0.0938 -0.0966 -1.3657 0.118 -0.764 0.634 129 110 86 0 0
0.0939 -0.0997 -1.3694 0.118 -0.764 0.634 119 101 80 0 0
0.0939 -0.1027 -1.3731 0.124 -0.811 0.571 128 110 86 0 0
0.0941 -0.1083 -1.3756 0.366 -0.664 0.651 132 114 82 0 0
0.0962 -0.1912 -1.4634 0.421 -0.720 0.552 120 93 51 0 0
0.0964 -0.1988 -1.4802 0.143 -0.907 0.397 132 103 53 0 0
0.0965 -0.2008 -1.4843 0.233 -0.867 0.439 99 72 27 0 0
0.0966 -0.2050 -1.4925 0.178 -0.898 0.403 99 73 33 0 0
0.0967 -0.2100 -1.5002 0.250 -0.912 0.327 106 79 40 0 0
0.0967 -0.2115 -1.5046 0.250 -0.912 0.327 94 68 29 0 0
0.0973 -0.2340 -1.5445 0.024 -0.970 0.244 87 61 24 0 0
0.0973 -0.2366 -1.5483 -0.005 -0.822 0.570 93 66 29 0 0
0.0999 -0.3364 -1.6471 -0.009 -0.741 -0.672 98 78 45 0 0
0.0998 -0.3328 -1.6546 -0.186 -0.738 -0.648 106 85 47 0 0
0.1009 -0.3948 -2.0367 -0.046 -0.830 0.555 78 57 27 0 0
0.1010 -0.4015 -2.0603 0.009 -0.900 0.437 81 60 30 0 0
0.1013 -0.4128 -2.0921 0.196 -0.960 0.199 77 58 28 0 0
0.1019 -0.4395 -2.1404 -0.097 -0.822 0.561 83 60 29 0 0
0.1020 -0.4420 -2.1502 0.263 -0.959 0.108 82 58 27 0 0
0.1020 -0.4438 -2.1545 0.323 -0.850 0.417 94 72 33 0 0
0.1026 -0.4672 -2.1819 -0.090 -0.774 0.627 98 76 38 0 0
0.1043 -0.5337 -2.2535 -0.056 -0.982 0.181 100 82 44 0 0
0.1044 -0.5352 -2.2582 0.118 -0.982 0.145 99 84 51 0 0
0.0846 0.0842 -1.0648 -0.265 -0.945 0.189 13 12 8 0 0
0.0846 0.0833 -1.0695 -0.265 -0.945 0.189 14 13 11 0 0
0.0865 0.0091 -1.2023 0.041 -0.856 0.515 108 87 56 0 0
0.0868 -0.0028 -1.2178 -0.260 -0.899 0.352 137 111 74 0 0
0.0882 -0.0602 -1.2951 0.070 -0.946 0.315 89 72 44 0 0
0.0883 -0.0628 -1.2991 0.043 -0.940 0.339 95 78 51 0 0
0.0884 -0.0656 -1.3132 0.201 -0.943 0.266 87 69 47 0 0
0.0882 -0.0606 -1.3360 0.425 -0.836 0.347 60 44 27 0 0
0.0891 -0.0969 -1.3656 -0.046 -0.777 0.628 124 106 84 0 0
0.0893 -0.1040 -1.3726 -0.029 -0.764 0.644 136 118 93 0 0
0.0925 -0.2247 -1.5236 0.279 -0.950 0.138 77 53 21 0 0
0.0927 -0.2339 -1.5446 -0.002 -0.874 0.486 89 65 29 0 0
0.0927 -0.2362 -1.5486 -0.002 -0.874 0.486 91 66 30 0 0
0.0928 -0.2403 -1.5516 0.066 -0.826 0.560 82 57 21 0 0
0.0958 -0.3461 -1.6151 0.017 -0.900 0.436 92 67 38 0 0
0.0959 -0.3500 -1.6232 0.031 -0.931 0.364 71 47 21 0 0
0.0955 -0.3623 -1.9413 -0.016 -0.923 0.385 87 64 33 0 0
0.0955 -0.3641 -1.9457 0.033 -0.903 0.428 87 65 34 0 0
0.0955 -0.3628 -1.9523 0.103 -0.902 0.418 87 66 35 0 0
0.0955 -0.3655 -1.9560 0.172 -0.735 0.656 85 64 33 0 0
0.0960 -0.3841 -1.9819 0.249 -0.883 0.397 76 52 24 0 0
0.0961 -0.3860 -1.9861 0.249 -0.883 0.397 75 52 24 0 0
0.0962 -0.3986 -2.0570 -0.103 -0.956 0.275 91 70 43 0 0
0.0975 -0.4481 -2.1511 0.069 -0.935 0.347 92 70 32 0 0
0.0977 -0.4570 -2.1672 -0.109 -0.890 0.442 108 86 47 0 0
0.0996 -0.5291 -2.2460 0.074 -0.719 0.691 116 95 40 0 0
0.0996 -0.5303 -2.2509 0.004 -0.861 0.508 116 95 46 0 0
0.0817 0.0342 -0.9607 0.005 -0.894 0.448 61 39 13 0 0
0.0796 0.0934 -1.0531 -0.669 -0.682 0.296 69 62 57 0 0
0.0820 -0.0018 -1.2132 -0.329 -0.813 0.481 169 143 102 0 0
0.0831 -0.0371 -1.2190 -0.106 -0.496 0.862 124 95 66 0 0
0.0838 -0.0710 -1.3211 0.001 -0.859 0.513 55 41 27 0 0
0.0837 -0.0694 -1.3423 0.020 -0.983 0.181 91 74 51 0 0
0.0837 -0.0702 -1.3471 0.020 -0.983 0.181 82 64 39 0 0
0.0846 -0.1013 -1.3687 0.295 -0.672 0.679 136 119 95 0 0
0.0854 -0.1292 -1.3914 0.256 -0.712 0.654 197 172 133 0 0
0.0855 -0.1336 -1.3945 0.181 -0.652 0.737 143 126 100 0 0
0.0856 -0.1373 -1.3978 0.181 -0.652 0.737 159 137 107 0 0
0.0864 -0.1659 -1.4197 0.222 -0.881 0.419 168 136 86 0 0
0.0865 -0.1679 -1.4239 0.222 -0.881 0.419 165 133 88 0 0
0.0913 -0.3472 -1.6145 0.052 -0.882 0.468 84 60 29 0 0
0.0913 -0.3483 -1.6191 0.040 -0.902 0.429 77 52 26 0 0
0.0894 -0.2956 -1.7319 0.167 -0.956 0.241 82 62 26 0 0
0.0895 -0.3008 -1.7449 0.088 -0.921 0.379 109 90 56 0 0
0.0896 -0.3039 -1.7484 0.079 -0.747 0.660 78 58 26 0 0
0.0897 -0.3069 -1.7518 0.079 -0.747 0.660 87 67 34 0 0
0.0895 -0.3025 -1.7822 -0.050 -0.857 0.513 74 53 21 0 0
0.0895 -0.3048 -1.7861 -0.050 -0.857 0.513 89 68 35 0 0
0.0903 -0.3327 -1.7949 0.403 -0.703 0.587 76 52 26 0 0
0.0919 -0.4124 -2.0810 0.032 -0.841 0.540 98 76 45 0 0
0.0920 -0.4171 -2.0830 0.106 -0.828 0.551 74 56 26 0 0
0.0922 -0.4248 -2.0943 -0.118 -0.834 0.539 72 53 23 0 0
0.0928 -0.4475 -2.1459 0.070 -0.945 0.321 82 59 25 0 0
0.0928 -0.4490 -2.1504 0.070 -0.945 0.321 90 68 29 0 0
0.0931 -0.4586 -2.1659 0.048 -0.840 0.540 95 73 36 0 0
0.0932 -0.4645 -2.1727 -0.021 -0.755 0.656 95 73 32 0 0
0.0937 -0.4827 -2.1866 0.128 -0.852 0.507 115 91 47 0 0
0.0939 -0.4879 -2.1939 0.065 -0.902 0.426 109 86 42 0 0
0.0950 -0.5302 -2.2511 0.105 -0.828 0.550 116 95 45 0 0
0.0950 -0.5325 -2.2550 0.159 -0.795 0.586 104 86 47 0 0
0.0771 0.0376 -0.9285 -0.037 -0.813 0.581 103 81 42 0 0
0.0771 0.0339 -0.9607 0.049 -0.922 0.385 60 39 11 0 0
0.0772 0.0043 -1.2055 -0.067 -0.799 0.598 116 91 57 0 0
0.0773 0.0014 -1.2094 -0.067 -0.799 0.598 163 135 93 0 0
0.0773 -0.0016 -1.2133 -0.134 -0.818 0.560 175 149 110 0 0
0.0784 -0.0358 -1.2195 -0.124 -0.473 0.872 122 95 64 0 0
0.0789 -0.0615 -1.2998 0.019 -0.935 0.355 81 64 38 0 0
0.0790 -0.0632 -1.3041 0.049 -0.856 0.515 117 100 74 0 0
0.0790 -0.0654 -1.3083 0.230 -0.838 0.495 94 77 51 0 0
0.0790 -0.0668 -1.3128 0.013 -0.809 0.588 80 63 38 0 0
0.0865 -0.3355 -1.6008 0.147 -0.780 0.609 113 89 56 0 0
0.0868 -0.3474 -1.6145 0.052 -0.882 0.468 81 58 28 0 0
0.0869 -0.3492 -1.6186 0.118 -0.891 0.438 73 49 22 0 0
0.0849 -0.2958 -1.6994 -0.125 -0.981 0.148 97 78 46 0 0
0.0866 -0.3839 -1.9995 0.125 -0.852 0.509 79 55 29 0 0
0.0867 -0.3863 -2.0034 0.125 -0.852 0.509 79 55 29 0 0
0.0867 -0.3927 -2.0445 0.065 -0.887 0.457 75 51 24 0 0
0.0869 -0.4015 -2.0666 0.084 -0.981 0.173 68 47 21 0 0
0.0875 -0.4226 -2.0963 -0.113 -0.933 0.342 71 50 21 0 0
0.0881 -0.4498 -2.1559 0.145 -0.954 0.261 101 78 36 0 0
0.0892 -0.4854 -2.1844 0.297 -0.836 0.461 108 85 43 0 0
0.0893 -0.4926 -2.2017 0.136 -0.899 0.415 111 89 44 0 0
0.0894 -0.4945 -2.2059 0.136 -0.899 0.415 116 94 46 0 0
0.0895 -0.4999 -2.2190 -0.067 -0.818 0.571 120 98 49 0 0
0.0895 -0.5016 -2.2234 0.108 -0.853 0.511 121 99 49 0 0
0.0901 -0.5195 -2.2371 -0.048 -0.916 0.398 106 85 34 0 0
0.0901 -0.5218 -2.2411 -0.058 -0.899 0.435 108 87 34 0 0
0.0903 -0.5283 -2.2471 0.441 -0.725 0.528 111 91 38 0 0
0.0708 0.0772 -1.0329 0.503 -0.851 0.148 153 150 148 0 0
0.0727 -0.0022 -1.2131 -0.420 -0.636 0.647 122 95 60 0 0
0.0744 -0.0679 -1.3123 -0.031 -0.898 0.440 86 68 44 0 0
0.0745 -0.0710 -1.3263 0.110 -0.964 -0.241 46 31 17 0 0
0.0743 -0.0692 -1.3425 0.194 -0.925 0.326 100 80 56 0 0
0.0756 -0.1092 -1.3651 0.022 -0.685 0.728 174 149 116 0 0
0.0771 -0.1629 -1.4111 0.330 -0.774 0.540 180 146 98 0 0
0.0784 -0.2074 -1.4604 0.644 -0.670 0.370 105 78 40 0 0
0.0792 -0.2453 -1.5542 0.386 -0.791 0.474 77 53 21 0 0
0.0794 -0.2496 -1.5623 0.129 -0.894 0.428 99 75 38 0 0
0.0794 -0.2502 -1.5671 0.022 -0.980 0.197 113 87 50 0 0
0.0794 -0.2532 -1.5707 0.142 -0.898 0.416 107 81 45 0 0
0.0795 -0.2555 -1.5747 0.080 -0.889 0.451 101 74 36 0 0
0.0796 -0.2599 -1.5826 0.037 -0.569 0.822 138 110 65 0 0
0.0808 -0.2960 -1.5878 0.046 -0.499 0.865 141 116 75 0 0
0.0809 -0.3004 -1.5905 0.115 -0.383 0.916 136 111 71 0 0
0.0814 -0.3254 -1.6596 -0.065 -0.744 -0.665 100 78 40 0 0
0.0802 -0.2935 -1.6956 -0.256 -0.934 0.248 64 46 21 0 0
0.0803 -0.2953 -1.6999 -0.125 -0.981 0.148 102 84 51 0 0
0.0805 -0.3147 -1.7907 0.411 -0.819 0.401 85 64 32 0 0
0.0812 -0.3511 -1.9272 0.424 -0.784 0.453 83 60 29 0 0
0.0817 -0.3686 -1.9484 0.265 -0.792 0.550 81 58 28 0 0
0.0817 -0.3722 -1.9684 -0.017 -0.882 0.470 82 59 28 0 0
0.0818 -0.3744 -1.9725 -0.017 -0.882 0.470 81 58 27 0 0
0.0820 -0.3845 -1.9992 0.125 -0.852 0.509 74 50 23 0 0
0.0820 -0.3868 -2.0031 0.125 -0.852 0.509 81 57 29 0 0
0.0835 -0.4498 -2.1561 -0.053 -0.921 0.385 104 81 40 0 0
0.0844 -0.4804 -2.1830 0.149 -0.960 0.236 100 78 36 0 0
0.0857 -0.5281 -2.2355 0.230 -0.680 0.696 112 90 40 0 0
0.0857 -0.5288 -2.2468 0.244 -0.861 0.445 111 91 40 0 0
0.0863 -0.5481 -2.2589 0.103 -0.991 0.081 94 83 66 0 0
0.0662 0.0521 -1.1889 -0.222 -0.948 0.226 84 70 37 0 0
0.0677 0.0074 -1.2018 -0.052 -0.991 0.121 102 76 43 0 0
0.0678 0.0036 -1.2053 0.024 -0.836 0.548 128 103 61 0 0
0.0679 0.0017 -1.2096 0.096 -0.923 0.372 149 127 90 0 0
0.0679 0.0009 -1.2143 -0.282 -0.838 0.468 145 126 92 0 0
0.0725 -0.1628 -1.4112 0.007 -0.944 0.329 204 174 120 0 0
0.0729 -0.1765 -1.4300 0.008 -0.858 0.514 153 121 72 0 0
0.0745 -0.2366 -1.5278 0.290 -0.822 0.489 64 41 15 0 0
0.0770 -0.3276 -1.6584 0.064 -0.740 -0.670 97 73 37 0 0
0.0757 -0.2940 -1.6954 -0.125 -0.981 0.148 68 48 21 0 0
0.0759 -0.3145 -1.7855 0.359 -0.921 0.149 90 71 35 0 0
0.0760 -0.3174 -1.7891 0.084 -0.742 0.665 83 62 30 0 0
0.0763 -0.3275 -1.8043 -0.320 -0.760 0.566 73 50 19 0 0
0.0799 -0.4889 -2.1935 0.084 -0.887 0.455 105 82 38 0 0
0.0812 -0.5320 -2.2440 0.157 -0.836 0.525 113 93 43 0 0
0.0818 -0.5506 -2.2568 0.117 -0.977 0.178 91 80 64 0 0
0.0632 0.0459 -0.9121 0.218 -0.855 0.471 138 116 74 0 0
0.0633 0.0396 -0.9244 0.158 -0.927 0.340 130 102 64 0 0
0.0611 0.0625 -1.1828 0.182 -0.642 0.744 71 59 40 0 0
0.0631 0.0031 -1.2052 0.315 -0.788 0.528 107 84 45 0 0
0.0666 -0.1014 -1.2422 0.276 -0.880 0.386 97 74 46 0 0
0.0669 -0.1300 -1.3861 0.190 -0.705 0.683 198 164 116 0 0
0.0675 -0.1498 -1.4022 0.230 -0.595 0.770 220 189 138 0 0
0.0679 -0.1626 -1.4113 0.119 -0.739 0.663 204 175 119 0 0
0.0690 -0.1981 -1.4499 0.066 -0.964 0.258 117 88 47 0 0
0.0703 -0.2538 -1.5705 0.314 -0.937 0.151 102 75 38 0 0
0.0704 -0.2597 -1.5829 -0.105 -0.878 0.467 142 113 67 0 0
0.0719 -0.3138 -1.6723 0.067 -0.755 -0.652 128 101 55 0 0
0.0713 -0.3099 -1.7613 -0.215 -0.821 0.528 79 56 25 0 0
0.0713 -0.3117 -1.7655 -0.239 -0.953 0.185 80 57 26 0 0
0.0713 -0.3125 -1.7705 0.005 -0.964 0.265 80 57 26 0 0
0.0714 -0.3161 -1.7846 -0.010 -0.996 0.085 87 68 34 0 0
0.0714 -0.3185 -1.7885 -0.295 -0.831 0.471 86 64 32 0 0
0.0725 -0.3738 -1.9505 0.078 -0.786 0.614 84 61 31 0 0
0.0727 -0.3787 -1.9525 0.012 -0.973 0.230 85 61 32 0 0
0.0725 -0.3788 -1.9866 0.110 -0.863 0.493 80 55 25 0 0
0.0726 -0.3811 -1.9906 0.110 -0.863 0.493 83 58 28 0 0
0.0726 -0.3834 -1.9945 0.109 -0.875 0.472 83 60 29 0 0
0.0727 -0.3856 -1.9986 0.109 -0.875 0.472 82 59 28 0 0
0.0724 -0.3830 -2.0236 0.127 -0.905 0.407 104 82 48 0 0
0.0725 -0.3854 -2.0275 0.099 -0.959 0.265 99 73 42 0 0
0.0725 -0.3867 -2.0323 0.099 -0.959 0.265 90 67 36 0 0
0.0730 -0.4017 -2.0437 -0.067 -0.921 0.385 80 57 26 0 0
0.0730 -0.4032 -2.0483 0.020 -0.946 0.324 81 59 28 0 0
0.0736 -0.4263 -2.0995 0.005 -0.956 0.295 69 48 19 0 0
0.0742 -0.4500 -2.1326 0.148 -0.961 0.234 79 55 24 0 0
0.0752 -0.4841 -2.1860 -0.164 -0.876 0.453 105 83 40 0 0
0.0769 -0.5407 -2.2423 0.027 -0.843 0.538 112 92 43 0 0
0.0770 -0.5478 -2.2595 0.073 -0.987 0.141 92 80 63 0 0
0.0558 0.0801 -1.1742 -0.361 -0.811 0.461 36 30 23 0 0
0.0582 0.0094 -1.2026 -0.071 -0.953 0.294 104 82 47 0 0
0.0582 0.0083 -1.2073 -0.244 -0.811 0.532 103 80 43 0 0
0.0584 0.0037 -1.2105 -0.021 -0.997 0.079 118 94 55 0 0
0.0585 0.0004 -1.2142 -0.215 -0.919 0.331 125 99 66 0 0
0.0613 -0.0911 -1.3072 0.502 -0.762 0.408 64 46 28 0 0
0.0624 -0.1345 -1.3892 0.198 -0.782 0.591 229 198 141 0 0
0.0626 -0.1417 -1.3960 0.007 -0.700 0.714 218 188 129 0 0
0.0628 -0.1463 -1.3988 0.227 -0.584 0.779 206 175 119 0 0
0.0633 -0.1631 -1.4111 0.008 -0.854 0.521 193 161 111 0 0
0.0644 -0.1959 -1.4408 0.036 -0.805 0.593 131 101 53 0 0
0.0654 -0.2415 -1.5409 -0.048 -0.921 0.388 63 41 17 0 0
0.0687 -0.3386 -1.5993 -0.005 -0.929 0.371 169 142 102 0 0
0.0674 -0.3161 -1.6710 0.132 -0.762 -0.635 122 95 53 0 0
0.0667 -0.3142 -1.7695 -0.173 -0.926 0.335 77 54 23 0 0
0.0668 -0.3201 -1.8040 0.346 -0.661 0.666 65 41 12 0 0
0.0669 -0.3239 -1.8069 0.264 -0.829 0.493 71 48 17 0 0
0.0675 -0.3499 -1.8611 -0.167 -0.898 0.406 78 53 23 0 0
0.0673 -0.3506 -1.9054 0.556 -0.767 0.321 81 56 26 0 0
0.0675 -0.3595 -1.9159 -0.025 -0.842 0.538 80 55 25 0 0
0.0674 -0.3574 -1.9230 0.316 -0.839 0.444 77 52 22 0 0
0.0679 -0.3742 -1.9503 0.078 -0.786 0.614 84 61 30 0 0
0.0680 -0.3788 -1.9526 0.012 -0.973 0.230 85 62 31 0 0
0.0678 -0.3793 -1.9864 0.039 -0.876 0.480 79 54 24 0 0
0.0679 -0.3818 -1.9902 0.095 -0.912 0.399 80 55 25 0 0
0.0680 -0.3844 -1.9939 0.086 -0.850 0.520 80 57 26 0 0
0.0680 -0.3861 -1.9984 0.109 -0.875 0.472 82 59 28 0 0
0.0684 -0.3960 -2.0022 0.011 -0.904 0.428 83 58 29 0 0
0.0694 -0.4414 -2.1165 0.076 -0.820 0.567 80 59 26 0 0
0.0702 -0.4733 -2.1719 0.018 -0.892 0.451 98 76 34 0 0
0.0704 -0.4804 -2.1835 0.146 -0.922 0.359 100 78 38 0 0
0.0539 0.0490 -0.9083 -0.049 -0.833 0.551 149 126 95 0 0
0.0544 0.0309 -0.9360 0.036 -0.921 0.389 88 65 34 0 0
0.0543 0.0316 -0.9457 0.220 -0.963 0.159 70 49 23 0 0
0.0514 0.0931 -1.0333 -0.507 -0.732 -0.455 181 182 185 0 0
0.0508 0.0848 -1.1709 -0.061 -0.798 0.600 21 14 7 0 0
0.0509 0.0820 -1.1750 0.218 -0.919 0.330 21 17 15 0 0
0.0526 0.0328 -1.2018 -0.181 -0.629 0.756 101 81 43 0 0
0.0527 0.0286 -1.2052 -0.181 -0.629 0.756 115 93 54 0 0
0.0530 0.0226 -1.2079 -0.199 -0.490 0.849 96 76 40 0 0
0.0537 0.0014 -1.2147 -0.215 -0.919 0.331 113 89 58 0 0
0.0605 -0.2224 -1.4786 0.402 -0.867 0.296 95 71 35 0 0
0.0606 -0.2287 -1.5115 0.309 -0.848 0.429 71 47 22 0 0
0.0610 -0.2455 -1.5492 0.023 -0.912 0.409 81 58 25 0 0
0.0612 -0.2520 -1.5559 0.184 -0.946 0.265 86 63 28 0 0
0.0636 -0.3210 -1.5891 0.049 -0.365 0.930 149 121 77 0 0
0.0647 -0.3541 -1.6160 0.265 -0.799 0.540 79 55 26 0 0
0.0630 -0.3196 -1.6689 0.074 -0.758 -0.648 105 81 41 0 0
0.0617 -0.2928 -1.7072 -0.100 -0.947 0.306 88 67 34 0 0
0.0617 -0.2943 -1.7117 -0.100 -0.947 0.306 97 76 40 0 0
0.0621 -0.3099 -1.7506 0.344 -0.904 0.255 87 64 32 0 0
0.0624 -0.3298 -1.8251 0.098 -0.941 0.325 75 52 21 0 0
0.0624 -0.3314 -1.8296 0.098 -0.941 0.325 81 57 26 0 0
0.0629 -0.3481 -1.8403 0.229 -0.898 0.376 76 50 23 0 0
0.0629 -0.3607 -1.9151 0.090 -0.914 0.396 80 55 25 0 0
0.0633 -0.3830 -1.9894 -0.109 -0.901 0.419 77 52 22 0 0
0.0634 -0.3876 -1.9974 -0.065 -0.864 0.499 78 55 24 0 0
0.0648 -0.4438 -2.1205 -0.049 -0.872 0.487 74 53 23 0 0
0.0649 -0.4475 -2.1233 0.024 -0.944 0.330 68 46 18 0 0
0.0651 -0.4585 -2.1493 0.064 -0.874 0.482 97 73 35 0 0
0.0653 -0.4651 -2.1554 -0.014 -0.859 0.512 93 71 30 0 0
0.0654 -0.4672 -2.1596 0.018 -0.892 0.451 103 80 38 0 0
0.0655 -0.4708 -2.1623 0.279 -0.770 0.573 109 86 44 0 0
0.0655 -0.4712 -2.1679 0.008 -0.887 0.462 92 69 31 0 0
0.0493 0.0492 -0.9083 -0.049 -0.833 0.551 136 115 85 0 0
0.0499 0.0307 -0.9359 0.036 -0.921 0.389 113 90 54 0 0
0.0461 0.0825 -1.1752 -0.145 -0.922 0.360 16 14 13 0 0
0.0470 0.0576 -1.1810 -0.017 -0.896 0.443 39 35 26 0 0
0.0471 0.0560 -1.1855 0.017 -0.946 0.323 64 55 44 0 0
0.0479 0.0304 -1.2060 -0.231 -0.638 0.735 116 94 57 0 0
0.0526 -0.1181 -1.3715 0.346 -0.779 0.523 143 124 100 0 0
0.0540 -0.1592 -1.4081 0.002 -0.778 0.629 191 157 114 0 0
0.0541 -0.1634 -1.4111 0.019 -0.839 0.544 216 183 131 0 0
0.0551 -0.1915 -1.4329 0.044 -0.922 0.385 128 97 51 0 0
0.0560 -0.2220 -1.4737 0.152 -0.722 0.675 106 81 40 0 0
0.0560 -0.2240 -1.4778 0.207 -0.911 0.355 95 71 35 0 0
0.0561 -0.2278 -1.4913 0.145 -0.877 0.457 91 66 32 0 0
0.0561 -0.2299 -1.4953 0.145 -0.877 0.457 81 56 25 0 0
0.0560 -0.2278 -1.5068 0.183 -0.850 0.495 72 48 20 0 0
0.0562 -0.2352 -1.5184 0.070 -0.947 0.315 66 42 17 0 0
0.0562 -0.2367 -1.5228 0.070 -0.947 0.315 74 52 24 0 0
0.0574 -0.2769 -1.5837 -0.281 -0.519 0.807 170 137 90 0 0
0.0602 -0.3552 -1.6154 0.265 -0.799 0.540 83 59 31 0 0
0.0603 -0.3570 -1.6196 0.133 -0.941 0.311 79 56 25 0 0
0.0580 -0.3100 -1.6750 -0.304 -0.762 -0.572 98 76 40 0 0
0.0575 -0.3119 -1.7548 0.081 -0.754 0.652 83 60 28 0 0
0.0574 -0.3104 -1.7612 0.074 -0.977 0.201 77 53 23 0 0
0.0577 -0.3265 -1.8054 0.293 -0.818 0.495 71 48 17 0 0
0.0578 -0.3318 -1.8295 0.098 -0.941 0.325 82 57 27 0 0
0.0578 -0.3333 -1.8339 0.098 -0.941 0.325 82 57 27 0 0
0.0578 -0.3349 -1.8384 0.098 -0.941 0.325 81 56 26 0 0
0.0579 -0.3395 -1.8519 0.175 -0.867 0.467 80 54 27 0 0
0.0584 -0.3688 -1.9432 0.061 -0.895 0.441 83 59 29 0 0
0.0586 -0.3831 -1.9895 0.014 -0.933 0.359 79 54 24 0 0
0.0589 -0.4038 -2.0599 0.021 -0.926 0.377 86 63 32 0 0
0.0615 -0.4922 -2.1912 0.013 -0.926 0.377 110 87 43 0 0
0.0615 -0.4940 -2.1956 0.013 -0.926 0.377 111 88 44 0 0
0.0616 -0.4962 -2.1996 0.067 -0.849 0.524 111 88 44 0 0
0.0415 0.0792 -1.1689 0.199 -0.886 0.418 24 19 11 0 0
0.0413 0.0837 -1.1757 -0.183 -0.810 0.557 10 9 6 0 0
0.0413 0.0809 -1.1797 -0.183 -0.810 0.557 16 15 12 0 0
0.0431 0.0316 -1.2065 -0.231 -0.638 0.735 124 104 65 0 0
0.0482 -0.1234 -1.3741 0.107 -0.762 0.639 144 124 100 0 0
0.0496 -0.1648 -1.4105 0.162 -0.824 0.543 216 183 136 0 0
0.0496 -0.1673 -1.4143 0.162 -0.824 0.543 204 172 121 0 0
0.0518 -0.2343 -1.4930 0.150 -0.676 0.721 80 55 25 0 0
0.0516 -0.2332 -1.5144 -0.084 -0.849 0.521 92 71 43 0 0
0.0516 -0.2359 -1.5181 -0.039 -0.921 0.388 71 47 23 0 0
0.0517 -0.2377 -1.5223 -0.039 -0.921 0.388 66 43 17 0 0
0.0527 -0.2757 -1.5845 -0.281 -0.519 0.807 173 142 93 0 0
0.0558 -0.3576 -1.6193 0.128 -0.901 0.415 80 57 26 0 0
0.0528 -0.3109 -1.7555 -0.099 -0.993 -0.059 74 52 20 0 0
0.0529 -0.3350 -1.8719 0.137 -0.807 0.575 81 56 26 0 0
0.0530 -0.3371 -1.8760 0.216 -0.736 0.642 78 53 23 0 0
0.0532 -0.3421 -1.8781 -0.041 -0.821 0.569 82 57 27 0 0
0.0535 -0.3555 -1.9079 0.158 -0.699 0.698 81 58 27 0 0
0.0539 -0.3815 -1.9851 0.014 -0.933 0.359 74 50 22 0 0
0.0545 -0.4010 -2.0160 -0.028 -0.965 0.261 110 87 55 0 0
0.0545 -0.4022 -2.0208 -0.025 -0.970 0.242 76 52 24 0 0
0.0567 -0.4876 -2.1836 -0.316 -0.877 0.361 101 78 37 0 0
0.0569 -0.4916 -2.1860 -0.011 -0.838 0.545 108 85 42 0 0
0.0582 -0.5325 -2.2326 0.040 -0.921 0.387 103 85 39 0 0
0.0384 0.0323 -1.2068 -0.279 -0.617 0.736 102 82 42 0 0
0.0435 -0.0998 -1.2581 0.086 -0.981 0.174 57 39 19 0 0
0.0436 -0.1253 -1.3733 0.060 -0.876 0.478 133 111 78 0 0
0.0440 -0.1363 -1.3834 0.229 -0.821 0.522 174 143 102 0 0
0.0439 -0.1348 -1.3893 -0.120 -0.967 0.226 198 167 121 0 0
0.0450 -0.1646 -1.4106 0.206 -0.824 0.528 206 177 130 0 0
0.0450 -0.1670 -1.4146 0.206 -0.824 0.528 194 163 119 0 0
0.0470 -0.2273 -1.4865 -0.213 -0.792 0.572 85 61 27 0 0
0.0469 -0.2270 -1.4918 0.268 -0.919 0.290 92 68 35 0 0
0.0471 -0.2362 -1.5128 0.120 -0.979 0.165 69 46 19 0 0
0.0481 -0.2737 -1.5857 0.010 -0.497 0.868 170 139 93 0 0
0.0481 -0.3078 -1.7577 0.075 -0.740 0.668 76 54 22 0 0
0.0485 -0.3227 -1.7807 -0.057 -0.958 0.282 78 57 25 0 0
0.0482 -0.3316 -1.8633 0.162 -0.893 0.420 82 57 27 0 0
0.0483 -0.3352 -1.8719 0.308 -0.807 0.503 77 52 22 0 0
0.0489 -0.3613 -1.9263 0.109 -0.886 0.452 69 45 18 0 0
0.0493 -0.3828 -1.9899 -0.029 -0.939 0.344 75 52 21 0 0
0.0497 -0.3960 -2.0028 0.179 -0.905 0.385 82 59 27 0 0
0.0495 -0.4024 -2.0555 0.359 -0.819 0.447 82 59 28 0 0
0.0497 -0.4067 -2.0637 0.333 -0.745 0.578 79 56 25 0 0
0.0496 -0.4073 -2.0749 -0.263 -0.887 0.380 79 56 25 0 0
0.0515 -0.4693 -2.1583 0.177 -0.835 0.521 99 76 36 0 0
0.0516 -0.4727 -2.1672 0.290 -0.927 0.239 94 72 33 0 0
0.0516 -0.4750 -2.1770 0.151 -0.963 0.225 102 80 38 0 0
0.0521 -0.4958 -2.2241 0.125 -0.976 0.180 119 96 52 0 0
0.0533 -0.5248 -2.2279 -0.016 -0.954 0.301 117 96 50 0 0
0.0532 -0.5238 -2.2347 -0.271 -0.832 0.484 116 93 49 0 0
0.0536 -0.5327 -2.2326 0.040 -0.921 0.387 104 86 40 0 0
0.0540 -0.5441 -2.2400 0.082 -0.976 0.203 102 86 39 0 0
0.0536 -0.5427 -2.2712 0.213 -0.882 0.421 105 96 83 0 0
0.0317 0.0832 -1.1756 0.296 -0.920 0.256 19 15 9 0 0
0.0357 -0.0176 -1.2223 0.160 -0.586 0.794 124 100 68 0 0
0.0390 -0.0986 -1.2437 0.381 -0.892 0.243 94 73 44 0 0
0.0380 -0.0877 -1.3039 -0.065 -0.821 0.568 64 44 23 0 0
0.0380 -0.0904 -1.3077 -0.065 -0.821 0.568 63 43 24 0 0
0.0379 -0.0892 -1.3133 -0.026 -0.998 0.050 69 51 33 0 0
0.0375 -0.0857 -1.3457 0.067 -0.943 0.325 56 40 16 0 0
0.0375 -0.0870 -1.3553 0.017 -0.727 0.686 67 45 17 0 0
0.0392 -0.1335 -1.3848 0.147 -0.752 0.642 175 142 101 0 0
0.0392 -0.1341 -1.3897 -0.074 -0.915 0.397 184 152 109 0 0
0.0413 -0.1904 -1.4337 0.042 -0.896 0.442 127 97 51 0 0
0.0417 -0.2043 -1.4471 0.057 -0.860 0.507 119 92 49 0 0
0.0418 -0.2055 -1.4516 0.072 -0.822 0.565 109 85 40 0 0
0.0418 -0.2083 -1.4553 0.318 -0.822 0.472 96 71 30 0 0
0.0423 -0.2265 -1.4922 -0.033 -0.947 0.319 95 70 38 0 0
0.0425 -0.2310 -1.4949 0.218 -0.865 0.451 80 53 24 0 0
0.0425 -0.2325 -1.4993 0.014 -0.929 0.369 77 51 21 0 0
0.0423 -0.2301 -1.5058 0.183 -0.850 0.495 77 52 22 0 0
0.0428 -0.2538 -1.5657 -0.203 -0.975 0.092 90 66 31 0 0
0.0435 -0.3086 -1.7573 0.126 -0.761 0.637 81 59 27 0 0
0.0439 -0.3257 -1.7898 -0.126 -0.943 0.308 79 55 27 0 0
0.0439 -0.3263 -1.7949 -0.173 -0.869 0.464 69 45 16 0 0
0.0438 -0.3407 -1.8794 -0.024 -0.779 0.626 80 55 25 0 0
0.0469 -0.4724 -2.1616 0.017 -0.785 0.620 101 78 38 0 0
0.0470 -0.4739 -2.1663 0.102 -0.912 0.398 101 78 39 0 0
0.0481 -0.5068 -2.1966 0.192 -0.873 0.449 114 91 45 0 0
0.0475 -0.4993 -2.2271 0.146 -0.977 0.154 119 97 50 0 0
0.0490 -0.5334 -2.2321 0.068 -0.775 0.628 102 84 38 0 0
0.0493 -0.5498 -2.2707 -0.275 -0.950 0.145 142 138 131 0 0
0.0307 -0.0119 -1.2196 -0.027 -0.896 0.444 103 82 52 0 0
0.0310 -0.0186 -1.2219 0.207 -0.499 0.841 108 87 55 0 0
0.0335 -0.0756 -1.2285 0.099 -0.236 0.967 140 115 81 0 0
0.0332 -0.0871 -1.3092 0.091 -0.961 0.261 64 43 23 0 0
0.0328 -0.0856 -1.3509 0.105 -0.898 0.428 60 38 14 0 0
0.0328 -0.0874 -1.3552 0.114 -0.871 0.477 91 69 40 0 0
0.0329 -0.0911 -1.3586 0.138 -0.725 0.674 115 97 69 0 0
0.0372 -0.2033 -1.4426 0.086 -0.976 0.200 111 83 40 0 0
0.0372 -0.2046 -1.4470 0.057 -0.860 0.507 113 85 42 0 0
0.0372 -0.2059 -1.4515 0.072 -0.822 0.565 95 71 27 0 0
0.0373 -0.2104 -1.4595 0.074 -0.814 0.576 116 92 50 0 0
0.0379 -0.2326 -1.4994 0.014 -0.929 0.369 78 52 22 0 0
0.0378 -0.2310 -1.5054 0.181 -0.875 0.449 78 52 23 0 0
0.0388 -0.3009 -1.7242 0.029 -0.918 0.395 98 76 38 0 0
0.0389 -0.3050 -1.7379 0.217 -0.969 0.122 67 44 12 0 0
0.0388 -0.3085 -1.7574 -0.211 -0.510 0.834 82 60 27 0 0
0.0388 -0.3233 -1.8357 0.376 -0.904 0.203 83 58 28 0 0
0.0391 -0.3394 -1.8748 0.197 -0.788 0.583 78 53 24 0 0
0.0398 -0.3799 -1.9867 0.070 -0.991 0.116 81 57 27 0 0
0.0402 -0.3893 -1.9967 0.204 -0.905 0.374 85 62 31 0 0
0.0402 -0.3911 -2.0011 0.204 -0.905 0.374 83 60 29 0 0
0.0411 -0.4281 -2.0758 0.144 -0.677 0.721 125 101 59 0 0
0.0412 -0.4298 -2.0803 0.099 -0.910 0.402 90 69 31 0 0
0.0412 -0.4316 -2.0846 0.099 -0.910 0.402 85 63 28 0 0
0.0413 -0.4341 -2.0884 0.221 -0.838 0.498 82 58 27 0 0
0.0419 -0.4568 -2.1339 0.062 -0.832 0.551 80 58 25 0 0
0.0423 -0.4740 -2.1664 -0.168 -0.968 0.188 107 84 44 0 0
0.0435 -0.5065 -2.1971 -0.241 -0.961 0.137 112 90 44 0 0
0.0448 -0.5452 -2.2394 0.144 -0.954 0.261 100 84 39 0 0
0.0448 -0.5510 -2.2698 -0.215 -0.973 0.089 140 135 128 0 0
0.0261 -0.0131 -1.2191 0.265 -0.519 0.812 118 98 67 0 0
0.0289 -0.0763 -1.2282 0.099 -0.236 0.967 145 121 83 0 0
0.0292 -0.0835 -1.2302 0.146 -0.448 0.882 181 157 122 0 0
0.0299 -0.0998 -1.2432 -0.273 -0.847 0.456 100 77 46 0 0
0.0322 -0.1905 -1.4235 -0.004 -0.911 0.412 152 123 78 0 0
0.0322 -0.1924 -1.4277 -0.004 -0.911 0.412 147 115 71 0 0
0.0323 -0.1949 -1.4367 0.077 -0.951 0.298 130 101 57 0 0
0.0324 -0.2034 -1.4632 -0.327 -0.881 0.343 105 80 39 0 0
0.0335 -0.2460 -1.5493 -0.023 -0.830 0.557 75 51 22 0 0
0.0336 -0.2487 -1.5531 0.006 -0.945 0.327 78 55 23 0 0
0.0335 -0.2497 -1.5578 0.038 -0.973 0.227 89 65 36 0 0
0.0336 -0.2519 -1.5670 -0.067 -0.997 0.035 83 61 23 0 0
0.0336 -0.2529 -1.5717 -0.241 -0.815 0.526 100 80 35 0 0
0.0364 -0.3191 -1.5908 0.131 -0.308 0.942 163 141 95 0 0
0.0376 -0.3470 -1.6001 0.182 -0.867 0.464 103 78 36 0 0
0.0377 -0.3491 -1.6040 0.182 -0.867 0.464 90 67 29 0 0
0.0344 -0.3117 -1.7500 -0.215 -0.941 0.261 83 60 28 0 0
0.0342 -0.3088 -1.7573 -0.124 -0.652 0.748 86 63 29 0 0
0.0346 -0.3180 -1.7622 -0.083 -0.734 0.674 70 47 16 0 0
0.0347 -0.3216 -1.7708 0.325 -0.839 0.436 75 52 21 0 0
0.0339 -0.3159 -1.8242 -0.099 -0.978 0.184 76 52 22 0 0
0.0345 -0.3426 -1.8783 0.125 -0.953 0.276 75 49 22 0 0
0.0349 -0.3800 -2.0098 -0.287 -0.822 0.492 85 62 31 0 0
0.0372 -0.4577 -2.1333 0.220 -0.857 0.466 84 61 29 0 0
0.0374 -0.4658 -2.1558 0.008 -0.824 0.566 97 75 38 0 0
0.0400 -0.5405 -2.2379 0.292 -0.927 0.237 100 83 35 0 0
0.0402 -0.5448 -2.2399 0.095 -0.887 0.452 99 83 38 0 0
0.0400 -0.5483 -2.2726 -0.202 -0.978 0.050 141 135 127 0 0
0.0222 0.0321 -0.9459 0.043 -0.850 0.525 47 38 16 0 0
0.0224 0.0253 -0.9580 0.104 -0.876 0.471 97 71 36 0 0
0.0179 0.1050 -1.0274 0.592 -0.554 -0.585 181 182 184 0 0
0.0188 0.0457 -1.2020 0.315 -0.921 0.230 89 73 41 0 0
0.0240 -0.0690 -1.2263 0.226 -0.170 0.959 123 106 68 0 0
0.0261 -0.1530 -1.4012 -0.068 -0.680 0.730 176 144 109 0 0
0.0276 -0.1911 -1.4284 0.255 -0.923 0.289 151 121 78 0 0
0.0289 -0.2479 -1.5536 0.031 -0.854 0.520 80 57 26 0 0
0.0292 -0.2592 -1.5734 0.328 -0.890 0.317 102 78 39 0 0
0.0292 -0.2613 -1.5828 0.357 -0.898 0.259 126 97 57 0 0
0.0296 -0.2691 -1.5835 0.166 -0.691 0.703 141 112 67 0 0
0.0333 -0.3573 -1.6252 0.049 -0.899 0.435 74 50 22 0 0
0.0300 -0.3111 -1.7287 0.137 -0.913 0.384 83 61 26 0 0
0.0298 -0.3106 -1.7453 -0.189 -0.981 0.050 72 48 18 0 0
0.0298 -0.3107 -1.7508 0.341 -0.933 0.118 81 58 26 0 0
0.0297 -0.3111 -1.7559 0.138 -0.960 0.244 84 61 27 0 0
0.0299 -0.3170 -1.7630 -0.160 -0.785 0.599 75 52 21 0 0
0.0291 -0.3149 -1.8306 -0.277 -0.904 0.326 78 53 23 0 0
0.0294 -0.3240 -1.8411 0.292 -0.599 0.746 86 63 32 0 0
0.0301 -0.3407 -1.8518 0.214 -0.938 0.271 81 56 26 0 0
0.0327 -0.4663 -2.1556 0.152 -0.908 0.391 98 76 39 0 0
0.0351 -0.5405 -2.2620 -0.229 -0.964 0.135 82 70 45 0 0
0.0177 0.0319 -0.9458 0.043 -0.850 0.525 38 28 13 0 0
0.0177 0.0295 -0.9498 0.043 -0.850 0.525 47 34 11 0 0
0.0178 0.0270 -0.9538 0.043 -0.850 0.525 80 61 29 0 0
0.0139 0.0909 -1.0228 0.432 -0.675 -0.598 181 182 184 0 0
0.0128 0.0771 -1.1785 -0.077 -0.983 0.168 79 66 52 0 0
0.0203 -0.0905 -1.2323 0.146 -0.448 0.882 156 133 104 0 0
0.0187 -0.0814 -1.3324 -0.214 -0.976 0.042 42 28 18 0 0
0.0189 -0.0866 -1.3403 -0.166 -0.819 0.550 46 32 16 0 0
0.0187 -0.0858 -1.3510 0.077 -0.701 0.709 94 73 33 0 0
0.0232 -0.2053 -1.4727 0.296 -0.874 0.386 97 73 31 0 0
0.0232 -0.2072 -1.4769 0.296 -0.874 0.386 105 78 33 0 0
0.0246 -0.2511 -1.5414 0.275 -0.843 0.461 71 49 22 0 0
0.0247 -0.2584 -1.5687 0.339 -0.764 0.549 104 82 38 0 0
0.0248 -0.2611 -1.5724 0.339 -0.764 0.549 105 81 42 0 0
0.0251 -0.2709 -1.5825 0.237 -0.805 0.543 138 107 60 0 0
0.0251 -0.2996 -1.7037 0.228 -0.962 0.148 98 75 39 0 0
0.0251 -0.3015 -1.7133 0.079 -0.993 0.086 82 60 24 0 0
0.0255 -0.3120 -1.7282 0.045 -0.909 0.415 84 62 27 0 0
0.0252 -0.3125 -1.7552 0.310 -0.912 0.269 84 61 27 0 0
0.0257 -0.3525 -1.8826 -0.046 -0.897 0.440 79 53 23 0 0
0.0257 -0.3544 -1.8869 -0.053 -0.911 0.409 79 55 25 0 0
0.0260 -0.3880 -2.0039 -0.372 -0.887 0.273 81 58 27 0 0
0.0256 -0.3814 -2.0147 0.195 -0.699 0.688 82 61 29 0 0
0.0270 -0.4209 -2.0589 -0.175 -0.933 0.316 80 57 26 0 0
0.0281 -0.4693 -2.1650 -0.196 -0.729 0.655 106 84 42 0 0
0.0284 -0.4761 -2.1710 -0.053 -0.717 0.695 110 87 46 0 0
0.0293 -0.4972 -2.1821 -0.032 -0.913 0.406 113 90 48 0 0
0.0304 -0.5309 -2.2291 -0.081 -0.702 0.708 112 90 46 0 0
0.0312 -0.5512 -2.2463 -0.065 -0.998 -0.025 83 70 40 0 0
0.0312 -0.5524 -2.2512 -0.297 -0.954 -0.045 82 69 45 0 0
0.0132 0.0357 -0.9185 -0.027 -0.850 0.527 138 115 78 0 0
0.0131 0.0300 -0.9500 0.179 -0.858 0.482 50 37 14 0 0
0.0132 0.0277 -0.9541 0.179 -0.858 0.482 69 53 23 0 0
0.0132 0.0257 -0.9582 0.161 -0.870 0.466 90 71 38 0 0
0.0130 -0.0345 -1.2256 0.161 -0.269 0.950 110 92 61 0 0
0.0156 -0.0873 -1.2287 0.370 -0.370 0.852 134 111 80 0 0
0.0159 -0.0931 -1.2312 0.337 -0.410 0.848 148 127 96 0 0
0.0142 -0.0899 -1.3543 0.186 -0.675 0.714 120 103 78 0 0
0.0169 -0.1537 -1.4009 0.118 -0.631 0.767 207 181 140 0 0
0.0195 -0.2220 -1.4691 -0.051 -0.932 0.359 109 81 36 0 0
0.0194 -0.2269 -1.4975 -0.109 -0.815 0.569 81 56 26 0 0
0.0203 -0.2607 -1.5622 0.029 -0.926 0.375 91 66 27 0 0
0.0244 -0.3548 -1.6112 0.071 -0.947 0.312 74 51 19 0 0
0.0242 -0.3538 -1.6222 0.085 -0.943 0.323 106 83 52 0 0
0.0206 -0.2998 -1.6983 0.228 -0.962 0.148 114 91 51 0 0
0.0205 -0.3008 -1.7084 0.302 -0.906 0.295 74 54 25 0 0
0.0205 -0.3022 -1.7130 0.197 -0.969 0.148 57 37 11 0 0
0.0205 -0.3030 -1.7178 0.305 -0.916 0.262 81 60 28 0 0
0.0205 -0.3037 -1.7229 0.228 -0.962 0.148 88 66 30 0 0
0.0204 -0.3106 -1.7565 0.472 -0.858 0.203 87 64 30 0 0
0.0204 -0.3126 -1.7661 -0.017 -0.901 0.434 95 72 41 0 0
0.0205 -0.3146 -1.7703 -0.017 -0.901 0.434 70 47 16 0 0
0.0208 -0.3461 -1.8705 0.023 -0.842 0.539 80 57 26 0 0
0.0209 -0.3483 -1.8746 -0.046 -0.897 0.440 78 55 24 0 0
0.0210 -0.3524 -1.8829 -0.046 -0.897 0.440 80 55 25 0 0
0.0214 -0.3762 -1.9501 0.301 -0.785 0.541 74 50 22 0 0
0.0212 -0.3766 -1.9669 0.168 -0.968 0.187 83 60 29 0 0
0.0210 -0.3820 -2.0086 -0.233 -0.781 0.580 81 57 27 0 0
0.0223 -0.4202 -2.0595 -0.175 -0.933 0.316 82 57 27 0 0
0.0232 -0.4549 -2.1302 0.060 -0.837 0.543 80 57 26 0 0
0.0239 -0.4763 -2.1592 0.185 -0.857 0.481 106 84 41 0 0
0.0243 -0.4942 -2.1968 -0.081 -0.795 0.601 110 87 46 0 0
0.0258 -0.5291 -2.2191 -0.080 -0.924 0.375 114 93 48 0 0
0.0256 -0.5264 -2.2275 0.088 -0.784 0.614 111 90 45 0 0
0.0257 -0.5296 -2.2306 -0.130 -0.854 0.504 110 91 46 0 0
0.0264 -0.5450 -2.2344 -0.160 -0.862 0.481 96 80 31 0 0
0.0087 0.0263 -0.9536 0.227 -0.837 0.498 70 55 28 0 0
0.0087 0.0249 -0.9580 0.161 -0.870 0.466 77 60 28 0 0
0.0045 0.0442 -1.2066 0.051 -0.881 0.470 96 78 44 0 0
0.0083 -0.0337 -1.2210 0.109 -0.230 0.967 110 94 62 0 0
0.0084 -0.0359 -1.2251 0.166 -0.324 0.931 112 95 67 0 0
0.0091 -0.0508 -1.2290 -0.127 -0.946 0.299 114 94 65 0 0
0.0109 -0.0849 -1.2297 0.044 -0.364 0.930 121 99 68 0 0
0.0112 -0.0923 -1.2316 0.151 -0.522 0.839 141 121 92 0 0
0.0115 -0.0983 -1.2341 0.262 -0.577 0.773 127 107 80 0 0
0.0105 -0.0889 -1.2732 0.169 -0.891 -0.421 37 23 11 0 0
0.0137 -0.1896 -1.4293 -0.111 -0.667 0.736 137 104 62 0 0
0.0150 -0.2253 -1.4778 0.001 -0.915 0.404 91 68 35 0 0
0.0160 -0.2998 -1.6984 0.300 -0.919 0.256 106 85 50 0 0
0.0160 -0.3023 -1.7076 0.197 -0.969 0.148 58 36 13 0 0
0.0160 -0.3031 -1.7125 0.197 -0.969 0.148 87 65 34 0 0
0.0157 -0.3084 -1.7581 0.122 -0.819 0.561 81 58 25 0 0
0.0157 -0.3154 -1.7808 0.094 -0.818 0.567 71 48 17 0 0
0.0162 -0.3453 -1.8657 -0.368 -0.858 0.358 88 65 34 0 0
0.0161 -0.3442 -1.8720 -0.289 -0.931 0.222 83 60 29 0 0
0.0166 -0.3779 -1.9660 0.083 -0.874 0.480 84 61 30 0 0
0.0167 -0.3894 -2.0031 0.348 -0.877 0.331 79 54 24 0 0
0.0173 -0.4078 -2.0348 0.088 -0.996 0.035 81 58 27 0 0
0.0172 -0.4074 -2.0409 0.223 -0.941 0.256 82 59 28 0 0
0.0176 -0.4197 -2.0601 -0.054 -0.934 0.354 83 58 28 0 0
0.0192 -0.4793 -2.1744 0.008 -0.881 0.473 108 85 44 0 0
0.0197 -0.4939 -2.1913 -0.290 -0.892 0.347 109 85 44 0 0
0.0212 -0.5289 -2.2195 -0.080 -0.924 0.375 116 95 50 0 0
-0.0005 0.1256 -0.9020 0.130 0.069 0.989 178 178 179 0 0
0.0041 0.0240 -0.9577 0.285 -0.931 0.229 99 80 49 0 0
-0.0017 0.0769 -1.1836 -0.144 -0.921 0.362 33 25 17 0 0
-0.0016 0.0751 -1.1880 -0.144 -0.921 0.362 20 13 7 0 0
0.0045 -0.0511 -1.2289 0.231 -0.885 0.404 119 100 74 0 0
0.0072 -0.1073 -1.2452 0.114 -0.988 0.105 65 48 25 0 0
0.0074 -0.1103 -1.2489 0.177 -0.975 0.133 58 41 22 0 0
0.0053 -0.0829 -1.2961 0.301 -0.842 0.448 31 21 9 0 0
0.0070 -0.1383 -1.3880 0.278 -0.642 0.715 177 150 116 0 0
0.0081 -0.1618 -1.3971 -0.022 -0.933 0.359 190 158 116 0 0
0.0120 -0.2844 -1.5907 0.281 -0.392 0.876 162 133 88 0 0
0.0143 -0.3273 -1.5915 -0.379 -0.728 0.571 144 118 74 0 0
0.0116 -0.3437 -1.8557 0.009 -0.994 0.108 80 57 26 0 0
0.0115 -0.3449 -1.8661 0.009 -0.994 0.108 82 59 28 0 0
0.0122 -0.3871 -1.9821 -0.030 -0.881 0.472 80 57 26 0 0
0.0122 -0.3897 -1.9915 -0.091 -0.877 0.472 77 52 22 0 0
0.0129 -0.4196 -2.0604 -0.054 -0.934 0.354 82 59 28 0 0
0.0145 -0.4808 -2.1792 0.090 -0.855 0.511 101 77 39 0 0
0.0146 -0.4828 -2.1834 0.115 -0.848 0.518 95 72 34 0 0
0.0150 -0.4957 -2.2017 -0.254 -0.911 0.326 96 74 28 0 0
-0.0004 0.0227 -0.9573 0.285 -0.931 0.229 80 58 27 0 0
-0.0066 0.0814 -1.1751 0.226 -0.597 0.769 96 91 86 0 0
-0.0065 0.0780 -1.1789 0.057 -0.998 0.008 43 34 24 0 0
-0.0064 0.0754 -1.1830 0.187 -0.973 0.139 45 36 27 0 0
0.0002 -0.0573 -1.2264 0.549 -0.585 0.597 132 112 87 0 0
0.0003 -0.0605 -1.2300 0.506 -0.566 0.651 144 121 90 0 0
0.0029 -0.1125 -1.2480 0.432 -0.824 0.366 53 36 17 0 0
0.0007 -0.0837 -1.2958 -0.001 -0.960 0.280 30 19 6 0 0
0.0006 -0.0842 -1.3007 0.273 -0.740 0.615 46 31 12 0 0
0.0023 -0.1360 -1.3789 0.139 -0.779 0.611 191 166 125 0 0
0.0048 -0.1983 -1.4456 -0.007 -0.851 0.525 127 101 58 0 0
0.0054 -0.2142 -1.4631 -0.045 -0.776 0.629 102 78 35 0 0
0.0058 -0.2235 -1.4737 0.001 -0.915 0.404 123 98 58 0 0
0.0057 -0.2243 -1.4784 0.198 -0.972 0.127 94 71 33 0 0
0.0064 -0.2508 -1.5367 -0.149 -0.813 0.563 75 51 23 0 0
0.0080 -0.2946 -1.5900 0.046 -0.229 0.972 142 116 72 0 0
0.0097 -0.3261 -1.5923 -0.202 -0.782 0.589 147 121 75 0 0
0.0069 -0.3018 -1.6973 0.302 -0.906 0.295 76 57 28 0 0
0.0069 -0.3032 -1.7018 0.302 -0.906 0.295 60 39 14 0 0
0.0069 -0.3364 -1.8331 0.075 -0.984 0.159 75 51 21 0 0
0.0070 -0.3438 -1.8558 -0.067 -0.996 0.060 79 56 25 0 0
0.0069 -0.3441 -1.8611 -0.067 -0.996 0.060 82 59 28 0 0
0.0068 -0.3445 -1.8665 -0.067 -0.996 0.060 80 57 26 0 0
0.0074 -0.3832 -1.9794 -0.010 -0.875 0.485 80 57 26 0 0
0.0074 -0.3857 -1.9833 -0.019 -0.881 0.472 79 56 25 0 0
0.0075 -0.3888 -1.9923 0.025 -0.875 0.484 77 53 22 0 0
0.0072 -0.3894 -2.0149 0.349 -0.692 0.631 78 57 27 0 0
0.0073 -0.3923 -2.0184 0.397 -0.702 0.591 96 74 41 0 0
0.0082 -0.4194 -2.0606 -0.054 -0.934 0.354 82 59 28 0 0
0.0094 -0.4631 -2.1473 0.129 -0.916 0.381 97 74 38 0 0
0.0127 -0.5528 -2.2575 0.293 -0.956 -0.001 78 68 48 0 0
-0.0070 0.0747 -0.9017 0.497 -0.464 0.733 131 112 83 0 0
-0.0047 0.0283 -0.9211 0.178 -0.848 0.500 118 94 65 0 0
-0.0112 0.0728 -1.1923 -0.152 -0.882 0.446 41 34 25 0 0
-0.0087 0.0253 -1.2044 0.521 -0.441 0.730 102 85 49 0 0
-0.0043 -0.0589 -1.2257 0.482 -0.445 0.755 147 122 95 0 0
-0.0040 -0.0653 -1.2281 0.520 -0.353 0.778 128 104 74 0 0
-0.0015 -0.1149 -1.2470 0.410 -0.724 0.554 53 37 18 0 0
-0.0018 -0.1116 -1.2534 0.378 -0.926 0.019 53 38 19 0 0
-0.0023 -0.1366 -1.3787 0.139 -0.779 0.611 204 177 138 0 0
-0.0012 -0.1601 -1.3980 -0.214 -0.831 0.513 163 132 88 0 0
0.0004 -0.2041 -1.4530 0.240 -0.881 0.408 101 77 33 0 0
0.0006 -0.2098 -1.4603 0.155 -0.943 0.295 111 86 44 0 0
0.0008 -0.2141 -1.4632 -0.045 -0.776 0.629 102 78 35 0 0
0.0009 -0.2172 -1.4668 0.096 -0.544 0.834 102 73 33 0 0
0.0011 -0.2214 -1.4749 -0.168 -0.748 0.643 121 95 61 0 0
0.0012 -0.2251 -1.4781 0.049 -0.994 0.099 89 66 29 0 0
0.0012 -0.2256 -1.4830 0.037 -0.995 0.088 90 67 35 0 0
0.0012 -0.2325 -1.5051 -0.080 -0.927 0.365 71 47 19 0 0
0.0068 -0.3653 -1.6312 -0.032 -0.896 0.443 81 57 28 0 0
0.0023 -0.3029 -1.7021 -0.038 -0.969 0.243 93 73 41 0 0
0.0022 -0.3366 -1.8331 0.118 -0.966 0.232 75 49 23 0 0
0.0022 -0.3374 -1.8381 -0.121 -0.894 0.431 79 54 25 0 0
0.0022 -0.3389 -1.8426 -0.086 -0.876 0.475 81 56 26 0 0
