ply
format ascii 1.0
element vertex 688
property float x
property float y
property float z
property uchar diffuse_red
property uchar diffuse_green
property uchar diffuse_blue
end_header
0.37211201261397603 0.3314434899093653 -1.0810822903327801 194 194 196
0.3789715912894175 0.32832983986037617 -1.0828170536614763 194 194 196
0.38451903495412976 0.3258498568197386 -1.0850985818423917 195 195 197
0.37945962280811224 0.3284992214734735 -1.0919614624026175 196 196 198
0.4209593002464046 0.30862774072091087 -1.078589046946064 196 196 198
0.37359066716509304 0.33174510613388514 -1.103905619776959 197 197 199
0.3804900856960548 0.32861064532307727 -1.1055875283149028 197 197 199
0.3727136484352998 0.3325780395875715 -1.113718780391698 197 198 200
0.37583337609579714 0.33127264985228305 -1.1170622604301501 198 199 201
0.3744709118544759 0.3321370139765138 -1.122392933228844 198 199 201
0.15606600822650507 0.4803860086074007 -2.2005301907496198 131 127 120
0.17025519585590465 0.47357807174807526 -2.1956427116283357 135 129 121
0.18843163688606657 0.464774263953629 -2.1874711062843906 133 125 117
0.19960912465667546 0.45946680142170726 -2.1849010598651866 129 121 112
0.20995731980419163 0.4545721908849747 -2.182961886057439 129 119 109
0.2204608783195835 0.4495981214377691 -2.1808557509073503 126 115 105
0.2313316215498844 0.4444385557632002 -2.178408015221426 124 113 101
0.24259009305797785 0.4390830928685414 -2.175599043176276 124 112 98
0.2515739328286515 0.4348642728188622 -2.174618509046021 123 111 96
0.26362904871735005 0.42910630761938684 -2.171067258314955 123 110 94
0.2769826015697725 0.42269600453059974 -2.166391420211039 125 112 95
0.28882185069702826 0.41704177902306494 -2.162918387134891 125 110 94
0.2800185800469237 0.4217269851851877 -2.176598921466946 124 109 91
0.2885519630168011 0.4177273042876338 -2.1758430353059555 122 107 88
0.2778739433787799 0.42335486889499213 -2.191158382667385 122 106 86
0.2840294623740215 0.42054647707727133 -2.192384547908823 121 103 83
0.29138899225098913 0.41713350176768427 -2.1925751668798763 119 101 80
0.298890782919213 0.41364803725962895 -2.192619102371178 116 99 77
0.3059074000870915 0.41040476912437995 -2.1930473433136135 109 93 73
0.3157267538177865 0.40575421551222945 -2.191066945483798 104 87 69
0.31528377791212114 0.406251976894742 -2.197801659402745 100 85 66
0.31646318539390283 0.4059359175076543 -2.2031604886641447 95 81 61
0.3141949528743757 0.4073509192583173 -2.211481311598307 92 78 60
0.31205465220225126 0.40870259659547975 -2.2197132286144807 90 78 60
0.3354619061331102 0.397223509841403 -2.205919486847437 89 78 59
0.32222271021907434 0.40415000399014117 -2.223734363485012 89 78 58
0.33851353606483614 0.3962414918212248 -2.2159949230130698 89 78 58
0.3345729717619982 0.39849797957653055 -2.225794223643006 89 78 58
0.34670907333550427 0.3926740301656598 -2.221589051911133 88 77 56
0.3506035152732895 0.39099184228735173 -2.2245481681748953 88 77 55
0.3583715978692621 0.3873611179420977 -2.224096675659629 88 78 53
0.37766406976698597 0.37793206423464043 -2.2134688517234893 88 77 51
0.3806742603979475 0.37669141114882365 -2.2171311661434734 86 76 49
0.3832916251406948 0.37564821488940836 -2.2211360214809024 85 74 47
0.3863487495547737 0.37438351870191244 -2.2247469909244755 84 73 46
0.3917565615664681 0.37193509403648445 -2.2262588403453694 82 71 44
0.3963756716990997 0.36988307950982435 -2.2284575850120034 80 69 42
0.3989972428469537 0.3688366059605592 -2.232431935746934 78 68 41
0.4001946301652889 0.36850747998354555 -2.237682111314698 80 71 42
0.40201994663992957 0.36786210353453586 -2.2423704933443807 81 73 43
0.4027147460743069 0.3677865527788632 -2.2480807458998107 87 76 45
0.40562531068696916 0.3665942544937567 -2.2517901725488514 96 84 56
0.40590529480069204 0.3667281802019833 -2.2578844444126096 105 94 71
0.4041672726349237 0.36788025592504625 -2.2658257317815673 119 110 93
0.40342274621771956 0.36853197452965436 -2.2728783335824554 130 124 109
0.40311054098262633 0.3689661582140247 -2.27954875114787 143 139 129
0.4060511589756356 0.3677592034435922 -2.2832423577853134 154 151 146
0.41264884629179266 0.3647059580568075 -2.2835615410672196 165 165 163
0.41975899408216977 0.3613929275974863 -2.2833832539110674 174 174 175
0.42850701951073034 0.3572515794845009 -2.281660756112479 183 182 184
0.43896192899072617 0.35224650120817247 -2.2783171222962637 188 188 190
0.44373488978207076 0.35011027938328765 -2.2802230980702394 193 193 195
0.44524148531307983 0.34962409932850125 -2.285166070276529 196 196 198
0.4796034892801093 0.33253058583772355 -2.259328906414368 198 198 200
0.486157127747213 0.3294891814651697 -2.259448794401899 200 200 202
0.5445149581188082 0.300249516965594 -2.2107380920611988 201 201 203
0.5521774732530229 0.29663924408028947 -2.2096260424350964 202 202 204
0.5226959817367738 0.31181969142277366 -2.2436727878812213 203 203 205
0.5057116331457802 0.32068324956606187 -2.2660119294028083 204 204 205
0.5121727648921454 0.31768413946218416 -2.266115444939547 205 205 206
0.5170893241857747 0.31546595107109016 -2.267670377294083 206 206 206
0.5265649411067375 0.31093845332970577 -2.2648421806642376 206 206 206
0.3314371381566079 0.4100398274594901 -2.458506407021661 206 206 206
0.5468956689420748 0.3017170950741414 -2.2701457015945588 207 207 207
0.5458423483502545 0.3025205897708849 -2.2773881475702837 208 208 208
1.7778396162344017 -0.30679958088000936 -1.4327683506241125 216 216 216
1.7819876233434169 -0.30880677045744537 -1.4309475744750424 216 216 216
1.7856147293697187 -0.3105434425730041 -1.4297813917591264 216 216 216
0.16834193255755714 0.3742638138529317 0.016733959832336966 180 180 183
0.16786520813786962 0.37463773331949696 0.013145049680234173 180 180 182
0.16700277639214706 0.37519046673182643 0.009553145810671763 180 180 182
0.5629381978694216 0.23276379927135285 -0.9517070095822858 189 189 191
0.5651574569391115 0.2318786559002737 -0.9550591764726896 189 189 191
0.5540690987224832 0.23739156159586583 -0.9638753708975276 189 189 191
0.49251733389033925 0.2675487904507355 -1.0023793187627594 191 191 193
0.44917345353389604 0.28859012674138773 -1.0249221904831123 191 191 193
0.42462969439660925 0.3007865812104697 -1.0442911583478296 192 192 194
0.4215188478311326 0.3024785311236061 -1.0501713394413184 193 193 195
0.39842793673917254 0.3137900332156768 -1.0645721532332897 193 193 195
0.38336074764683303 0.3212420458572763 -1.0756354119237752 194 194 196
0.40686647119275793 0.310120829322063 -1.0702018517347982 194 194 196
0.3580143350661706 0.33384789007774995 -1.0958846861922118 195 195 197
0.41201045519520074 0.30803710890458064 -1.0772200600760924 196 196 198
0.4127031328162235 0.30790051772703814 -1.0815413725246628 196 196 198
0.26030398686912065 0.38153863379243613 -1.1527323295349738 197 197 199
0.38103216932029094 0.3235601979723145 -1.1046949082908557 198 198 200
0.3762118595207202 0.3260842961397158 -1.111517801112269 197 198 200
0.3650797149139857 0.33165261109364724 -1.1211575406606809 198 199 201
0.3643921467183696 0.3321864229587828 -1.1262051773332047 198 199 201
0.34262288095479276 0.34288828715672237 -1.140667877555413 199 200 202
0.33979230598879534 0.3444583060836768 -1.1467335247318613 201 201 203
0.1474340044507374 0.4781919662665253 -2.1929184204490704 133 126 123
0.1625546549440121 0.4709497856962258 -2.18735569826322 136 128 124
0.17705574711009364 0.4640131964366056 -2.1822283576359682 136 130 123
0.1905342291256209 0.4575829612287122 -2.1778656186714422 134 126 117
0.20262686265601726 0.451840191576942 -2.1745684043178275 130 121 111
0.21306514817387867 0.44691898310423095 -2.172564336020349 126 116 105
0.21692903542958897 0.4452698177752986 -2.175866875140943 123 113 101
0.22560942336318157 0.44122136715912263 -2.1752315765844905 124 113 99
0.24152033922927396 0.43356955754464255 -2.168648377496833 124 112 98
0.24552606730938364 0.43184684266580875 -2.171767117155357 124 111 96
0.2541249739712772 0.42783461095137487 -2.171095972384764 123 109 93
0.2604960543224838 0.42493152923867106 -2.1722317830302806 124 109 93
0.26868686192403113 0.42112026597468966 -2.1718398581689 123 108 91
0.277168172519365 0.4171628483547557 -2.171176579184827 124 108 90
0.27919657823009214 0.41642270416839783 -2.17585541529883 123 106 87
0.28514172869472265 0.4137285259811049 -2.177262816471515 121 105 85
0.2853469445754985 0.413897725081613 -2.183459016038904 121 104 83
0.2963303211154342 0.4086879180142118 -2.180609118553257 119 101 80
0.29856622154775436 0.40784301135113993 -2.1850854563837503 119 100 77
0.3048505970008273 0.40497660974425254 -2.1861394951338924 115 98 74
0.31282552652963513 0.4012650173061848 -2.1857396265422815 110 93 70
0.31833006412005926 0.3987861756185954 -2.1874099617962783 107 90 66
0.3241097172371814 0.3961691366608705 -2.188828369526684 103 86 62
0.326261698142457 0.39536415807398806 -2.193329343980599 100 84 60
0.3281170093891549 0.3947074297223475 -2.198083831016801 95 80 58
0.3442137009460172 0.38693084294289515 -2.190592945162015 94 79 61
0.3409662975162788 0.38882426625337824 -2.1997136918369384 91 77 59
0.3325428150546498 0.39330764524350953 -2.2133370768877443 91 77 57
0.3575586117640297 0.3810648245736379 -2.1980082804227794 91 77 58
0.36365046338078033 0.3782860470446481 -2.1990255959111256 91 77 57
0.3703496434951439 0.3752024343544954 -2.199492417841693 90 77 56
0.36976191831436456 0.37576550730474595 -2.206310626053729 90 77 54
0.3701645104838712 0.37583328347591227 -2.2122727211848816 90 77 52
0.3803450522886168 0.37100462311961524 -2.209638959361639 90 77 51
0.38319952476479135 0.36984385851732526 -2.2134284856648887 90 77 50
0.3855554457885009 0.36893268033723436 -2.2176546561307333 90 77 50
0.39221502543326825 0.3658647649074702 -2.218059381985688 88 76 48
0.39544189397906715 0.3645164043946046 -2.2214954202864634 88 75 48
0.3996445179377145 0.3626785857329926 -2.2240540686058194 85 72 46
0.4024812557236196 0.3615251948391801 -2.2278238476601975 84 70 43
0.4047456624761544 0.3606586650460572 -2.2321028351666685 87 73 46
0.4065050800225072 0.3600453996454501 -2.2368347752709994 86 73 46
0.4087410865868437 0.3591930362218796 -2.2411374306890957 91 76 46
0.41450733731589295 0.3565688516865948 -2.2422427218744767 94 79 49
0.4148157372445629 0.35668361275884786 -2.2482833289599555 97 82 53
0.41288637503530423 0.35792230726887886 -2.256369588360916 106 93 68
0.41195263971349527 0.35866183850406447 -2.263566751225717 112 102 79
0.4230244269193748 0.35337141905032565 -2.2597870938609077 124 115 98
0.4231698517331901 0.3535686969102058 -2.2659921892588852 137 131 118
0.4246634333655944 0.353088870913453 -2.270965297059575 149 145 138
0.4218163318904604 0.3547909773093343 -2.279948426339341 159 158 155
0.43385360582785204 0.3490109043574061 -2.2751752597378196 171 171 169
0.4393728622083498 0.34650630539692295 -2.2764015524091317 181 181 181
0.44531652736063465 0.34378744466736955 -2.2772140998521633 187 187 189
0.4495362501512318 0.341934993205382 -2.2796153881122567 191 191 193
0.4717959638202015 0.3310042891556311 -2.2651144578163707 195 195 197
0.4801581665836462 0.3270638513398193 -2.2635555405830265 198 198 200
0.48822812338954413 0.3232691000788409 -2.262238076986129 200 200 202
0.5457115640633672 0.29459153063252197 -2.21423665787294 201 201 203
0.49844324616252966 0.3186594734392952 -2.265115518095946 202 202 204
0.5093582963346108 0.31342800791545955 -2.261015639968975 203 203 205
0.5158070543854487 0.3104449571071785 -2.261120191600902 204 204 206
0.5154768395814397 0.31087737482011624 -2.2676720787381535 205 205 206
0.5181507896344256 0.30979590358143694 -2.2713599153799713 206 206 206
0.5285172857796372 0.30483560513761054 -2.2676595424056725 206 206 206
0.5378858688274379 0.3009074975412182 -2.2773210846830634 207 207 208
0.5432320692786783 0.298475532040254 -2.2783706374651085 207 207 208
0.5547508244023487 0.2929270269649127 -2.273394755910659 208 208 209
1.7807850009443345 -0.31111655375964453 -1.427914830895002 216 216 216
1.7844814087943046 -0.3128821455883799 -1.4266684009652328 216 216 216
1.7885125459664208 -0.31482203732019653 -1.424971090085302 216 216 216
0.16567896618308503 0.37115994951869113 0.01678717769591328 180 180 183
0.16693530995675768 0.370731170020876 0.013183630584140951 180 180 182
0.16524513091397636 0.3716619867405601 0.009597224531874268 180 180 182
0.5589928034307426 0.23026933511330755 -0.9527528223908567 189 189 191
0.5587650352910388 0.23055735769722666 -0.9571101535391459 189 189 191
0.44380367741528587 0.2863570412196933 -1.022056762925245 191 191 193
0.4517626121184176 0.2827321512113481 -1.0232361388324367 191 191 193
0.4335090844527232 0.2916695071785939 -1.035394978616864 192 192 194
0.4399520436026847 0.2887713887661076 -1.0372151741451405 192 192 194
0.4195557315213383 0.29874034469423705 -1.0503829863647205 193 193 195
0.40710867433183573 0.3049009230497999 -1.0602516295078586 193 193 195
0.383850672129184 0.3162485869943885 -1.074790884476245 194 194 196
0.40418164263617895 0.3066916419978705 -1.070721506475568 194 194 196
0.4056971133106013 0.30615855857995045 -1.0746902517193546 195 195 197
0.34661346758575545 0.3347028135721628 -1.1048850353541733 196 196 198
0.3145186894243866 0.35030439469599783 -1.1235764730875326 196 196 198
0.2845720466012855 0.3648802067589897 -1.1414567370146185 197 197 199
0.2693948865929923 0.3723706699408439 -1.1529810017146809 198 198 200
0.3734342455075036 0.3226225759945866 -1.1120823928953452 197 198 200
0.3684280502568351 0.3252246343360924 -1.1190128248428926 198 199 201
0.36293457820502467 0.3280617908546212 -1.12618482120224 198 199 201
0.33997727256706234 0.33928939500858524 -1.141171134334846 199 200 202
0.3473659874745399 0.3359408201592965 -1.1426617666564105 201 201 203
0.15129563426151793 0.47007441930781113 -2.1818815151785556 134 129 125
0.16578867509134332 0.46317184390769495 -2.1768395834672694 133 126 123
0.1792980147727904 0.45675397685876873 -2.172525939282727 133 125 121
0.19033188366258535 0.45156009561744725 -2.1701456619234336 130 123 115
0.20142240877883744 0.4463363339788237 -2.1676766501010754 128 119 110
0.21107630937369692 0.44182270662855266 -2.166324926696854 125 115 104
0.22356373309994215 0.43590302536000824 -2.1626403251537254 123 114 100
0.23304552992640282 0.4314713572742859 -2.161348276575731 124 113 98
0.2406036283775106 0.4279921037946913 -2.161588446300146 124 112 96
0.24753783599136692 0.4248211656637511 -2.1623119547178224 124 112 96
0.2580676350837764 0.4198655127679031 -2.160063095911855 124 111 95
0.26268050636257234 0.4178440220341844 -2.162639447110946 126 111 95
0.2716669828781707 0.41365143327638926 -2.161595342039014 125 109 93
0.28683218472650607 0.40639036166042997 -2.155405376192962 123 108 90
0.2828122017621787 0.408651893001873 -2.165070635542792 123 106 87
0.2898151579914805 0.4054407229010766 -2.1655917781413376 122 105 85
0.2912884821836532 0.404975078903149 -2.170703811531416 120 104 82
0.2972043292191986 0.4023024959898204 -2.172099510540303 118 101 78
0.3041780081864254 0.39910346579270095 -2.172587855099173 118 99 76
0.30676984469976687 0.39808121061353774 -2.1767413119775254 118 98 74
0.31357643022391923 0.39496363939822254 -2.1773325265698293 117 98 74
0.32612881298631546 0.3889881877730646 -2.1730336301997775 114 97 71
0.32891639077178136 0.38786674348197747 -2.1769768895352324 108 90 62
0.3331644606723754 0.3860186524663147 -2.179671962989694 107 88 61
0.3356496441473915 0.38504716701711533 -2.1838619099856174 106 89 61
0.3480442253688245 0.3791443816455445 -2.179558589208547 104 87 61
0.34572862235694835 0.3805611554310142 -2.18784423941453 100 84 59
0.3368237287546678 0.3852592117105932 -2.201829854655938 97 82 57
0.3540159548889543 0.37696471418782557 -2.193313997393027 93 79 54
0.3658446126052902 0.3713383328091635 -2.1893713107658814 93 79 54
0.37012541965022594 0.3694698487099462 -2.191940589223596 92 78 53
0.3748455214140244 0.3673819952157651 -2.1941152584303065 92 77 54
0.37488459311424416 0.36762640150251286 -2.200368671977196 92 77 53
0.3730625272990137 0.3687989246991833 -2.2082635450712984 92 78 51
0.37755838372636064 0.36682230789308656 -2.2106219193479957 91 77 50
0.38428036011332023 0.3637350389012773 -2.2110044254778938 91 77 50
0.3869493520786993 0.36266832086758877 -2.2149471836454895 91 77 50
0.392646189336597 0.3600908914475861 -2.216200957659279 89 75 48
0.3994505534096783 0.35696001576480596 -2.216450722197311 93 77 51
0.4034629172348032 0.35522159888991034 -2.2191661959654816 91 76 49
0.40664281194121277 0.35389831660408055 -2.222615800781511 92 76 49
0.4097444657065651 0.3526138369862473 -2.22612929496852 95 79 51
0.4123574640068547 0.3515731543739822 -2.230076459624207 97 79 53
0.41403398585755835 0.35100012443959183 -2.2348650085071475 99 79 52
0.420923581041733 0.34782251280499127 -2.2349387476647293 100 80 51
0.42350939504026686 0.34679462350226997 -2.2388917068172964 103 83 53
0.42399785331367257 0.346814958933647 -2.2447495014633865 98 81 52
0.4226200090252489 0.3477686793312721 -2.252317462913394 95 81 53
0.42846132778410373 0.3451130554135794 -2.253297410548382 107 95 72
0.4269445027986418 0.3461369418323572 -2.261008410489895 118 108 89
0.4259419866426586 0.3469042756297692 -2.2682640026482286 131 123 111
0.4255119686079034 0.3473857740060715 -2.2750065562347848 144 140 133
0.43437395847907667 0.34321714399521996 -2.2731639233641534 156 155 151
0.43895346212595177 0.34119085630468426 -2.2752589164587897 167 167 167
0.44637724922175703 0.33773981264891734 -2.274693775181674 179 179 182
0.45074985835214887 0.3358156807666435 -2.276946964509476 185 185 188
0.4545328093972446 0.3341863958749485 -2.2797391492453754 190 190 192
0.47917272038216796 0.3221064406136215 -2.2629527610776345 195 195 197
0.48083023215508325 0.32153923062716416 -2.267670866163957 198 198 200
0.48639620304245756 0.31901290684330164 -2.2687027770737562 199 199 201
0.4967148732352973 0.3141029007578968 -2.2652190623300097 201 201 203
0.5064213632104378 0.3094980409109893 -2.2622719959261066 202 202 204
0.5131646912533911 0.3063777638498662 -2.262102877334596 203 203 205
0.5214567702321122 0.30247940022010267 -2.2604307712616696 203 203 206
0.5253918079970362 0.30076604930768863 -2.2628928861615907 204 204 207
0.5250951448951637 0.30117624436913815 -2.269403416489604 205 204 207
0.5275716205672001 0.3001947052075856 -2.273258018372627 205 205 208
0.5326340830855922 0.29791448625306616 -2.274615201265265 206 206 209
0.5905015491255972 0.26911175184880853 -2.224882982495962 207 206 209
0.5906740687196615 0.2692807926555747 -2.2308086038681147 207 206 209
0.5531975623370677 0.2883681842485256 -2.2733571159206196 207 206 209
0.5580538880644885 0.2861881262013318 -2.2748332967093368 208 208 210
1.7837104862069975 -0.3154043816092989 -1.4230940942585368 217 217 217
1.787497098295116 -0.3172101256724861 -1.4217219586603151 216 216 216
1.7912643372069308 -0.31900663159545856 -1.4203568322440747 216 216 216
0.16488441948919014 0.3671927005095188 0.016824122573730813 180 180 183
0.166670054011402 0.366520100912554 0.01321728246031553 180 180 182
0.16553285901037143 0.36719144239308493 0.009628877345567288 180 180 182
0.4448575540975611 0.2812349582937164 -1.021016739538346 191 191 193
0.4377715857299644 0.28480299708179835 -1.0284769217503296 191 191 193
0.43443457118556816 0.28658265692537765 -1.0343965902827938 192 192 194
0.41566453603425324 0.2957318061871258 -1.0468374886329663 193 193 195
0.409968393078637 0.29864074915120115 -1.0538209871544173 192 192 194
0.3667332934798984 0.3194801093569678 -1.0767883048086413 193 193 195
0.36944085882100997 0.31837977561431374 -1.0803083692459772 194 194 196
0.3854391396216633 0.31092935606980887 -1.0781257757311884 195 195 197
0.38268265865659856 0.3124386732255513 -1.0839665474916118 195 195 197
0.3797414162526641 0.31403697519740936 -1.0899037634799302 196 196 198
0.3281455089068967 0.33889305636234607 -1.1169928723009612 196 196 198
0.3145351958763123 0.34559721129646287 -1.1277100232205157 196 197 199
0.2943546975632821 0.355445318919316 -1.1413631372907584 197 198 200
0.3647426807874437 0.32198382124650565 -1.1152483899434276 198 199 201
0.3739970455141688 0.31775264156846844 -1.1158893528968774 198 199 201
0.39957047129547263 0.30571341358947535 -1.109260191261793 198 199 201
0.40848561666485883 0.3016409212105638 -1.1099646881276632 199 200 202
0.15474250578761506 0.4621959102124273 -2.171217998227908 136 133 128
0.1665086650351142 0.4566648404208732 -2.1683640846910235 134 128 123
0.1842418741438172 0.4481900458889695 -2.1607030103235654 131 124 117
0.19285295743599973 0.4442103538466693 -2.160266970701565 129 121 113
0.20120821226776542 0.4403555409572468 -2.1600048487316554 127 118 108
0.2097476910566456 0.4364085996395247 -2.159564152371428 124 114 103
0.225727626721543 0.4287892073549233 -2.1530844757895804 124 112 98
0.23481226431210955 0.42456990758706414 -2.15212186956401 125 113 97
0.2427727649852519 0.420904082095897 -2.152038337165531 125 113 97
0.24965181666152203 0.4177709884683588 -2.1528071620680853 126 113 97
0.2565300055837879 0.41463735026808757 -2.153553183095191 125 112 96
0.26882079682741755 0.4088294355940426 -2.1498399594690496 126 110 94
0.2763852115823192 0.40535431000132083 -2.149961654687339 127 110 94
0.2804002040801773 0.4036318523882754 -2.152982342957674 124 107 89
0.28514015853544195 0.40155071002286646 -2.15539381718467 123 107 88
0.29507834880082606 0.39689950216368725 -2.1534813847483996 123 105 85
0.30410799352949136 0.39269588391874505 -2.152285799198712 123 105 83
0.30706723318466755 0.3914926993420742 -2.1561191993381605 119 101 77
0.30580038064337667 0.3923795738378781 -2.1634831862112067 116 98 74
0.3087891189473434 0.3911618277709188 -2.1672926056264084 115 96 70
0.3140321442124684 0.38882843415087187 -2.169200186172418 117 95 70
0.3243361914797691 0.38398962090632427 -2.1668206296732535 112 93 68
0.3284080475475425 0.38223413159077646 -2.16967490739234 105 88 61
0.3293048132606351 0.38205024940426024 -2.175214005974458 104 87 58
0.33346095323090386 0.38025248931377315 -2.1779836465794236 107 89 59
0.3476043965872334 0.37350738264399846 -2.172215410618307 108 87 58
0.345861083842092 0.3746304220529617 -2.179990195140938 107 87 58
0.344602576845334 0.3755139875856215 -2.1873670326177783 107 88 58
0.3530639986987588 0.37158076262350204 -2.1863887504345936 102 85 55
0.3655740836503606 0.3656391634014119 -2.1818812196896706 98 83 53
0.3674929176597026 0.36494687292271094 -2.1864954044285403 96 80 53
0.3699274613037222 0.3639988310794577 -2.190661757414961 94 78 51
0.37455768136822476 0.3619615505512684 -2.192912804669925 91 78 50
0.3751918225404276 0.36190633716000997 -2.1986418787983513 90 76 49
0.37377541964599503 0.36286896883920106 -2.2061742913640208 91 76 47
0.384246346726824 0.35793203714124283 -2.2032778071661436 94 78 49
0.38745544901890816 0.35659848851248205 -2.206737962272534 95 80 50
0.3906271271846765 0.3552832606267222 -2.2102248347911253 97 81 52
0.3945299614577813 0.35360464082056775 -2.213057504688843 97 81 52
0.4030188990914193 0.3496473957499846 -2.211804050684121 98 82 52
0.4062808542967786 0.3482859121315742 -2.215176550104799 99 83 53
0.41048589897982624 0.3464554601672022 -2.217699323624278 104 86 56
0.4129363663450665 0.34549669689435725 -2.221783436627033 105 84 55
0.41538568197781134 0.3445383982516476 -2.225865969321232 105 84 54
0.4246214540469876 0.3402051581264965 -2.2238277618051683 103 82 52
0.426196422412324 0.3396808241330288 -2.228678213078845 101 82 51
0.42798664563353794 0.3390494756373219 -2.2333353217855376 100 83 52
0.43282395041391064 0.33690191057060404 -2.2352227816650294 94 77 47
0.4340079070606263 0.3365720447940851 -2.2404262753593858 85 69 40
0.43457112229434736 0.3365513528955456 -2.2462011436222866 85 68 41
0.43363729791726724 0.33727636290493757 -2.2533556525356384 100 85 60
0.43265658812664765 0.3380253322566137 -2.2605680209718733 113 102 84
0.4296666123705376 0.3397758115177517 -2.2696480486335253 125 118 107
0.4295444004902891 0.34009849644813955 -2.276101906725933 139 136 127
0.43750247155478816 0.3363948092723529 -2.2750742594581883 154 153 147
0.4441842869516818 0.33332599306673605 -2.2752020850177 165 167 165
0.44895964613123385 0.3312066508524932 -2.2770828508489487 177 179 178
0.4544814320964634 0.3287144758198185 -2.278250912589386 183 185 185
0.46033328383485816 0.32605689807076554 -2.2790907868917385 189 190 192
0.48004307853071015 0.3164849244510791 -2.266880701750753 194 194 196
0.4856884840211543 0.31392717429759476 -2.2678380022678333 197 197 199
0.49044295704983965 0.3118132838788721 -2.2696180756602256 199 199 201
0.5025293138902378 0.306038617601122 -2.2644320937305005 201 201 203
0.5065394027512926 0.3042943836702008 -2.2668706992574252 202 202 204
0.5066620556523765 0.30449118595085817 -2.273004163260246 202 202 204
0.516305157929262 0.2999325568213981 -2.270045827267819 203 203 205
0.5293693806146229 0.2936628913930226 -2.26376715337022 204 204 206
0.5270402168090965 0.29508370929624594 -2.2722260984983014 205 205 207
0.5501974681023808 0.28376570007202184 -2.2561414339719468 205 205 207
0.5802217094185346 0.26900972097744313 -2.2333068349797287 205 205 207
0.5821476422517226 0.2682990627732309 -2.23755524219823 206 206 208
0.5951335725855125 0.26205625297987867 -2.2310546033379373 207 207 209
0.5899251860337933 0.26491366378908343 -2.242225137813549 207 207 209
1.7866163261211727 -0.3196633860075046 -1.4183057412914268 216 216 216
1.790382739599215 -0.3214521466867871 -1.41695053882271 216 216 216
1.7941300342306579 -0.32323183113018195 -1.4156021243404127 216 216 216
0.16721597285582687 0.3617948360660035 0.01683374417843445 180 180 183
0.17743301331560704 0.35725942842289404 0.013169126672038706 180 180 182
0.1895591181780374 0.3518483104408768 0.009515846035364688 180 180 182
0.4636843224230264 0.26785490665373235 -1.0170550979757684 191 191 193
0.4626679260654859 0.2685196672066035 -1.021950250848695 192 192 194
0.4026011345875422 0.2972674307387363 -1.0517217683731206 193 193 195
0.4024319422624786 0.2975344536434916 -1.0563874117485577 193 193 195
0.4283788271861143 0.2853777940570448 -1.0499653475642026 194 194 196
0.41935047364443134 0.28985855298661084 -1.0583760182943496 194 194 196
0.43134747670186313 0.2843355542032413 -1.0578163717310654 195 195 197
0.40096730536588043 0.29898028593605863 -1.0754569817424287 195 195 197
0.3888128269263982 0.30495401969735536 -1.0853388217681692 196 196 198
0.3172908629276797 0.33919462626537616 -1.1210449935749809 196 196 198
0.33382575030630235 0.33151591482041987 -1.1186327669383875 196 197 199
0.3110199371076813 0.3425709809414116 -1.1333909289873878 197 198 200
0.3588995655998054 0.31996042186626095 -1.1171579951179815 198 199 201
0.36203626518956233 0.3186584866599186 -1.1205109339289978 198 199 201
0.37777727701182695 0.3113506404285048 -1.1182685484499746 198 199 201
0.41444908153495497 0.29406596322325385 -1.1066512742813253 199 200 202
0.13340537629629168 0.4659779549904744 -2.1671271909215246 139 134 128
0.14655999650042084 0.45979095001350634 -2.1632854516262294 139 135 129
0.16169273288652375 0.4526314299625662 -2.1578280190783734 135 132 125
0.17342751045276283 0.44713660851303816 -2.155001581385126 130 124 118
0.19000818745761427 0.4392617880982848 -2.148276797468375 127 120 112
0.19973925238176915 0.43474626764109947 -2.146944166968347 127 117 109
0.21221373653538234 0.42888238912342774 -2.14338081113863 126 116 106
0.2202131878527711 0.4252139096344687 -2.143357025016039 125 115 103
0.2301924056924345 0.42057192789816106 -2.1417118681376097 124 112 99
0.2401123154506476 0.4159575300062904 -2.140076385439014 122 110 95
0.24340969793933998 0.4145954624186969 -2.1437626741538653 124 112 96
0.253393992081108 0.40994698307545924 -2.142014816448838 125 112 96
0.2581094276174103 0.4078867428940476 -2.144518105726339 124 109 94
0.26693511506153145 0.40380525760712815 -2.143652060528933 119 104 88
0.2761691534049685 0.39952163569608856 -2.1424185889218927 121 106 89
0.27711439896675194 0.39931322007121384 -2.14795845079923 123 106 88
0.28278631876308213 0.3967798521318534 -2.1496094575139617 121 104 86
0.2904319030162078 0.39327467321400444 -2.1496118475334205 119 103 83
0.296189578365206 0.3906974551077609 -2.151151201751309 118 101 79
0.2897574036069128 0.3941195693777739 -2.1628034391852764 119 101 78
0.3091364938676707 0.3848359925572409 -2.1529814278348964 114 96 72
0.30763511990848014 0.385830871980567 -2.1605306424849355 110 93 67
0.310075112355811 0.3848852529648843 -2.164792225363255 109 90 62
0.3113424999916473 0.3845171869320386 -2.170037605691179 110 89 61
0.3215955967472086 0.37972185717176077 -2.167708250198511 107 87 60
0.3240605482917045 0.3787629991051038 -2.171925602253492 106 87 59
0.3280420531973567 0.3770565089332735 -2.174854059016508 105 86 56
0.3330241336313051 0.3748563161576451 -2.1769213603070408 101 81 50
0.3396081704400751 0.3718655676374462 -2.1776069508869886 99 78 48
0.34177365872790966 0.3710531961513227 -2.1820506602181924 102 81 51
0.3419499862596799 0.37122207319933054 -2.1882004397331163 104 84 53
0.3508549052334724 0.36708446018932134 -2.186846723144669 103 84 53
0.3601598124665476 0.36274804407929384 -2.185113254364792 102 84 54
0.37282497840203066 0.3567514490148237 -2.180434434594226 101 84 56
0.37075000388287904 0.3580302184137214 -2.188498621092524 100 83 54
0.3739686064935228 0.3566957107068309 -2.191974143476007 99 81 53
0.3766536544417758 0.35562448148311704 -2.1959091872104137 99 80 51
0.3765920981986638 0.35590999909402565 -2.2022455852418132 102 82 53
0.38896755643962 0.3500504389172008 -2.1976705041190567 107 86 55
0.39222145238444783 0.348696908751146 -2.2010760491532277 105 86 53
0.3958160992260811 0.34717466603653957 -2.2041740470480593 105 85 52
0.4010467719258328 0.3448431754946968 -2.2058146748872383 107 86 54
0.407389210931275 0.3419611993235201 -2.2064511803161984 107 86 54
0.4113073970588734 0.34027745275126503 -2.2092248274662443 105 85 52
0.4150042004370328 0.3387028257460576 -2.2121861826258673 111 89 57
0.4181968845830005 0.3373772969979387 -2.2155901910612825 117 93 62
0.4214421218479546 0.33602549679080246 -2.2189405769867445 111 89 58
0.4218117550705691 0.33609700198104064 -2.22487494821318 103 82 51
0.4237600802542685 0.3353871300825976 -2.229390978813158 102 83 51
0.43608754443683373 0.3295368773116296 -2.224503223303061 100 83 50
0.436469248725859 0.3296019683546812 -2.2304159248944964 92 75 44
0.43698786845527204 0.3295995426483247 -2.23621177092634 89 72 43
0.4370767645805086 0.3298103688839272 -2.242407466149449 84 67 38
0.43953156063915344 0.3288488564572596 -2.2464447869455486 89 73 42
0.43890928938155516 0.32941278608710267 -2.253306738699234 103 88 63
0.4370502033573067 0.3305905682380709 -2.261321456917556 113 102 85
0.43499460272545987 0.33186661381051563 -2.2695373089278044 124 116 104
0.43431013811344865 0.3324632816640618 -2.2765032944334416 138 134 124
0.4364981162916921 0.3316351913140885 -2.280813823764617 152 151 145
0.445879310348242 0.32723700945824524 -2.278420588796872 165 165 163
0.4557712370292969 0.3225837229942605 -2.2755114526683684 177 178 177
0.46118834391432284 0.32015058016742726 -2.2767536744381136 185 185 186
0.47558834959918483 0.3132555810497274 -2.269537522540104 191 191 193
0.48498087067069506 0.3088453007166946 -2.266974229685119 193 193 195
0.49064377301496687 0.30628643866216665 -2.2678955821483546 196 196 198
0.494373395141924 0.3046875051774054 -2.270628891135925 199 199 201
0.5125226231186568 0.2959209416664897 -2.2596532958278757 201 201 203
0.5105808963699033 0.2971392298290383 -2.2677324790028126 202 202 204
0.5105516472858691 0.29740733415569304 -2.2740048126332124 203 203 205
0.5328222661249649 0.28658458978459117 -2.258925290445904 204 204 206
0.5333938259375448 0.2865522386865107 -2.264581898058504 205 205 207
0.5650784284144801 0.27103883429499526 -2.2402765301010676 205 205 207
0.5775603160576882 0.2650760363777006 -2.2343606874673196 205 205 207
0.5691920450663078 0.26949012933777744 -2.248582381488519 206 206 208
0.5582151888890283 0.2752052572761673 -2.2653917521130866 207 207 209
0.5585133598209227 0.2753080301196469 -2.271289288662319 207 207 209
0.5955051204455578 0.25713322910314185 -2.2413635616545777 207 207 209
1.789502621022644 -0.3238938069041595 -1.4135495714155022 216 216 216
1.7932491392768863 -0.3256658314690067 -1.4122109541789616 216 216 216
1.7969766384210808 -0.32742886163121687 -1.4108791019234568 216 216 216
0.17934348018110186 0.3519363210489134 0.016757590839668806 180 180 183
0.18726380017483457 0.3484626617129438 0.013127614582971136 180 180 182
0.19935352505092374 0.343084450542125 0.009489087786557538 179 179 181
0.3509138107512838 0.31668052485531795 -1.0635006277646109 191 191 193
0.45897715140602974 0.2656879722015838 -1.0228951742522636 192 192 194
0.38686984000300595 0.3000224689625749 -1.0577230114088894 193 193 195
0.417681086756125 0.2856100721414847 -1.0493190540433288 193 193 195
0.41043931648584864 0.2892238397974322 -1.056962974506514 194 194 196
0.4148216296824626 0.28733028042695136 -1.0596831695317808 194 194 196
0.4198254604496716 0.28514173356190625 -1.0621270475702906 195 195 197
0.4675043633675014 0.26272266990112236 -1.0462023742378093 195 195 197
0.4145114866316356 0.2880274705763437 -1.0735962994092971 196 196 198
0.3875801682150699 0.3009821052882437 -1.089886791736139 196 196 198
0.3687280197814103 0.31010928697219187 -1.1027637258306646 196 197 199
0.3296465187416619 0.3288352426202571 -1.1245698609710382 197 198 200
0.3509459434759381 0.31892134294279645 -1.1199927894661001 197 198 200
0.28160847889011953 0.3520113012003398 -1.1553449194607561 198 199 201
0.37273402564494673 0.3089609142675839 -1.119842069657963 199 200 202
0.38054718299980006 0.3054409574189344 -1.1210861905733314 199 200 202
0.11979374900576223 0.4615596084902738 -2.0474818639557695 214 214 214
0.1324461557927542 0.4602702409044307 -2.159970076542195 140 135 129
0.14175614190731656 0.45598485839069874 -2.1591713282606704 137 132 126
0.15845039845706288 0.44809230903702096 -2.152524624259322 133 127 120
0.16934057679082082 0.4430317169769314 -2.150391888684158 131 124 117
0.20203031085941914 0.4278304905166439 -2.1437262182091548 126 115 105
0.21634762400626995 0.42108804605789707 -2.138686015182542 125 113 101
0.23476087625694975 0.4123408393158915 -2.1303037766641166 126 113 100
0.24189575824594955 0.4091053316604957 -2.130910785011396 124 111 97
0.24900270934211632 0.4058825032635154 -2.131515748471241 122 109 93
0.25505573969023987 0.4031742391873884 -2.132948626201239 122 109 93
0.26142258449877065 0.4003116600605825 -2.1341074625000958 122 108 92
0.267509808004725 0.3975850761743137 -2.1354727689796853 121 105 89
0.26537691861691026 0.3988810757472552 -2.1435261337092606 117 102 85
0.2721241342828765 0.395830607842765 -2.1443316358498365 115 100 81
0.27922000337393693 0.3926085048871709 -2.1448279569669584 115 99 79
0.2843189194056587 0.3903634111926128 -2.1469436059104683 116 99 79
0.2920815019610771 0.3868129410724541 -2.146844748223832 114 99 76
0.29421908367729455 0.3860172539298654 -2.1513761120212083 115 99 75
0.2926117153515557 0.3870566960188828 -2.1590172000327335 111 93 68
0.29700341588657364 0.38515649586440154 -2.161678487087975 107 90 64
0.3014274535244845 0.38323997404418453 -2.164301010303314 103 86 58
0.3120122833785023 0.3783021654671603 -2.16174944008301 103 85 55
0.30983543856409046 0.37962133173649537 -2.1698800629706754 107 86 57
0.31876249048866556 0.3754945837144774 -2.1686726014236006 107 86 57
0.32508363926310135 0.3726449861059574 -2.169633675782771 103 84 54
0.32535841562309264 0.37276161269365127 -2.175699036371954 96 77 46
0.3351343254839849 0.3682152375888652 -2.173694952162501 94 74 42
0.3437755584158454 0.3642243566261998 -2.172619829775993 99 78 47
0.3530646939421025 0.3599140269215337 -2.1709576492038205 105 84 53
0.33805872121366065 0.3675339421634306 -2.190094978689813 108 87 56
0.34845140170981515 0.36268103991676426 -2.1874712312046736 106 86 54
0.35782307384240075 0.3583281014643342 -2.185686325500158 105 85 54
0.3706834003939302 0.35225932177336616 -2.180846626222585 105 86 56
0.3742364449336337 0.3507630146269386 -2.1840271951624564 105 86 56
0.37614420943284765 0.3500752267427484 -2.188631236590666 106 86 56
0.3779713817592336 0.3494270747814013 -2.1933057948069767 107 86 55
0.3791916965732971 0.3490774063409691 -2.198511988872907 109 87 56
0.3823792701309787 0.34776016574049773 -2.201995426843138 110 87 56
0.39685282049095216 0.3408898401397169 -2.195540091182504 107 87 55
0.39849366041669976 0.34033213494465164 -2.2003478039954816 108 86 55
0.4022997835627634 0.3387087086362218 -2.2032404870539906 110 88 56
0.407154062561654 0.33656888412084196 -2.205193355523393 111 88 56
0.41101534354502955 0.334917437412119 -2.208015402389352 111 89 57
0.40984748281669736 0.33574253265926945 -2.2153171817945467 112 89 58
0.41371689653180255 0.3340868083969829 -2.218125154606696 112 88 57
0.4178647594003434 0.3322934947406915 -2.2206733164319994 109 87 56
0.4233652453118987 0.32983313164865846 -2.221992426474237 106 85 54
0.42625055863522976 0.32866111765224715 -2.2256544885517715 103 85 52
0.43335110871933413 0.32541069795349076 -2.2254951415866575 100 84 51
0.43862199528730417 0.32306147648921724 -2.226970632134535 99 82 51
0.4370499115421803 0.32408671335622813 -2.234659693803782 94 77 48
0.44307353924991655 0.32136547260407566 -2.2354310961093713 89 72 44
0.44247581669356306 0.3219105809345251 -2.242244331715153 92 76 44
0.44362936971863254 0.32159189015177936 -2.247462445960014 95 80 50
0.4424040513640761 0.32244765882321347 -2.2548749936811006 105 92 67
0.43889761013573114 0.3244303598651351 -2.2644101337320697 114 103 84
0.44010998501667453 0.324083821721995 -2.269603873398513 124 116 101
0.4371859620782915 0.32578059505032075 -2.278642196099796 137 132 122
0.4468064712245359 0.32128073496756504 -2.27602488682773 150 148 144
0.45545972048405914 0.31725725753463946 -2.2742708432028764 165 164 162
0.4625652740641617 0.31399734545128316 -2.2739310013169263 177 176 176
0.4685903222848661 0.311270516825213 -2.2745787024155923 184 184 186
0.4787809654227536 0.3064830857759617 -2.271282848232003 190 190 191
0.4883745918427056 0.30198919551684344 -2.2685074410016486 194 194 196
0.4938642407587781 0.29952383581996733 -2.2695773956031147 197 197 199
0.4959667505222455 0.29873361387410635 -2.2738443125355077 200 200 202
0.5068016811535018 0.293621807908974 -2.269796649341034 201 201 203
0.5123511260076135 0.2911243869970134 -2.2707478338816496 202 202 204
0.5339313278683178 0.28068945262298406 -2.2563336594496164 203 203 205
0.5408304664948519 0.2775204354286064 -2.2559083901683246 204 204 206
0.4736722659084276 0.31103137136615266 -2.3267419517413743 205 205 207
0.4651173844561929 0.31552414976828685 -2.3413759320296235 205 205 207
0.4718896915290557 0.3124242630381018 -2.3412307921144464 206 206 208
0.47895006146271435 0.3091805801004974 -2.3407803930043722 207 207 209
0.48690246339987864 0.3054936016508295 -2.3394346053195143 207 207 209
0.48869483152054227 0.304859704885832 -2.3440679385151215 207 207 209
0.49291965590603726 0.3030194783182407 -2.3463217752491015 208 208 210
0.5034381781485051 0.29805678015556625 -2.342388048095274 208 208 210
1.7923697038477082 -0.3280960008958321 -1.4088250858483566 216 216 216
1.7960140564133917 -0.32980956294424096 -1.4076090410727378 216 216 216
1.7998042512957313 -0.3315979586441304 -1.4061875638253567 216 216 216
0.17464327172958244 0.3497759002379685 0.016828537865776698 180 180 183
0.1838043297098047 0.34574806901768784 0.013184713273224387 180 180 182
0.18776406449980734 0.3440862509044967 0.009592881318065336 179 179 181
0.342045501599733 0.31589696943179146 -1.0618909499936624 191 191 193
0.36507000678883494 0.30522138263793197 -1.0569730074681696 191 191 193
0.3705613473984952 0.30281334690767026 -1.059318620817068 192 192 194
0.3424729513839534 0.31624722401207234 -1.075774114411348 193 193 195
0.3674596228990538 0.3046414708450409 -1.0699176617552268 193 193 195
0.4327849506306665 0.2739952411733636 -1.0468588377419077 194 194 196
0.5388791364137934 0.22409666463237776 -1.0061897453342894 194 194 196
0.5179771122342416 0.2341349004201035 -1.0194898735971416 195 195 197
0.4969245498438177 0.24424749204010304 -1.0329382687543898 195 195 197
0.4192378155314215 0.28110737186087187 -1.070922311543677 196 196 198
0.3690385951684121 0.3049965950130323 -1.0972831930439533 196 196 198
0.4026327700186376 0.2893119454358456 -1.0873478839738588 196 197 199
0.33979703534105976 0.31918026618477535 -1.1194661673292448 197 198 200
0.34025067025043715 0.3191527839061061 -1.1240283293309898 197 198 200
0.3789750003148859 0.3010391316828181 -1.1117144472395646 198 199 201
0.36809524993966636 0.30636608155370915 -1.12123449563099 198 199 201
0.3827552091642213 0.29962130414225335 -1.1194405788055526 199 200 202
0.3338011423244812 0.32295205055153103 -1.146015890582807 200 201 203
0.11110540756909315 0.4599203286806395 -2.0525860462832175 213 213 213
0.12923541887673284 0.4556691901035478 -2.15458473671073 141 135 127
0.16419189856001415 0.438936477585947 -2.133748183165904 134 128 121
0.17060372719381767 0.4360722210188964 -2.135147418115155 128 120 113
0.1780333525780906 0.43271234441515016 -2.1357252143695584 127 118 110
0.18997779597892195 0.42715613168259237 -2.132714550939351 126 116 107
0.21914292363995436 0.41372069325570315 -2.1287099495766926 126 112 102
0.22655106302963635 0.41036517637773084 -2.1291495827127838 125 111 99
0.23556199050440818 0.40622854266988884 -2.128279515756474 124 109 95
0.23594600969759016 0.40629028053858246 -2.1343074336530106 120 105 90
0.239152536191247 0.40497802766365043 -2.1380685873248018 118 103 88
0.24493454911458712 0.4024112864590814 -2.13974233051232 119 104 87
0.24982613829304778 0.4002775547046171 -2.142119786235533 120 103 87
0.2776326414396604 0.3869793752810431 -2.1258517688217853 119 102 85
0.28301716528510723 0.38460218518433703 -2.127744198509093 117 101 83
0.28359854025076836 0.38456530390890387 -2.1335487277334226 115 100 79
0.28783446072482655 0.3827471940988475 -2.136362139950337 116 100 78
0.2908022700271228 0.381546947759297 -2.1402079790143884 116 99 76
0.2968571964557083 0.37884103821401893 -2.141501647832556 111 94 70
0.2993869104029505 0.37785380729893076 -2.145692991003904 107 89 64
0.3074055192392363 0.37418868753116696 -2.1453256975568262 104 85 60
0.3055051208298889 0.37536239657851445 -2.1531862352699216 106 87 61
0.311103239053522 0.37287722509992277 -2.1548051024385493 107 88 61
0.3169031089636932 0.3702928754002001 -2.1562373306126488 107 88 59
0.31679683540739945 0.3705913958727201 -2.162610823903084 107 87 58
0.32233841792749185 0.3681322733163937 -2.164237574588675 106 86 57
0.3284210121640787 0.3654082161092883 -2.165389801266139 104 84 54
0.33769278360640886 0.36112536455515304 -2.163820024771568 102 82 52
0.34211887200446844 0.35920881812985894 -2.1663313162004507 101 81 49
0.34710503134428083 0.3570180760985592 -2.1683532111878936 105 84 53
0.3507142853146792 0.3554998030996685 -2.1715368148517062 107 86 55
0.3550642268283486 0.3536190759873531 -2.174077439700013 106 86 55
0.3713599109643114 0.3458962680780743 -2.16633853257187 106 86 54
0.37618822757197534 0.34377946672794324 -2.168413379937608 105 86 54
0.37066920717864615 0.34672409525456444 -2.179419091629071 106 86 56
0.37715379173361274 0.34379675754515315 -2.1800550226291735 108 88 57
0.3788797082172267 0.34319743758343924 -2.1848058773264296 108 88 58
0.37999456384523 0.3428972751359253 -2.190090648967687 108 88 57
0.3816696142971271 0.34232300451814635 -2.1948896891373466 107 87 55
0.3881529779487308 0.33939416796464156 -2.1954732663294436 107 87 55
0.40146133932493633 0.3331215808860448 -2.1900315226011786 108 88 56
0.4032998619896486 0.33246576339386 -2.1946491090536795 109 88 57
0.4081281446888758 0.3303450016314357 -2.196622651453805 110 89 58
0.41199909691880565 0.32869284705763346 -2.199430784974318 111 89 59
0.41361088848375527 0.3281477290436262 -2.2042387981064984 111 90 60
0.40105115964029825 0.3345508392004096 -2.221690825917469 111 90 60
0.4171568636791445 0.32689958379331996 -2.2135712092076374 110 89 59
0.4212618348878109 0.3251317436142443 -2.216146412521611 110 87 56
0.4236205576200631 0.3242201604955004 -2.220281675918716 108 87 56
0.4374317209022275 0.3176889004735562 -2.214081702308752 105 86 54
0.4276351227256624 0.3227417016200257 -2.2291815769164423 103 85 53
0.4273677449910941 0.3231190550634361 -2.235694843947439 100 82 51
0.4405482816357398 0.3168940579753167 -2.229982860168541 98 80 51
0.44374063950245 0.3155718982953322 -2.233327223880419 95 77 48
0.4466327796779118 0.31439694660936895 -2.2369397694831594 97 77 48
0.4494763650806095 0.3132456531535939 -2.240591866738744 95 78 48
0.44820889885624693 0.31411431457034067 -2.248022126249336 96 79 52
0.44547264984290613 0.31570551832308585 -2.256824137835865 108 92 69
0.444040253090226 0.3166566976234443 -2.2644436751968477 110 99 81
0.4428161047633218 0.31750616281103117 -2.2718873245711384 121 114 100
0.44693776300225774 0.3157272084558589 -2.2743729164850155 135 131 123
0.4541122017723156 0.3124461438518539 -2.2739985445203628 150 148 143
0.4605789420322375 0.3095121984686201 -2.274259107921185 164 162 161
0.4671122543864539 0.3065445645964565 -2.274433558671264 177 177 177
0.47378499016217435 0.3035073616918127 -2.2744527729292914 184 184 185
0.4873316322700041 0.2970850973976492 -2.26796142881484 189 189 191
0.4943090934467935 0.29389518712694257 -2.267624628654761 193 193 195
0.4965696649220863 0.29302737018679914 -2.271736449484139 197 197 199
0.5090797805217085 0.2871103748627861 -2.266095124215958 200 200 202
0.517046954266321 0.2834295920150066 -2.264732059147793 201 201 203
0.5316594453809026 0.276472583817957 -2.256979829627678 202 202 204
0.5430510414966497 0.2711006096143185 -2.252250247770095 203 203 205
0.4772712054151078 0.30377455333309084 -2.3217028363925687 204 204 206
0.4777457069681287 0.30379023376327485 -2.327606851985698 205 205 207
0.47466750168256044 0.3055585463304961 -2.33695473034053 205 205 207
0.4724156161274957 0.3069202411364336 -2.3455277168578266 206 206 208
0.4895854540854614 0.2986992204863944 -2.3352349723565213 207 207 209
0.4945203452011886 0.29651358951871887 -2.336792358252567 207 207 209
0.5040544538364834 0.29205689709427973 -2.333836357677405 207 207 209
0.496738877685751 0.2959183174366419 -2.347360967746083 208 208 210
0.5825088794731712 0.2538099236509159 -2.269414701327449 208 208 210
1.7951895654785393 -0.33225598935219963 -1.4041681678663729 216 216 216
1.7988492586208995 -0.3339710212335844 -1.4029234620286355 217 217 217
1.8024908333729572 -0.33567756420773515 -1.401684870981143 216 216 216
0.16190717743014008 0.35124759201227757 0.016970035979899843 180 180 183
0.15085493822414386 0.3563971445720693 0.01346158706622284 179 179 181
0.18160210158716714 0.34259407902630085 0.009663657129898449 179 179 180
0.38207586458757126 0.2923046568993096 -1.0446609558922741 191 191 193
0.3666605808326205 0.29972366342567647 -1.0556888002507618 191 191 193
0.36464080266273835 0.3008515342197288 -1.0611733918297734 192 192 194
0.3918881321815165 0.2882273838702693 -1.054368893839603 193 193 195
0.3687600116713563 0.2992744889992527 -1.068738842122399 193 193 195
0.536707145819612 0.2208477346936902 -1.0108772167781213 194 194 196
0.523693972996113 0.22713542531870728 -1.0208286869040293 195 195 197
0.46801559297419726 0.2534917996654033 -1.0492438612432329 196 196 198
0.4477449956274472 0.2632006283926363 -1.0625284490522784 196 196 198
0.4078931906766451 0.28212498940117325 -1.0844167266814826 196 197 199
0.36329443426958763 0.3032889708668936 -1.1085347971993755 197 198 200
0.3979026755460862 0.28718364210941577 -1.0980577852958615 197 198 200
0.3787977934476201 0.29635562811344557 -1.1111356022996624 198 199 201
0.3591005502953657 0.3058094790421599 -1.1245535845265215 198 199 201
