ply
format ascii 1.0
element vertex 684
property float x
property float y
property float z
property uchar diffuse_red
property uchar diffuse_green
property uchar diffuse_blue
end_header
-0.24270729049062545 0.3394002825832808 -2.0406999978340186 135 106 57
-0.23839099238010109 0.3353888747385557 -2.0511758148373826 157 127 79
-0.24413058730788595 0.3409575362950749 -2.051016898666169 92 68 31
-0.24737552270433205 0.34414941766487644 -2.0534866865186503 78 56 26
-0.2461777583121903 0.34310936802041364 -2.060687182566521 79 55 27
-0.24758107704314647 0.34454704045113876 -2.0651202346301814 76 56 27
-0.2479870815646128 0.3450348683532784 -2.0706243863828457 75 56 29
-0.24985649521757808 0.3469165025098896 -2.074559899922423 69 52 24
-0.2509945520274396 0.34810162118831206 -2.079282675888746 73 55 26
-0.2517863206873759 0.3489570233222657 -2.084382595365077 68 52 24
-0.2528458465319436 0.3500674586222691 -2.0891961552291787 73 62 38
-0.25424209954938537 0.35149855439039085 -2.0936457658453698 55 47 29
-0.2545224170522053 0.35186718394074495 -2.0993146359058783 43 37 19
-0.25566129372904295 0.3530533272255441 -2.1040508469752406 69 57 31
-0.257456036090009 0.35486388558523274 -2.108068983334047 110 92 55
-0.2582121554828955 0.3556857101013208 -2.1132292025902895 99 78 43
-0.2586016972301717 0.3561586750082328 -2.1187989681172006 83 63 30
-0.2591678016922991 0.35679981593820725 -2.124180121436934 80 58 27
-0.2633701844375443 0.360901976796436 -2.1255279117561052 82 59 28
-0.26976034568231855 0.3670860042797622 -2.124421583265675 82 59 27
-0.27377549835105697 0.3710092866535708 -2.1259375626798995 81 58 26
-0.2779228652001012 0.37505811478601836 -2.1272895024511254 81 58 26
-0.2804733671120009 0.3775871434509175 -2.130418622643057 81 58 26
-0.2826049769170852 0.37971747916391113 -2.1340129501576186 81 58 26
-0.28344674213880455 0.38062051971018673 -2.139060440448505 82 59 27
-0.28703217169418216 0.38413394788827593 -2.141003589658127 82 59 27
-0.2869457053006045 0.38415391227255175 -2.147105182774138 81 58 26
-0.2868591230572269 0.3841739373620367 -2.153216945135913 80 57 25
-0.28081272568047755 0.3785249464019152 -2.166147987576685 75 51 19
-0.2809021831887184 0.3787130847948607 -2.1720972665731035 77 52 21
-0.2831832075209965 0.38098583378155454 -2.175537615071341 84 59 28
-0.2879212163984621 0.3855952658415468 -2.176142163566905 84 60 26
-0.28704336149921833 0.3848635607802356 -2.183214141787971 84 60 26
-0.2873929595209019 0.38529937712962276 -2.188879305574336 87 65 29
-0.29202423388766996 0.38980679697127296 -2.1895774604334353 85 63 28
-0.29639192176802476 0.3940632402976765 -2.190562456215718 86 63 26
-0.29877455864053737 0.39643198595684404 -2.193847904300853 89 65 31
-0.3006904568407865 0.3983568852302743 -2.197674362405607 92 68 34
-0.3065667175942802 0.4040468025202589 -2.1968456915675856 91 67 30
-0.3090160486622429 0.40647848686575755 -2.200025388565629 92 68 29
-0.3115040877234533 0.40894685949619236 -2.2031531011511216 100 77 36
-0.3093434720650675 0.40699647856029836 -2.2117806099788258 95 72 31
-0.3069637124517253 0.4048382144283938 -2.2206922228618 96 73 32
-0.30859473376012275 0.4064922649896689 -2.224852162632544 97 74 33
-0.3088719263319146 0.4068596840075831 -2.230628081839189 99 76 35
-0.31459556654153875 0.4124029856441007 -2.2298893574319476 101 78 37
-0.3185321729956869 0.4162476996520929 -2.231268833916487 98 75 34
-0.32129006438294994 0.4189721410996254 -2.234051571901225 101 78 37
-0.32258315205988336 0.42030468653537173 -2.2385946319646695 102 79 38
-0.32266786412146303 0.4204892081998707 -2.2446020295519196 105 82 41
-0.32483489509703684 0.4226521262699085 -2.248090610917594 107 83 43
-0.3234861697279146 0.42147513747444965 -2.2558547257096095 109 85 47
-0.3251832114980445 0.4231916560113591 -2.25991967775413 106 82 45
-0.3260393081729913 0.42410938139084814 -2.2650125900279052 100 83 55
-0.31264370203068764 0.411491040934668 -2.2876016358395965 136 129 114
-0.3019099767140675 0.4014024696656686 -2.3070139875765743 177 173 171
-0.2877433992595824 0.3880551882743502 -2.330744300909395 193 192 196
-0.29264969196426266 0.3928216776337997 -2.3309792098429085 201 200 201
-0.31682901169313854 0.4158887395133851 -2.307278932288529 204 204 204
-0.30949528219406547 0.40903137895398406 -2.32263136519163 207 207 207
-0.30167761309539054 0.40171555400947384 -2.3386468893203354 209 209 209
-0.3097683922445921 0.40950414508048316 -2.334826800831342 209 209 209
-0.30657631836222526 0.4065807837291965 -2.3451131184029332 210 210 210
-0.42762071057519646 0.5215927375991646 -2.1991966548950064 210 210 210
-0.42249625779068034 0.5168290523388404 -2.2115629301266897 211 211 211
-0.5593338627306272 0.6171186239925845 -0.05622378175604753 176 176 176
0.02203048460098983 0.06893300885469378 -0.8746064018406653 176 177 181
0.030818503400569103 0.06057119744235692 -0.8827707642145917 176 177 181
0.031212470921868546 0.060276526314909845 -0.8876146661547196 176 177 181
0.033381833499994434 0.05827597421005207 -0.8931815463801627 175 178 179
0.03814107743313977 0.05378711658646071 -0.8998126431836191 157 155 149
0.028546834753465172 0.0630902413684315 -0.9006263012778468 116 106 91
0.014794792311990879 0.07638759276506624 -0.899703368660531 117 102 78
0.004253162981839614 0.08659952803664506 -0.9000484715075658 109 93 69
-0.001105875807569684 0.09183168021281851 -0.9024977541007232 130 110 81
-0.005538302407243262 0.09617333804623526 -0.905315278203214 157 133 101
-0.012621033122833913 0.10306079217800565 -0.9070123640455188 128 105 73
-0.013101166599825742 0.10360524184337938 -0.9114581239915966 127 103 69
-0.020341626689635434 0.1106435861411133 -0.9130539311822368 106 83 50
-0.02259268791019567 0.11288896330376241 -0.9167416163556688 82 62 33
-0.022748102019045147 0.11312140305849896 -0.9213193490735991 75 57 32
-0.020665065248344217 0.11120399108911577 -0.9268619279075202 79 61 37
-0.024068032679831125 0.11455573687859799 -0.9300562036846801 78 60 36
-0.020641644790183655 0.11134851826297401 -0.9361986887504821 74 56 33
-0.016442050928306806 0.10739912958128106 -0.9426985731783976 77 59 37
-0.01741674020895173 0.10841907708994739 -0.9469600242749407 76 58 36
-0.01671350803470062 0.10782780387541968 -0.9519607775409349 70 52 30
-0.019038057265235886 0.110144058628426 -0.955633443192136 71 53 30
-0.02015291424313348 0.11129870737275535 -0.9598390259724263 77 59 34
-0.021692453281358687 0.11286113769891346 -0.9638564572556308 78 61 33
-0.01889218240153545 0.11025685585952877 -0.9698185138334319 76 59 32
-0.016046015256490825 0.10760884033794718 -0.9758196733785109 73 57 35
-0.023111538984438545 0.1144767099733198 -0.9773533811146147 101 91 79
-0.008315000565429415 0.1003566924955839 -0.9888052367141282 169 168 167
-0.002441041505317487 0.09480322020552279 -0.9962507107334686 178 180 185
0.0012847797867501787 0.09131235256234013 -1.002741865076365 177 180 185
-0.002503927565737779 0.09503490279864701 -1.0057884320421981 178 181 186
-0.008079600482868543 0.10047245986062292 -1.007996093777382 178 181 186
0.10701438263396301 -0.007892063784064485 -1.179003160637537 184 187 192
0.10415036087149715 -0.005052768447037725 -1.182718073544025 184 187 192
0.17227443940998538 -0.07027911200413622 -1.2233252007842201 184 188 190
0.14779610920158853 -0.04671356559301276 -1.2159059529757295 184 189 191
0.12380601696872068 -0.023617994459800284 -1.2086378461211358 188 188 188
0.09908646749127825 0.00017507087855056502 -1.2008827296957862 154 147 137
0.07909369994845261 0.019434825356087315 -1.1955214122153537 135 120 100
0.04172436963176446 0.055350666003652904 -1.180844076020337 120 103 79
0.026100655598686462 0.07041855748479481 -1.1776038990870152 123 108 86
0.008766199776143735 0.08712510089042891 -1.1733818772287141 79 68 49
0.005165775274405704 0.09066624892422015 -1.1764776761292481 44 34 16
0.003225918572967834 0.09261563275083229 -1.180461079564291 41 33 15
-0.0008206976062195004 0.09658413402550331 -1.183298778617381 56 48 32
-0.004021316230920002 0.09974163641848455 -1.1865856525878968 35 26 14
-0.007226178502032166 0.10290306111183167 -1.1898621324469532 43 30 16
-0.010914550892941077 0.10652768535104168 -1.1928647032690671 58 42 18
-0.012327038512670252 0.10797125247070688 -1.1971133257158528 72 56 25
-0.015612926233262103 0.11120993475326574 -1.200323563570453 59 43 12
-0.02056674959901489 0.1160466279009062 -1.2025966971221662 76 60 23
-0.025504483565786162 0.12086761279665481 -1.2048624881815702 98 81 39
-0.030426151171575377 0.1256729129406342 -1.2071210035435214 102 84 40
-0.03598096695415304 0.13108450521365184 -1.209006337676933 111 93 48
-0.03609962196591304 0.1312879050752559 -1.2139497197036362 108 90 45
-0.03940065540478527 0.13454000453619913 -1.217090380754807 105 87 43
-0.04856338334156324 0.14340696395977748 -1.21687659041322 113 94 52
-0.05511411142261091 0.1497713040542586 -1.218123488205181 108 90 44
-0.06057469407007732 0.15509103593181445 -1.2199736597267772 100 83 37
-0.0686908668829781 0.16295392592759173 -1.2202702978728777 91 72 35
-0.06753355845312453 0.16193459302593088 -1.2259159596549065 114 92 56
-0.07247880510892896 0.16675993006466924 -1.2280186279906697 135 109 78
-0.07815316797477148 0.17228321645948397 -1.2296781400965042 131 106 79
-0.08019128236393461 0.17432399565295756 -1.2334531621412217 97 75 44
-0.08454641791225295 0.17858345122567335 -1.235858921113972 102 83 45
-0.06870927514520492 0.16350783623766502 -1.2502062328225254 83 65 36
-0.07155854334311856 0.16632579664957242 -1.2535273837943195 59 41 19
-0.06773239863304087 0.16275226237113433 -1.260826022019552 57 39 17
-0.06269817559400082 0.1580225554936011 -1.268873734301271 66 49 24
-0.0626184573058694 0.15803666937642452 -1.2739716190212673 78 62 35
-0.06182751317557883 0.15737004217713807 -1.279506401458295 82 64 39
-0.06130507978201999 0.15696064654546538 -1.2848890739597967 78 60 36
-0.06090969183177197 0.1566730326273767 -1.2902038518452006 61 44 24
-0.060434510804738384 0.1563092001072386 -1.2955762654556358 48 31 13
-0.05823873538577573 0.15429866803390346 -1.302013786486507 56 39 20
-0.05518890688098471 0.1514710316220369 -1.3089950449095924 53 36 17
-0.06081742151468206 0.15694950314600398 -1.3106306881234002 63 46 28
-0.054341236374980284 0.15084318091345328 -1.319761913275781 48 31 15
-0.051494001980042836 0.14821036528061687 -1.3266695537304114 53 35 20
-0.04881162478679646 0.1457356808778973 -1.3334949206674298 57 35 15
-0.04083839551029245 0.13819859861806894 -1.3436640003729585 103 78 36
-0.021919411927783905 0.12018894322341767 -1.3607814785268193 185 159 101
-0.019925368131028964 0.11837488018658149 -1.3672840505671853 182 151 90
-0.04171892865035859 0.1393201052560588 -1.358686943015307 167 135 77
-0.05217383108883733 0.14941569606297295 -1.3572238545899966 161 129 78
-0.05812985855150499 0.15520655843046882 -1.3585977762284156 157 125 78
-0.06894985109291452 0.16565002583340982 -1.356823030277849 142 112 72
-0.07524821337213489 0.17176735738890164 -1.3579200755684264 129 101 68
-0.07720583823593885 0.17373217912430516 -1.361804967522825 131 105 72
-0.08077950959367386 0.17724269638170703 -1.3646366347832817 124 103 67
-0.08144301758310868 0.17796959885031544 -1.3693571853584547 120 99 60
-0.08376666682280592 0.1802843407250701 -1.3729940252548973 110 86 49
-0.08632381248586518 0.18282231260119636 -1.3764730109214214 93 64 33
-0.08901224626744814 0.18548573965295373 -1.3798598648859526 109 81 51
-0.09353872894821608 0.18990673446386136 -1.3820227983629754 113 88 56
-0.09495349538918274 0.1913519420565749 -1.3862398290360802 126 102 71
-0.09788485539087577 0.19424729606725832 -1.3894446835117336 168 140 100
-0.10210551754488667 0.1983752714009775 -1.391778329231474 157 129 84
-0.10310434889321918 0.19942262114104348 -1.3962647860239352 156 127 87
-0.10705079228981002 0.20328807773912633 -1.3987638869628936 186 155 116
-0.10849657709186067 0.20476266552545247 -1.4029446279808273 159 126 87
-0.11176311335984196 0.2079778210691497 -1.4058872818859434 161 128 89
-0.11439077449587853 0.2105821017166124 -1.4092568206690717 178 150 100
-0.11710110618941383 0.21326529823301793 -1.412563779952795 167 135 84
-0.12099841600231914 0.21708292578003224 -1.415048309283753 164 130 82
-0.12075244068561436 0.21694025642002318 -1.4203794187319576 158 126 79
-0.12235851186832497 0.21856780731931552 -1.4244363999715492 148 114 67
-0.12384020914875976 0.2200764800852899 -1.4285789864313958 165 132 84
-0.12594410961416908 0.2221797550038977 -1.4322873173387187 118 89 46
-0.12924935418646238 0.22543097501146853 -1.4351512053608444 110 88 54
-0.13147826064121204 0.2276535249819709 -1.4387619235208737 90 69 40
-0.13318278277230344 0.22937494858370489 -1.4427384131565122 76 53 23
-0.13506281410922444 0.2312640406268559 -1.4465893297430041 83 59 31
-0.13694191354266927 0.23315220190111924 -1.4504386516426797 99 78 48
-0.13878789664428792 0.23500868430495941 -1.454309322777953 89 66 36
-0.14089504125519675 0.23711462404011607 -1.4579910751345009 85 62 31
-0.1419889913687753 0.2382526159950108 -1.4623967905187467 101 78 47
-0.14181801635013896 0.238182337107 -1.4677156042540913 91 68 37
-0.138797359524802 0.23539021751377115 -1.4751030864074912 75 51 22
-0.1414202665112188 0.2379889249321509 -1.4784184280594908 74 51 22
-0.156447433846018 0.2524348106499967 -1.4726952047207682 83 63 32
-0.16211089215238172 0.25793661371748755 -1.4737445822360118 99 72 34
-0.14698748999080907 0.24358644903144655 -1.490015667935742 190 158 106
-0.14259744371919414 0.23948773726792483 -1.4984734183666675 178 146 94
-0.13818173947777435 0.23536506365761328 -1.506980231986146 172 141 92
-0.18476458091185002 0.2799397725448128 -1.4777235525422108 145 116 79
-0.14279741058219775 0.239960897666064 -1.5140847085648177 72 45 22
-0.1464834754650144 0.24357459258216352 -1.5166017196623462 70 46 22
-0.15091901817790088 0.2479036262700514 -1.5185458299053955 72 48 24
-0.16931208240808915 0.26555736484734366 -1.5099858145922376 70 47 23
-0.16571356254519554 0.2622155950866895 -1.5179206082209171 70 47 23
-0.1652454822732355 0.2618625747629662 -1.5235129075764255 70 49 23
-0.16836356875267844 0.2649328756559748 -1.5263921969570964 64 40 15
-0.16614329551975288 0.2629075855130511 -1.533330012388352 106 79 39
-0.16544603882303138 0.26233627719310015 -1.5391225858355222 197 169 119
-0.16114587030075422 0.25832654947086015 -1.5476903409622562 179 149 97
-0.16046394220582116 0.25777044102008717 -1.5535029984678017 135 110 72
-0.15772065209378494 0.2552473625082492 -1.5609190568967066 54 36 16
-0.1635510148762429 0.2609061631276127 -1.5617121745649138 38 24 8
-0.17340266694756007 0.27040170992781326 -1.5593548299884934 51 35 16
-0.16628981801008008 0.2637095407317731 -1.5701909851880365 69 48 25
-0.1849124706193086 0.2815728568160377 -1.5609220187332795 123 103 73
-0.18366016155736986 0.2804724501543415 -1.5671763512770533 116 94 63
-0.18083584620805554 0.2778725703094046 -1.574684118217491 58 38 12
-0.17804346716551844 0.27530356219572477 -1.5821892588892632 75 57 26
-0.1754112910012809 0.27288777900435535 -1.589589773903501 134 113 75
-0.1803018612126036 0.2776481724711662 -1.591021831092168 163 142 100
-0.1849156079592557 0.2821441932731384 -1.5926566336974415 153 134 91
-0.1889748926817219 0.28611107351229575 -1.594718922582814 149 127 88
-0.19368120595407967 0.2906947960209272 -1.5962467613690965 140 117 77
-0.1953767428344918 0.2924068657709862 -1.6001866812407093 152 129 87
-0.20131223610751414 0.29816229783377113 -1.6006922485344548 153 129 84
-0.20749386643548923 0.30415201010383436 -1.6009736402321864 155 128 82
-0.21326350181293016 0.30974840913637636 -1.601565222973777 151 127 82
-0.21670492142251033 0.31312444808150075 -1.6040372533068459 156 128 84
-0.22156233173856404 0.31785036217485896 -1.605336630862447 179 151 104
-0.22369897876481834 0.31998197451784893 -1.6088570121476475 189 161 114
-0.23113079415310733 0.32716166021019033 -1.6080004326142736 190 162 116
-0.23691363692661083 0.3327687953304451 -1.6084775126583373 163 135 97
-0.23394519207281017 0.33003332559395504 -1.6162057081297667 103 80 45
-0.2343410874715509 0.33050518163697234 -1.6211518342779372 115 89 53
-0.23339730098307193 0.3297002136272292 -1.6272244660993733 105 81 43
-0.2345263914267206 0.3308711460241942 -1.6315698583812208 94 72 36
-0.2343846072815603 0.33083089140238026 -1.6369871463693817 99 76 42
-0.22894422847472623 0.32574118997858814 -1.646889932946475 101 77 42
-0.22619311091582167 0.32321491542406516 -1.6545506888561903 100 74 37
-0.2203883065283867 0.3177791652693936 -1.664831277966704 98 72 37
-0.20618799429763213 0.30434438466416563 -1.6823144209787029 115 92 51
-0.19821955886451953 0.2968489432561422 -1.6945496183557167 116 94 54
-0.1882800297232003 0.2874764495730989 -1.7085292484571233 83 58 24
-0.1891690137473131 0.2884215335660976 -1.7132436306209233 113 87 52
-0.19052513080680428 0.28981169382111044 -1.7175574554016209 107 81 44
-0.18879800856188012 0.2882647315057543 -1.72454493968146 111 85 48
-0.18970150923592105 0.28922391945353 -1.7292621044126442 111 87 49
-0.18931188145901984 0.288951440840934 -1.735110651290413 101 77 39
-0.18987815320560253 0.2895896058435066 -1.740132782599946 93 69 33
-0.1892555614649506 0.28909557055508683 -1.7462038386091692 109 85 50
-0.18848183732592277 0.28845781061833836 -1.7524196587860708 110 88 53
-0.1875122497271669 0.2876337511862546 -1.7588210635941803 105 83 46
-0.1893357815738217 0.2894697212325266 -1.7627600601698163 100 77 45
-0.1890993187213219 0.2893441013529897 -1.7685289717307064 53 34 10
-0.18876243695219325 0.2891230375387709 -1.7743970277772905 51 31 9
-0.1902689977478153 0.2906573204093801 -1.7786255420326023 79 58 28
-0.18313850172563673 0.28396858400630764 -1.7906074293542946 99 77 38
-0.18104827418482644 0.2820791107017442 -1.7980988911160898 103 81 44
-0.1933501391978817 0.2938907116008541 -1.7926093511135255 113 90 52
-0.19361694152739656 0.294244913249441 -1.7979645463040197 111 91 54
-0.19295300724420372 0.29371330617301034 -1.8041726098145303 80 62 35
-0.19401864771501415 0.29482814094031845 -1.8088156769473946 64 46 19
-0.19752908110115425 0.2982698689168679 -1.8112248382611382 74 54 26
-0.20145144444669633 0.30210342614764535 -1.8132444543927968 77 56 26
-0.19867594253183957 0.29956266787990793 -1.8214146913570808 93 70 39
-0.19864282691027585 0.2996320124314285 -1.827077291299449 92 69 38
-0.19838678075813893 0.2994893806850129 -1.8329549526292759 91 68 37
-0.19904016754601067 0.30021225425903747 -1.8379976984884276 82 58 28
-0.2020841142573267 0.30320971400817504 -1.8408175952956183 85 60 31
-0.2012285423027534 0.30249701024211856 -1.8472733199804756 85 60 30
-0.1992581089498412 0.3007239245503833 -1.8547876917957824 86 61 30
-0.20073362498877706 0.30222931582539153 -1.8590812067064955 88 65 33
-0.200908206677746 0.3024971996368286 -1.8646019436124084 89 66 34
-0.2018542169019109 0.30349899638476613 -1.8694002836487114 86 63 31
-0.2024327682116704 0.30415134289074935 -1.874550469773698 93 70 38
-0.20313313415361067 0.3049196396781105 -1.879589915096416 95 72 40
-0.20953271855259697 0.3111081919576307 -1.8791917350300555 91 68 36
-0.20673825004833057 0.3085528155791314 -1.8875710517415238 86 63 31
-0.20599395298405698 0.30794746225145864 -1.8940056099680054 88 65 33
-0.20672840620647537 0.3087484580760484 -1.8990281819786712 87 64 33
-0.20718617526271582 0.30928645265279303 -1.9043225504654928 85 62 30
-0.21346646688963478 0.3153604770844609 -1.9039782045804379 81 58 27
-0.2104709416256691 0.31261524858467366 -1.9126254835281153 81 58 27
-0.21173712399319766 0.3139219779840918 -1.9171424797081336 81 58 27
-0.21366338071540042 0.3158562101331779 -1.9210150370415284 84 61 30
-0.2141604874479277 0.3164318926471069 -1.926287271433049 77 54 25
-0.21477441767615563 0.31711872169107264 -1.931450348634202 74 50 22
-0.21590660749303847 0.31829822862459156 -1.936106996098423 74 50 22
-0.21699535172557816 0.3194364818876378 -1.940808744659816 77 53 25
-0.2163405333190947 0.31891777229266877 -1.947244197245261 75 51 24
-0.21822783578755617 0.32081507443276397 -1.9511604837787448 76 53 24
-0.21686042911234504 0.31961954785332064 -1.9583256169519385 86 63 32
-0.21829461278469553 0.3210863863298411 -1.9627008082330129 88 65 34
-0.2169751766582223 0.3199368976887498 -1.9698433710003538 82 59 28
-0.21745721197786072 0.3204992685619078 -1.97518705845049 80 57 26
-0.21775871601160146 0.3208902361215314 -1.9807192631500823 85 62 31
-0.21748030369685212 0.32073042066389307 -1.9868465259059822 81 58 27
-0.2257918005823482 0.32873060077793675 -1.9842499877468898 78 54 26
-0.22545177953555856 0.3285121839189784 -1.9904355697218565 74 50 23
-0.2266168030595071 0.32972348789906514 -1.995092746386992 73 49 23
-0.2289102252620165 0.3320065438110757 -1.9985943378588633 74 50 24
-0.2305431372214758 0.33366221743409324 -2.002770659952955 73 49 23
-0.2296277631869882 0.3328978707340664 -2.0095756028185643 74 50 24
-0.23097119590193133 0.3342787603519878 -2.014057485794224 72 48 21
-0.23307343590217727 0.3363801927892739 -2.0177526983631524 72 48 22
-0.2353715778705569 0.3386675674465266 -2.0212402936958362 78 54 26
-0.23182370934775104 0.33540440113182374 -2.0308260909181 88 66 34
-0.2334860052640499 0.3370882537129554 -2.0349874041712765 92 71 40
-0.23599568195213028 0.3395765354453226 -2.038257899808978 96 73 32
-0.23899752882098313 0.3425319133733213 -2.041003898860219 134 107 61
-0.24152734668439102 0.3450390648465082 -2.04423923102173 137 109 70
-0.24544399826778773 0.3488624435373251 -2.045999253661653 91 68 34
-0.24295111243033118 0.346602168151035 -2.054553200857003 82 60 30
-0.2404518261310687 0.3443362561664008 -2.063138415546308 77 54 26
-0.24261428998819007 0.3464948079530388 -2.0667674184360023 76 56 26
-0.24296189588632905 0.34693107712324645 -2.072336960338173 72 53 26
-0.2449611288159509 0.3489346932310497 -2.076138760841013 67 50 22
-0.2476207895774366 0.35156489376235966 -2.0792257321272882 66 49 23
-0.24707226323184867 0.3511510889237553 -2.085772830654825 45 30 6
-0.2490078024342624 0.3530942147455031 -2.089640191831452 66 54 32
-0.2487592351405884 0.35296528910143826 -2.095878897559478 52 43 26
-0.24993979255104876 0.35419225020090883 -2.100570593630589 38 31 15
-0.25273541123568666 0.3569512318686428 -2.1034986996186547 48 39 19
-0.2536679688577823 0.3579429445696326 -2.1084612095956765 72 58 30
-0.2550845800350561 0.35939382101447254 -2.112895066399108 82 62 33
-0.2562701589750293 0.3606255970401652 -2.1175841597651837 80 59 30
-0.2551584615469865 0.3596788140617997 -2.1248152797326028 82 60 29
-0.25878187091379196 0.36322253924712233 -2.1268123780811266 83 60 28
-0.2670780703356262 0.3711968838923609 -2.123600165717123 82 59 27
-0.2781656808443268 0.3821384624274195 -2.1351726265230617 81 58 26
-0.27766927307353284 0.38177532331545955 -2.1417313254118113 82 59 27
-0.2824994861127001 0.386461439267634 -2.1422786636611724 82 59 27
-0.2829815665165504 0.3870258884799919 -2.147735971126063 83 60 28
-0.2790858714924243 0.383441318496173 -2.1581784028937485 83 60 28
-0.27837754837739137 0.382878083632113 -2.1650200842874354 81 58 26
-0.2765323466235397 0.38123772827752717 -2.1731760083365717 82 57 26
-0.2775261428524972 0.3822879919891328 -2.178097394987343 84 59 28
-0.2828056217307442 0.3873991840165651 -2.178093277346896 85 61 27
-0.2825613407881821 0.3872762565848232 -2.1844352020792184 84 60 26
-0.2855481177908739 0.39021472570209437 -2.187051699570608 86 63 28
-0.2893807389570036 0.39395435134739654 -2.1886777040143843 86 63 29
-0.2928847590826687 0.39738241923452683 -2.190670781788345 88 65 27
-0.29689433080818106 0.4012891413226333 -2.192061349241542 91 67 32
-0.29906207492865244 0.40345099737022866 -2.195589404046419 92 68 34
-0.30272412989091035 0.4070280958677092 -2.1973608490168037 91 67 30
-0.30586039052148023 0.410106971995408 -2.1997364569572313 93 69 31
-0.30681159195415164 0.4111163541954346 -2.204677731106771 98 75 34
-0.30811059385723966 0.4124551536889061 -2.2092112699837556 96 73 32
-0.30784133970325633 0.4123089827322631 -2.2156053504606352 96 73 32
-0.3102419058939602 0.4146909321664593 -2.218836855093566 95 72 31
-0.30896822090937925 0.41359403099940895 -2.226442568693156 97 74 33
-0.3116738194986513 0.41626476576208077 -2.229309528241358 99 76 35
-0.315036314195041 0.4195572233139958 -2.2313811109173733 97 74 33
-0.3151521603517991 0.41977613835812827 -2.237342735297213 100 77 36
-0.3196562093336881 0.42414888969811193 -2.238024500958115 100 77 36
-0.3202851840020626 0.4248535434377915 -2.2433695986033086 102 79 38
-0.3217723687362683 0.42637054005540087 -2.247680336769527 103 80 39
-0.3232594184871768 0.4278874088959638 -2.251991237180416 109 84 47
-0.32114085464677034 0.4259922195138297 -2.260695427782275 103 82 45
-0.32148923148368536 0.42643182296093873 -2.266409481723971 103 87 63
-0.3049221156200186 0.4108661317368406 -2.292854200445638 139 133 121
-0.297759219661752 0.4042002995642802 -2.3078667037352445 177 175 174
-0.28459460200346043 0.3918573912754851 -2.3303295995698767 194 193 197
-0.2881662149103994 0.3953490542908895 -2.3322197039720822 200 200 200
-0.3037297800035534 0.41018438705875604 -2.319244907209402 205 205 205
-0.30353320015448415 0.41011050420780193 -2.32574672399503 207 207 207
-0.29362978889071895 0.40085571071100917 -2.344346285232986 209 209 209
-0.31339595136873166 0.4196631948620731 -2.325980328064865 209 209 209
-0.3147266059744026 0.4210336474955366 -2.3305702078950525 210 210 210
-0.43678106709886544 0.5365677869578417 -2.1836257798012966 210 210 210
-0.42620451245086405 0.5266715349517104 -2.2027970112034274 211 211 211
-0.5714242318771938 0.6329365349471412 -0.05573679924309444 176 176 176
0.028091537737553213 0.06945173895112791 -0.8756936456048133 176 177 181
0.03650473331180798 0.06147858543319684 -0.8837087706460758 176 177 181
0.03904057106826461 0.05913717263058299 -0.8894138785530613 176 177 181
0.05405222199047305 0.044843794019166605 -0.9001543578895405 177 178 178
0.04109950493470213 0.05734149116704837 -0.8996562737739935 144 138 130
0.029653278870423738 0.06839511358595499 -0.8997215191973905 116 103 85
0.016473591655969316 0.08110844328581354 -0.8990356188883458 113 98 73
0.007472454189125871 0.0898182962841435 -0.9000159857315396 116 99 73
0.0023631598523668196 0.09479979243069547 -0.9025709502622543 140 118 84
-0.0021483074531651603 0.099208394597738 -0.9053582011363153 159 135 98
-0.007883696465974699 0.10478896404528157 -0.9076214873774571 140 117 85
-0.00923454490275713 0.10617004375187764 -0.9117048958791166 116 92 59
-0.013133300404416431 0.10999119337843172 -0.914714535824937 95 72 41
-0.019210863443024084 0.11589864143379205 -0.9167903251786762 86 67 39
-0.019289588112559708 0.11606126108143963 -0.9214004023522402 73 55 30
-0.004327927444649132 0.10182202025451267 -0.9324532220433053 79 61 37
-0.00854585387792775 0.1059488019689977 -0.9353267396791519 75 57 33
-0.005159502798569693 0.10279447378202722 -0.9414755035003453 71 53 31
-0.013283563217537597 0.11066096179519799 -0.9426440210189471 77 59 37
-0.0020469176517184107 0.09999114954295218 -0.9522372086614579 76 58 36
-0.013685930123581769 0.11122236947182262 -0.9518470172482384 68 50 28
-0.01404777718742875 0.1116570255717938 -0.9563855201988039 68 50 29
-0.015379804395423385 0.11302048930751579 -0.9604986149348017 71 53 31
-0.00844737521802788 0.10647300058645498 -0.9682926680773664 80 63 34
-0.011408900641935477 0.10939654816108552 -0.9716952036587462 86 69 38
-0.013117130121894083 0.11112038299292137 -0.975654606379935 85 69 45
-0.0068376064124059666 0.10519908707834644 -0.9832225198345019 119 109 98
0.004511734715135829 0.09442629378772985 -0.9931264229865887 166 164 163
0.004103976075151727 0.09490634540004633 -0.9977215440233416 178 180 185
0.006405658545507814 0.09279360080213397 -1.0035634302219705 177 180 185
0.0058990963668071605 0.09336848155872343 -1.0081279498623057 177 180 185
0.007223287413911705 0.0921915964217214 -1.0135440075599869 178 181 186
0.11823174129217345 -0.011912714737288777 -1.1777476222531782 184 187 192
0.10752373138617455 -0.0015788048737330196 -1.1774457731402908 184 187 192
0.106525385509248 -0.0005270172463250344 -1.1821190951992677 184 187 192
0.15595822563921607 -0.04767951848099472 -1.2129673750598515 185 188 191
0.13340332197744464 -0.026021703232751436 -1.2065239854090963 186 189 191
0.1106207448214302 -0.0041480898847454095 -1.1998654402892703 187 186 184
0.08720917055418265 0.018324839591898623 -1.192778956851262 145 137 125
0.052126085697318914 0.05195002078536792 -1.1794282389061 124 109 86
0.03931756733944447 0.06428608999195023 -1.1777382565062402 108 94 71
0.023702775915962426 0.07930281676937123 -1.1745013392570038 70 57 39
0.010626403989986877 0.09189275445147699 -1.1725574897795492 76 65 50
0.008792943455806668 0.09373909456372609 -1.1766011607561198 36 27 14
0.008258654226977746 0.09434410167717144 -1.1813441834158267 53 45 33
0.006751336516744366 0.09587883299031924 -1.185564182750868 71 64 54
0.0046409243837031156 0.09798973829416424 -1.1894557511696042 38 29 18
0.0013139821332532886 0.10126276971673576 -1.1926794215471714 41 28 14
-0.0015344634143828473 0.10407853947366097 -1.196157084850185 62 47 21
-0.007050804273233402 0.10944266446632467 -1.1981577742721363 79 65 27
-0.010750185433549275 0.11307088483863531 -1.201145335278423 72 56 20
-0.015883507446131206 0.11806853930296807 -1.2033254066868788 73 57 18
-0.021057884091448653 0.12310508335293663 -1.2054654219485192 100 83 38
-0.025792905257787158 0.1277216888185379 -1.207834335882295 114 96 50
-0.03008368685215823 0.13191374850869692 -1.2104379430651546 109 91 45
-0.03160541616467333 0.1334611811873398 -1.2145932987474772 111 93 47
-0.03339102039541714 0.13526058981507166 -1.218598548594562 112 94 49
-0.04467459899554577 0.1461294648348334 -1.2171894761747883 114 97 54
-0.05162941447951119 0.15286418106247357 -1.2182112353748167 110 95 47
-0.054653571508505805 0.15584542076621394 -1.2214655458881292 98 83 37
-0.06384936916969547 0.1647189234445757 -1.2211516930522994 85 67 33
-0.06449904789131145 0.16543266896128553 -1.2257520066729972 108 85 53
-0.06950592980259068 0.1703061579071264 -1.2278215776457355 133 107 77
-0.06946907513391987 0.17036446892951304 -1.2328199274946308 138 113 86
-0.07014059166360581 0.17109910535604497 -1.2374098328601415 98 76 44
-0.07061433749519624 0.1716450307966269 -1.2421197778991315 94 74 39
-0.07164473131677762 0.17272235540111883 -1.246505206033785 85 67 38
-0.06509894082803669 0.16656867788953428 -1.2553892124887354 61 43 20
-0.06136916489186345 0.1631033143656399 -1.2626331338214554 56 38 17
-0.05694594591687491 0.15897662395487933 -1.2703165865183372 57 41 17
-0.05737031536657583 0.15947655608002298 -1.2751161835295342 78 63 34
-0.05685661311075968 0.15908141191171388 -1.280486387074845 89 72 44
-0.0555620758596882 0.15794135650246477 -1.2863387455540196 75 58 35
-0.055335907141252694 0.1578209573544006 -1.2915548227704234 57 41 18
-0.05439560897967377 0.15701933788632771 -1.2972147546241382 59 43 20
-0.05505032890079442 0.15773971480307208 -1.30190895083214 67 50 29
-0.053209987265345204 0.15607977952730212 -1.3081416551327072 66 49 29
-0.056123464793780886 0.1589552525869916 -1.3114547717988723 52 35 17
-0.04571145396927506 0.14911877548548508 -1.3230214549030412 49 32 14
-0.04412606335021735 0.14770310861076164 -1.3291524576629177 52 34 16
-0.04044658173463023 0.14429025619401276 -1.3366064991033526 67 44 16
-0.03386296736132133 0.13810787814594344 -1.3459068825720006 144 117 64
-0.015907459487892184 0.12108011470763386 -1.362406153588476 193 163 100
-0.02568271740469591 0.13050150746060862 -1.3614730677992277 185 151 90
-0.036516646513425954 0.1409317690837858 -1.3598279141751668 181 149 92
-0.04330305210407853 0.14750134083278416 -1.3607150472184177 150 119 69
-0.053657506443973546 0.1574728536877827 -1.3592949981650273 151 120 76
-0.06551463708900129 0.16887640699499035 -1.356867088359961 125 96 60
-0.07079154233782564 0.17400482185170996 -1.358627554626189 114 87 57
-0.07247377344773498 0.17570556272856425 -1.3626939476895565 99 77 44
-0.07589556134909164 0.17906477299716905 -1.3656299816810398 116 98 58
-0.07719116239920865 0.18039679670668857 -1.3699417815275252 116 95 57
-0.0801291316201792 0.1832945140879793 -1.3731801240127233 115 91 55
-0.08196807001631234 0.18514443220872556 -1.3771326951278537 103 76 46
-0.08478226313821963 0.18792393999619683 -1.380440651715129 100 75 45
-0.08891261894548402 0.1919578436106784 -1.3828712528170064 120 100 66
-0.09120875652577409 0.1942432674281807 -1.3865064194522418 132 109 71
-0.09567664301669732 0.19859844887655337 -1.388690053257805 153 126 82
-0.09740997765253939 0.200347246838879 -1.3926878769340847 166 138 97
-0.09967040699286289 0.20259832876511513 -1.3963303756422667 116 89 58
-0.10318577948008878 0.20604521182560137 -1.3991231180223673 153 121 85
-0.10527005761225383 0.20812823015202486 -1.40287350654974 152 117 74
-0.10706638790950224 0.20993682018272264 -1.4068161762964757 184 150 104
-0.10921208249583303 0.21207824878162196 -1.410519027085828 174 143 93
-0.11270311650140541 0.21550137770320782 -1.413298298104492 180 149 98
-0.11546348403746154 0.21822820861824416 -1.4165688188796972 155 124 76
-0.11671659693771363 0.21951902659281475 -1.4208710651300693 154 123 80
-0.11804592188591329 0.22088246210476692 -1.4251215545809495 122 91 49
-0.11988755695727377 0.22273391265714648 -1.4290170898773602 149 119 74
-0.12170735505364444 0.224564525215166 -1.4329258073990836 121 93 47
-0.12516583757582173 0.22795588670969824 -1.435687195703721 116 93 55
-0.12714074330156316 0.2299340760063489 -1.4394791162704301 85 62 31
-0.1290738213983828 0.23187237895282203 -1.4432977655907788 82 59 28
-0.13080974465718365 0.23362288028169453 -1.4472532065643533 92 69 36
-0.13295355535304088 0.23576177282590033 -1.4509178909798324 89 69 36
-0.13448004165358896 0.23731276668523543 -1.4550183042019151 74 51 20
-0.13657198092813783 0.2394021628177882 -1.4587144100294285 94 71 37
-0.1392994567915255 0.24209660855109022 -1.461951649683565 80 57 25
-0.13827904181519585 0.24122263701113633 -1.4678781759807455 88 65 33
-0.13901831148086563 0.2420241780617855 -1.4725470064009367 71 48 17
-0.1386422224653618 0.24176398230010615 -1.4780274006986192 77 54 23
-0.1373078347229858 0.2405917220830458 -1.4842137654704766 80 60 27
-0.15665934192792963 0.2591103814332192 -1.475322856427679 104 78 40
-0.1461146506537105 0.24917092644150451 -1.4882276530139311 194 162 108
-0.15409102633079885 0.2568608177471583 -1.4875866402413604 182 152 96
-0.16002538738546757 0.2626066028418947 -1.4884174357116213 173 142 89
-0.174773263502707 0.27673972238001054 -1.4827041802066108 138 109 68
-0.16561079129684206 0.26811736913816153 -1.4946742552133387 74 47 21
-0.1580737974698001 0.2610428457794347 -1.505488090741264 71 47 23
-0.13716419420908138 0.24124451243585388 -1.5263462121237714 70 46 22
-0.18304753600930831 0.28500181172332306 -1.4972103544122208 68 46 22
-0.17588971722706875 0.27828872378258773 -1.5077743522174594 69 46 21
-0.17375325425601446 0.27635380136787235 -1.5145897103076544 66 45 18
-0.16758174135593984 0.27058047213520386 -1.5244823776186975 65 41 15
-0.144898617467754 0.24910033294073747 -1.5469743672571754 102 76 36
-0.1548903145686754 0.25870463390216236 -1.5446527820464315 195 167 119
-0.15667043166111472 0.2604971957479774 -1.5485756055324942 185 156 105
-0.1578321069389566 0.2617014896470428 -1.552971937063609 129 105 68
-0.1621467030806989 0.2659045752520247 -1.5549383984254228 41 24 6
-0.16007290584887413 0.2640316491702705 -1.5618328979031628 31 17 4
-0.16909190555172116 0.2727084067813305 -1.5601334089763428 47 32 14
-0.16906213931244707 0.2727794153166528 -1.5654433237986733 70 50 26
-0.17986614891853758 0.28315249965295275 -1.5622923875101014 120 101 72
-0.17861740284339 0.2820641834970191 -1.5685452420947148 104 84 53
-0.1760549683896504 0.27972706732799035 -1.5758461477367744 73 51 26
-0.17315298082096486 0.27706751626813536 -1.5834363820238129 96 76 40
-0.1732332836813642 0.2772436896287479 -1.5886868295591023 131 109 68
-0.17587532031359232 0.2798553349797687 -1.5919080543157385 169 146 105
-0.18020301910736736 0.28406926608681565 -1.5937783613932923 151 126 85
-0.18254955556836222 0.28639969566790163 -1.5972187499868107 156 132 86
-0.18780221146980453 0.2914923264197909 -1.598320785376316 152 127 85
-0.19242127960910188 0.2959823744936682 -1.5999128355425227 147 121 80
-0.19806328832682907 0.30144431302748287 -1.6006609530301799 158 133 88
-0.20259501568568883 0.30585066233969105 -1.6022869061672234 164 140 94
-0.20979167505619548 0.3127892027713912 -1.6017277534094116 162 139 96
-0.21273266430965299 0.31568318016167946 -1.6046117783057354 148 122 77
-0.2125492868491895 0.3156082112752167 -1.6100467088469608 183 154 107
-0.21793561351865834 0.32082548975877734 -1.6109132549419916 190 163 116
-0.22369874310822024 0.32640036776648973 -1.6114476994431872 203 177 131
-0.2269290833562021 0.32956851783061336 -1.6140537129747807 153 123 87
-0.22886748751411035 0.33150914014749705 -1.6177220653516147 105 82 47
-0.22835436469540354 0.3311208765723652 -1.623428752692232 110 85 48
-0.2301281321343142 0.3329051286841754 -1.627235607684314 100 76 38
-0.2304071055048038 0.33326951470598076 -1.6322932381125597 95 73 37
-0.22897357766353357 0.3320074864499763 -1.6387969158632771 92 68 34
-0.22588817139268708 0.3291768840983296 -1.646709551230063 102 77 42
-0.2185991642048511 0.3223546032820087 -1.6582041354161958 94 68 31
-0.2109400227939771 0.31518172325675653 -1.6700606878848283 105 79 45
-0.18832672551056312 0.293809423911434 -1.6947040854767526 127 104 63
-0.18582278420208176 0.2915342651019024 -1.7022965306970483 116 94 54
-0.18537274114203173 0.2912096697601494 -1.7081500771197944 105 81 46
-0.18489629660093215 0.29086020514576244 -1.7140368303968638 111 85 50
-0.18568894107795186 0.29171579596378905 -1.7188393484103794 110 84 48
-0.1861770537549186 0.2922823535759401 -1.7239091222188119 108 82 45
-0.18592346346053457 0.2921449270015106 -1.729628275933632 111 86 48
-0.18628604093125556 0.292592563592359 -1.7348202119434994 112 88 50
-0.1873784614116647 0.29373306534159144 -1.7393804872852379 98 74 38
-0.18589287160439716 0.29242675072370333 -1.7462027213781137 106 82 47
-0.1850344814852265 0.2917160027397911 -1.7524898126079336 111 89 53
-0.18417379934233785 0.2910033228682691 -1.7587918766223156 111 89 53
-0.18247709530853296 0.2894975288613317 -1.7658467899311872 93 70 40
-0.19088299520539154 0.2975785866436254 -1.7639506146723836 51 31 8
-0.1854964294834821 0.2925717532558846 -1.7742987489274118 53 32 10
-0.17954430518019898 0.2870290339789637 -1.7851905707452496 91 70 40
-0.17780863635493943 0.285487492222194 -1.7923453675110876 107 85 47
-0.18184582022518303 0.28942302274375864 -1.794328452537059 100 79 42
-0.18873129924729398 0.29606032281389344 -1.7937284832066576 121 97 60
-0.1887947835206677 0.29622571305846584 -1.7992694063405994 121 100 64
-0.18926020589372788 0.29677250948634676 -1.80445354443631 82 63 37
-0.18893820878823048 0.29657255145741457 -1.8103601643734706 66 46 20
-0.18813675256099593 0.29591804670120203 -1.816714767249199 71 50 22
-0.18554846348127135 0.29356917732386634 -1.8247189642663053 77 55 25
-0.18794569651152732 0.2959486754699134 -1.8281655441694828 92 69 38
-0.1898108956763615 0.2978235588304561 -1.8320972496100234 94 71 40
-0.1923298770876633 0.3003183338878023 -1.835422328570361 91 68 37
-0.19444606093817535 0.30243107597586893 -1.8391150041668556 89 64 35
-0.19652278912833188 0.30450634084894224 -1.8428407313353343 87 61 33
-0.19652885913101376 0.30461842377219256 -1.8484951183472846 84 59 30
-0.1986817995424774 0.306765921073521 -1.8521485797137645 87 62 32
-0.2021405968714739 0.31015124126466825 -1.8545721967583437 87 64 32
-0.20716063518963962 0.31501625170303493 -1.8555141966229245 85 62 30
-0.2051632562761354 0.3132294303127048 -1.8630642838086149 88 65 33
-0.20604898276360056 0.31417557594767254 -1.8679027584462597 93 70 38
-0.2002761259111197 0.3088111799537192 -1.8790726569191147 91 68 36
-0.203590421215595 0.3120593356386246 -1.8816222019832236 87 64 32
-0.20609338658057558 0.31453845023456084 -1.884936875286404 85 62 30
-0.20049000619553442 0.3093360693686471 -1.8960199963361655 83 60 29
-0.2019167432891944 0.3107956533756878 -1.900381634056486 82 59 28
-0.20550934202250448 0.3143073269385087 -1.9026538415182173 81 58 27
-0.2064102856282532 0.3152686617144324 -1.9075186977150715 82 59 28
-0.2066294674559963 0.31558418812527056 -1.9130487447421727 81 58 27
-0.20880175865319794 0.3177500394264522 -1.9166845871448674 80 57 26
-0.20922279219006384 0.3182569402046969 -1.9220266059360898 87 64 33
-0.20870610680304086 0.3178757577140884 -1.9282933501681079 75 51 24
-0.2087625043113086 0.31803758446205865 -1.9340088438567349 75 51 25
-0.21020745045693745 0.31951463898755866 -1.9383645187412855 74 50 24
-0.21007435891810544 0.3194972542502806 -1.9442800487822476 73 49 23
-0.20942711471176767 0.3189931613873481 -1.9507148099766436 71 47 20
-0.21210593953786894 0.3216388132340209 -1.9538553388964535 76 52 23
-0.21348385915165702 0.32305255751339235 -1.9582860765946626 87 64 33
-0.21434011682646026 0.3239724023568146 -1.9632392175523439 89 66 35
-0.21389950404326685 0.3236645073867993 -1.9694970369438547 85 62 31
-0.21435984512297346 0.3242097547785537 -1.9748598971939941 85 62 31
-0.21382132228303424 0.32380955610454965 -1.9812368266818339 84 61 30
-0.2154098126551643 0.3254229751489065 -1.98547321985656 82 59 28
-0.21625598610821511 0.3263337622391544 -1.9904625319785234 80 56 27
-0.21545126822976396 0.32568210539422215 -1.9971363846308354 76 52 25
-0.21799357841211536 0.32819837587606376 -2.000406598772197 72 48 22
-0.22447443142363305 0.33444179165424626 -1.9996373405904773 69 45 19
-0.22525443163672276 0.3352899306439003 -2.0046931032853323 70 46 20
-0.22747554667871228 0.3375017947754884 -2.0082687331393494 73 49 23
-0.2249536476542519 0.3352258016851155 -2.016739801026112 72 48 20
-0.23073408469124174 0.3408053491352193 -2.016633199845292 73 49 23
-0.21967372195563617 0.3304517886865575 -2.0340000723661165 76 52 24
-0.2213160113260793 0.332116566253851 -2.0382050897090083 85 63 32
-0.22013053130765214 0.33110637436014606 -2.0453647495170064 86 66 34
-0.22617052793325532 0.33693108002061084 -2.0449669307784375 98 76 31
-0.232265272168169 0.3428070497036872 -2.044483946831368 146 117 74
-0.23599429788041643 0.3464450266385384 -2.0464671276594384 125 100 60
-0.2395884693716539 0.34995521180668093 -2.048579264719797 89 66 30
-0.2395583645225603 0.35003777715229184 -2.054521775214514 83 61 30
-0.23616891372648807 0.34694386966800167 -2.0640461745795724 77 56 27
-0.24130685337907792 0.3519136621147776 -2.0645057494187586 75 55 26
-0.23857925294924737 0.3494461685329561 -2.0733560074824813 58 40 12
-0.2407075538452721 0.351570135692949 -2.07702339454844 63 46 18
-0.24226817001844725 0.3531573498153946 -2.081297593651474 65 46 21
-0.2421206873361874 0.35312984621286625 -2.087414187155804 65 49 23
-0.24344713591585648 0.35449579372785 -2.091946241680018 69 57 32
-0.24787820597442495 0.3587962802174749 -2.0931107365256394 58 49 28
-0.24859000656888952 0.3595811515060182 -2.0983041238666646 36 30 14
-0.24930261178672264 0.3603668747974201 -2.1035015070124903 33 24 8
-0.25016703359090536 0.36129616174134466 -2.108537629780297 94 80 53
-0.25140066118992643 0.36257441357563486 -2.1131725079194146 80 60 29
-0.2517856187361378 0.3630507730019452 -2.1187430712422657 79 59 27
-0.25380476558853665 0.36507134179870493 -2.122516923524414 81 59 28
-0.25181482730561866 0.3633040645699494 -2.1307249325540414 82 59 28
-0.26264101266712486 0.37364512136113726 -2.124729267325413 82 59 27
-0.27199811471991536 0.3829346100160201 -2.1382680363085664 82 59 27
-0.2746503385267838 0.3855522941980059 -2.1412870951108607 82 59 27
-0.27650784746245516 0.3874193226565354 -2.1451959496969795 83 60 28
-0.2762565087243231 0.38729486626525117 -2.1514898001488914 83 60 28
-0.2757174664039544 0.3868989485584464 -2.158121315148128 82 59 27
-0.2739138168365119 0.385309221909937 -2.1662053728811204 81 57 26
-0.27840069708907933 0.3896590781650733 -2.167129250374657 83 58 27
-0.27168783309561095 0.38343503559684444 -2.180855228838521 86 61 30
-0.27838174345846406 0.3898683438743191 -2.179243085743761 86 62 28
-0.27999360046827404 0.39150373432101004 -2.1834480049474045 83 59 25
-0.28187588677500997 0.39339437106296676 -2.1873400076578586 87 64 29
-0.2859766296788099 0.3973788451176655 -2.188661493046665 86 63 29
-0.2893436561129471 0.4006705327384819 -2.190817926986589 86 64 26
-0.2922901409110162 0.4035651176051217 -2.1934518160468763 89 65 30
-0.2946045712692177 0.4058630782158349 -2.1968140847181203 92 68 34
-0.2989973486546476 0.41012207765231173 -2.1977384018603527 94 70 33
-0.2992477487261755 0.4104722079999621 -2.2035058534071283 97 73 34
-0.30087084215079385 0.4121176024159835 -2.2076657471981886 99 76 35
-0.30504100028906694 0.41616593855758427 -2.208818765138404 95 72 31
-0.30532703656374155 0.4165498166579732 -2.2145509602059468 96 73 32
-0.30615233637838685 0.4174425290601315 -2.2196510347601888 95 72 31
-0.3059959401397699 0.4174093486105895 -2.225923598878288 98 75 34
-0.30766050330630607 0.41909385819863126 -2.2300341081546895 99 76 35
-0.3086904685092591 0.42017984666601105 -2.234902761350684 96 73 32
-0.3104561303268755 0.42195969383715665 -2.238891764801027 96 73 32
-0.31254185437712206 0.42404132347370355 -2.2424939100168304 97 74 33
-0.31856706342170227 0.4298375432226828 -2.2413398189485667 97 74 33
-0.3177042712029205 0.4291387159360725 -2.248487741077519 100 76 36
-0.31814102861424226 0.42966540472515097 -2.254074900575626 106 83 46
-0.31767855223032926 0.4293444752778434 -2.2607626668296517 93 74 39
-0.3123529799648129 0.42443942873522633 -2.273394023099706 102 90 67
-0.2913474057921844 0.4047549296384933 -2.305244697284802 144 141 131
-0.29360497401061475 0.407000114894698 -2.308720367713199 179 178 178
-0.2847499328476431 0.3987716135363602 -2.3258538625074117 195 195 198
-0.2876397137888468 0.40161312632852025 -2.328577222558093 201 201 202
-0.2844000159673865 0.3986782236217084 -2.33886839239535 205 205 205
-0.2819747922655166 0.3965114039999823 -2.3481818256421976 207 207 207
-0.30014037380778863 0.41374667606303084 -2.331930771944332 209 209 209
-0.3135037543901121 0.426455303196986 -2.3215526403004585 209 209 209
-0.28147069423713256 0.39639355971549745 -2.3678195690352672 210 210 210
-0.4305861473831708 0.5369881773431179 -2.187351025543326 210 210 210
-0.4423324120513865 0.5481632840923374 -2.1784610215341926 211 211 211
-0.5749302275860593 0.6404198862323991 -0.05552671234219819 176 176 176
0.04556385143188141 0.059085981538047755 -0.8812883119412692 176 177 181
0.04139630555357199 0.06315931894396296 -0.884327996271822 176 177 181
0.06816045921232722 0.03768650091916692 -0.8997143045231891 176 177 181
0.05594351034701617 0.04944911664598478 -0.8995632637386779 172 172 172
0.043830488793063116 0.061111569390905146 -0.8994083912962586 126 116 105
0.033149130291705964 0.07140578508293233 -0.8997892007245356 118 101 80
0.01899122550247806 0.0850194375446365 -0.8987120159195117 112 95 70
0.01318912959886892 0.09065230948253591 -0.9010078081717697 120 102 73
0.007480515359352652 0.09619554266860281 -0.9033233940005336 150 129 94
-0.0001793028437878097 0.10360163024191818 -0.9048119252439025 151 128 93
-0.003227453754040238 0.10660367786865005 -0.9081948401761503 137 113 82
-0.005676656366108618 0.10903369809388988 -0.9118214993971203 115 90 62
-0.009301162839208066 0.11258578569414668 -0.9149490026620184 89 66 39
-0.015828538600049707 0.11890916213112052 -0.9168389532114004 85 64 39
-0.009540984057490653 0.11299775861346673 -0.9241554880279378 75 55 31
-0.004761760032943901 0.10852693756205231 -0.9308605822158552 78 58 36
-0.007639290087704365 0.11136585418105516 -0.934303825842463 72 52 30
-0.006582800970459712 0.11044935926557872 -0.9394388457050222 75 55 34
-0.013820890790063628 0.11745045557406353 -0.9409861763911054 77 57 34
