ply
format ascii 1.0
element vertex 663
property float x
property float y
property float z
property uchar diffuse_red
property uchar diffuse_green
property uchar diffuse_blue
end_header
-0.6369098848893802 -0.08751368963959727 -2.084574515448548 202 202 202
-0.6373320443188646 -0.08716032689132447 -2.090707527997296 202 202 202
-0.6752543768075681 -0.29462694264981015 -1.9410140912755065 202 202 202
-0.6763927663428017 -0.2984971936493668 -1.943425860242617 203 203 203
-0.677585352948515 -0.30267672477796737 -1.9455862702932172 203 203 203
-0.6790366476605603 -0.30831830178578334 -1.9465886905870526 203 203 203
-0.595450289360056 0.1684805638327258 -2.3336839494865163 203 203 203
-0.5981712447503307 0.1561442139721504 -2.3304106533943054 204 204 204
-0.5986553329061904 0.16252255289233708 -2.3549380561147064 204 204 204
-0.6011260315931258 0.15156565089586682 -2.3526828889391687 204 204 204
-0.6040373657547521 0.13808799087272738 -2.3483658512564918 205 205 205
-0.6061811606260106 0.12894967108344313 -2.3474893919663784 205 205 205
-0.6992678019525469 -0.39522011528776463 -1.936376209241213 205 205 205
-0.7001456871715465 -0.3977162550298207 -1.9396667253120021 206 206 206
-0.6450684629241166 -0.0664160272230856 -2.2448913843064378 208 208 208
-0.6557473280726098 -0.12486122432930935 -2.2026707559944145 208 208 208
-0.6567954435797212 -0.12803892606132183 -2.2060207696712424 209 209 209
-0.6580485410815508 -0.13239958469724955 -2.2083814131031714 209 209 209
-0.6604678280823524 -0.14348707943858263 -2.2051228994021193 209 209 209
-0.9891819391616299 -1.9035096219814909 -1.0197915584833277 215 215 215
-0.4071238187723989 0.16382809694293432 0.0034582675540711025 176 175 179
-0.4082958886376494 0.16022206471230457 -0.00016865979015712358 176 176 178
-0.4042522350437856 0.17823837380275925 -0.0037775270157146285 176 176 178
-0.5145354582445316 0.07753660252887953 -1.0349711557929404 188 188 190
-0.42283482734919364 0.5161491478133771 -1.2036880099757696 189 189 191
-0.4243583936956709 0.5110625343051369 -1.2072484487229977 189 189 191
-0.4060806991696694 0.6066409581993036 -1.264456314400131 191 191 193
-0.5747038162306246 -0.1939953969990891 -0.9712827974088745 192 192 194
-0.5755851246434965 -0.1964931478803542 -0.9746279427421783 192 192 194
-0.5588521044722194 -0.11501520567039282 -1.0095851582696265 193 193 195
-0.5624867358407487 -0.13059521851413697 -1.0081165147870481 194 194 196
-0.5619300990354434 -0.126185271132016 -1.014193669348172 194 194 196
-0.5653433888285158 -0.14073166850650232 -1.0130597394887002 195 195 197
-0.5618518141069329 -0.12228883485338612 -1.0245217743219739 195 195 197
-0.561555100652663 -0.11732790883698632 -1.0353087975601007 196 196 198
-0.5631322363221208 -0.12310386844542265 -1.0375182836965609 197 197 199
-0.6405100700200399 -0.08326059977198641 -2.0805465479497323 202 202 202
-0.6423248345106023 -0.09076100250862917 -2.080619043477455 202 202 202
-0.6629792972145965 -0.20226520071258336 -2.0058600098389427 203 203 203
-0.6054668126105041 0.16025417142837062 -2.364490246289308 205 205 205
-0.7038093674148264 -0.39895529113999445 -1.926701210478078 206 206 206
-0.661773775045421 -0.1316920094350218 -2.1954718882895987 208 208 208
-0.6614412518959069 -0.12686817303575304 -2.2054331225514043 209 209 209
-0.6623183419642247 -0.12906800359525106 -2.2095891428510153 209 209 209
-0.9915678722131342 -1.9078903250040335 -1.0139592482375313 215 215 215
-0.41351619919623694 0.15414957550264818 0.0035003150680449 176 176 179
-0.41278308827121346 0.15846775708669109 -9.829290458675884e-05 176 176 178
-0.41308166279236086 0.15848900659998322 -0.0037139841355069998 176 176 178
-0.4996741382776717 0.1699855552608395 -1.0675622776507188 188 188 190
-0.4860103338617907 0.2411503684873065 -1.1080327322985064 189 189 191
-0.43266800772407593 0.49837655695994276 -1.2072309763879459 190 190 192
-0.4276796915940817 0.5244304554232924 -1.2222152491426566 190 190 192
-0.5665151851060687 -0.12972970543769347 -1.00779130724468 194 194 196
-0.5666190155350392 -0.12845123947851197 -1.0126773384947525 194 194 196
-0.5675253812022534 -0.13103192389256604 -1.0161018135749929 195 195 197
-0.5684292083074683 -0.13360168314901977 -1.0195272519070466 195 195 197
-0.5614592134894264 -0.0982207403813132 -1.0375431183876316 196 196 198
-0.5619963099885067 -0.09899860856991141 -1.041717495856759 196 196 198
-0.5643442349189369 -0.10851535635753531 -1.0425051109128698 197 197 199
-0.993926697856492 -1.9122213540521011 -1.0081930955348246 215 215 215
-0.4165680177134357 0.15834051099030794 0.0035849301453187363 176 176 179
-0.4143168479412237 0.16905774353819975 -4.872545297069167e-06 176 176 178
-0.41314373208248967 0.17526429302621385 -0.0036277337086495585 176 176 178
-0.4921591941591372 0.2325012286232916 -1.0992195596025875 189 189 191
-0.493128135626534 0.22984762057695426 -1.1031967844276398 189 189 191
-0.492490702968857 0.23493752482847385 -1.1100061326311264 189 189 191
-0.4960386160867719 0.2198448321492419 -1.1094162707478512 190 190 192
-0.567503292705908 -0.1213545226530801 -0.9927087895093061 191 191 193
-0.5674356379960345 -0.11923244879495258 -0.9978900626567925 192 192 194
-0.5671162919509037 -0.11588778569347191 -1.0035413314794854 192 192 194
-0.5669337531310243 -0.11319865189131606 -1.0089625316046478 193 193 195
-0.5666590123605698 -0.11005704866916097 -1.0145688674885047 194 194 196
-0.5715811042123443 -0.13209955165244341 -1.0106385464711007 194 194 196
-0.5707545406615036 -0.1262854653941189 -1.017252799465349 195 195 197
-0.5663810793794376 -0.10324493890525632 -1.0304830343153748 195 195 197
-0.562456393259515 -0.08235050215350964 -1.0429706099929261 196 196 198
-0.5689422475972358 -0.1120261791908464 -1.036015328642518 196 196 198
-0.996258848302257 -1.916503362157814 -1.0024921969432532 215 215 215
-0.9894704936353722 -1.866841619786939 -1.0622028646540413 215 215 215
-0.4219015913743877 0.15294646129406814 0.003639652832535541 176 176 179
-0.4183498911336487 0.16921571787942483 6.912657473468267e-05 176 176 178
-0.41754133097764295 0.17392895867442587 -0.0035529603330822944 176 176 178
-0.4973764958881808 0.23023484547293369 -1.0976872881027908 189 189 191
-0.5017457282886448 0.21106429612333796 -1.0956424573089973 189 189 191
-0.5009315902660884 0.21705169870350605 -1.1027448850836026 189 189 191
-0.5005310808187503 0.22103887560467492 -1.1091378446803801 190 190 192
-0.5711021884317905 -0.11840795246238306 -0.993159887847308 191 191 193
-0.5694958905978353 -0.10876078817287392 -1.0011452746881455 192 192 194
-0.5688406601925524 -0.103734400079187 -1.0074392437850843 192 192 194
-0.5692977367973504 -0.10412482176972315 -1.0117198406791121 193 193 195
-0.5693311808142304 -0.10244560608167627 -1.016785600779629 194 194 196
-0.5744707668696948 -0.1257043943364209 -1.0124093583234712 194 194 196
-0.5744783958377101 -0.1239070915055948 -1.0175006146661667 195 195 197
-0.5754463322082514 -0.1268024813378109 -1.020808816261921 195 195 197
-0.5825052687508494 -0.15951486549960564 -1.0126617966589067 196 196 198
-0.998564773956174 -1.9207371777593378 -0.9968554498655018 215 215 215
-0.9920008190762659 -1.871980479862475 -1.0554640270649773 215 215 215
-0.42511203891337085 0.15647316049410348 0.0037222052842263895 176 176 179
-0.4264639470717206 0.15205017181746097 0.00010961937706701046 176 176 178
-0.42587220161790856 0.15587172146302328 -0.0034900784911196057 176 176 178
-0.5095341206268216 0.19397680835217382 -1.0838403074619156 188 188 190
-0.5073396169069748 0.2067578727397896 -1.0933671188223446 189 189 191
-0.5073825932141744 0.2086051714749381 -1.0989441430407296 189 189 191
-0.5059919343845181 0.2174808715344108 -1.107114418938199 190 190 192
-0.5728721469773377 -0.10646685961086239 -0.9969432314323416 191 191 193
-0.5727808589259121 -0.10416261618198125 -1.0022100437158512 192 192 194
-0.5699565048837963 -0.08842649735153554 -1.012511303182322 192 192 194
-0.5716339349202364 -0.09479700700533505 -1.014568834773798 193 193 195
-0.5692194594215031 -0.08104425692394385 -1.0242002910565322 194 194 196
-0.5695971855897546 -0.08101566538072036 -1.0286838189020746 194 194 196
-0.5740868842233097 -0.10124164984195749 -1.0254666193904667 195 195 197
-0.5794512925458761 -0.1258058490081374 -1.0205299476665528 195 195 197
-0.5847728973877563 -0.15019114142151843 -1.0155856944304908 196 196 198
-0.9964528398165919 -1.8928609826694633 -1.0281611159863133 215 215 215
-0.9944992275975785 -1.8770544504008022 -1.048810267115205 215 215 215
-0.9920117754634884 -1.8572808446458757 -1.074134256317112 215 215 215
-0.46327109044335246 0.01225793990950666 -9.059458345023891e-05 176 176 178
-0.46259621896626224 0.01640187968293301 -0.0035165995751680196 176 176 178
-0.5073377111479955 0.2278493950890199 -1.095405916775802 188 188 190
-0.5080775341468328 0.22629915164343953 -1.0997690572143892 189 189 191
-0.5122515341930198 0.20780631851377587 -1.0979425424648892 189 189 191
-0.51366245959301 0.2029316759218211 -1.1010594813355525 190 190 192
-0.5758640875653267 -0.10040472686971386 -0.9985445151020738 191 191 193
-0.5721637659188826 -0.0802110245143112 -1.010471985353388 192 192 194
-0.573792492873715 -0.08637055585764905 -1.0126256474264823 193 193 195
-0.5708947322229273 -0.07011012591255295 -1.023177635019866 193 193 195
-0.5745963810725399 -0.08654409548132852 -1.0214658996245214 194 194 196
-0.5740836135627829 -0.08208924582411481 -1.0276129974913135 194 194 196
-0.5750044197188647 -0.08474346267292832 -1.0310772435434452 195 195 197
-0.5638402720725857 -0.02735444508446222 -1.0574675226252208 195 195 197
-0.5628342221881207 -0.020388245642637665 -1.064714583528388 196 196 198
-0.9986503475504793 -1.8961065773374195 -1.0236490726216987 215 215 215
-0.996966343671696 -1.8820649293972278 -1.0422397799990426 215 215 215
-0.9945432372403546 -1.8624779058096017 -1.0673147056016963 215 215 215
-0.47377789203965787 -0.016338874702168632 -7.76466716521651e-05 176 176 178
-0.4792084363868739 -0.038387684983735015 -0.0034864912050624614 176 176 178
-0.4822911360089882 0.3801467881486312 -1.1601631073896603 189 189 191
-0.49970116624304317 0.2957620155290048 -1.1343974912103452 190 190 192
-0.49971427141228814 0.29788383300611865 -1.1402323950801605 191 191 193
-0.546371547797158 0.0696252245911772 -1.065516522327221 192 192 194
-0.5779415134251848 -0.0858684018763704 -1.0121596092337226 193 193 195
-0.5748843456587696 -0.06867177768545149 -1.0230566238189263 193 193 195
-0.5730703411129748 -0.05766032164175017 -1.0316860955383538 194 194 196
-0.5709703851400844 -0.04520072296545413 -1.040905283809786 194 194 196
-0.5679841812748929 -0.028285771473563454 -1.05186412574566 195 195 197
-0.5659036977876022 -0.01587975578082823 -1.0611637907071267 195 195 197
-0.5663358987923377 -0.016045718495883488 -1.0656914256722347 196 196 198
-1.0009543929482283 -1.9002687692212659 -1.0180911851672516 215 215 215
-0.9994027224886128 -1.8870128859834527 -1.0357512601081917 215 215 215
-0.9970427628005056 -1.8676094231570879 -1.0605811656024606 215 215 215
-0.4719207873576788 0.008080674864918758 4.011513241657799e-05 176 176 178
-0.47606132949611796 -0.0085085898234106 -0.003393276140522386 176 176 178
-0.4786579331702656 0.41864689874211347 -1.1629920251334593 189 189 191
-0.4924679695040629 0.35178291480374235 -1.1439347760513874 189 189 191
-0.4886876622774611 0.3729766868729958 -1.1567979533998174 189 189 191
-0.4888374675406964 0.37449441210806067 -1.16252458512395 190 190 192
-0.5053749537220807 0.29377473758509953 -1.1379836157019656 191 191 193
-0.5053756173501612 0.2959919762880617 -1.1438563142021942 192 192 194
-0.52198524321566 0.2169136401739952 -1.124481442026326 193 193 195
-0.5241457997580946 0.20821702180915985 -1.1261665241817145 193 193 195
-0.5543714892306294 0.0581530806501932 -1.0746151357585891 194 194 196
-0.5727869143427144 -0.03059006417118465 -1.0503102813459273 195 195 197
-0.5591585642503197 0.040216681140453875 -1.0818732684591135 195 195 197
-0.591269216172306 -0.11992108695536811 -1.0252145831909956 196 196 198
-1.0077234131693649 -1.9386449401188637 -0.9732779663662889 215 215 215
-0.4816261834718123 -0.01743472164948795 5.765608943708589e-05 176 176 178
-0.4799243164794265 -0.008744466613333224 -0.00332283896079702 176 176 178
-0.4873675974068616 0.4000120949199766 -1.1555072172433731 189 189 191
-0.5013900878104101 0.33154707119055116 -1.1358506169610383 189 189 191
-0.5136201515330767 0.2764990448380076 -1.1308929914857682 191 191 193
-0.5097014515827468 0.29857502532294844 -1.1440731001514555 191 191 193
-0.5103334586747639 0.29763300207047233 -1.1487867634567133 192 192 194
-0.5105669241143431 0.2987127542366363 -1.1542573263535598 192 192 194
-0.5264683280888256 0.22030893734202 -1.1299687470012805 193 193 195
-0.5257528747731434 0.22615640414512064 -1.1371210884501508 194 194 196
-0.5675763943892136 0.01795635977895807 -1.0680553315727375 195 195 197
-0.5639906425550877 0.03827972143811162 -1.0804370007885473 195 195 197
-0.593997985793714 -0.1124235923713954 -1.0274232715394802 196 196 198
-1.0099350395123565 -1.9429071393628665 -0.9676521990852534 215 215 215
-0.4858555512414561 -0.019350222360008718 0.00012235553829224866 176 176 178
-0.4782102259546275 0.015375491738475008 -0.003232266141193131 176 176 178
-0.5061671595085298 0.332048735515364 -1.1353003967172568 189 189 191
-0.5093212750221686 0.3182883744872538 -1.1353760700743136 190 190 192
-0.5161982279235588 0.28781500401050997 -1.1343248990661199 191 191 193
-0.5140296360436829 0.3011594697846659 -1.1442900011836343 192 192 194
-0.5026138559925637 0.36174683650160055 -1.17183186480914 192 192 194
-0.5037495956982814 0.35828581972930956 -1.1757122174547492 192 192 194
-0.5292121325287328 0.23041350328542978 -1.1330220898168404 193 193 195
-0.5275796396178968 0.24102225410434555 -1.1419763367022444 194 194 196
-0.5283731761884431 0.23922416288947737 -1.146286982431474 194 194 196
-0.5709414569408353 0.02330627829506579 -1.0693955532580626 195 195 197
-0.5634519974367572 0.06383424751823141 -1.0894737637708796 195 195 197
-0.5667376846513438 0.04911376870252873 -1.0885566783652085 196 196 198
-1.0121212382851565 -1.9471202884929717 -0.9620911633374087 215 215 215
-0.48269485706955256 0.011172684626325285 0.00025435222156106746 176 176 178
-0.4816627848448821 0.01705252737097626 -0.003159735760456653 176 176 178
-0.5116372739509587 0.3289759867487372 -1.1334548081584617 189 189 191
-0.5116218104751988 0.3313835200337588 -1.1394137299814573 190 190 192
-0.5209878404203697 0.28791815148151856 -1.1336318398546503 191 191 193
-0.5203957185206738 0.2932748688840658 -1.1406422476319307 192 192 194
-0.5295497962376312 0.2484721379069912 -1.129079502210955 192 192 194
-0.5293224007574135 0.2519338115629165 -1.135349123432806 193 193 195
-0.5304030650054494 0.2486598316404287 -1.139116729606065 193 193 195
-0.5286891077483535 0.25980218597907845 -1.148295661333684 194 194 196
-0.5299170998686059 0.2557740811712138 -1.1517929697496803 194 194 196
-0.5863800893924735 -0.03366977213747516 -1.047112921114992 195 195 197
-0.5699194631454828 0.053548673686131865 -1.0848563553325843 195 195 197
-1.0142824557986803 -1.9512853087828181 -0.9565936572134324 215 215 215
-0.48972252984546605 -0.0029980713790095648 0.00029374140205187804 176 176 178
-0.4854259547240508 0.017359279851647896 -0.003088396844276163 176 176 178
-0.5097927663644398 0.36125972676680856 -1.1392969236180994 189 189 191
-0.5140339048233988 0.3417144701483369 -1.1373403927159056 189 189 191
-0.5284460281939236 0.27416723457562875 -1.1278518621830231 191 191 193
-0.5289736630529757 0.2737640687290912 -1.1327105006902276 192 192 194
-0.5306194746024581 0.26756028454043135 -1.13542464457485 192 192 194
-0.5309017732711474 0.2684312340113673 -1.1407573650726748 193 193 195
-0.5311886815274616 0.2692823864379027 -1.1460915966575462 193 193 195
-0.5310333710455517 0.27243788083178333 -1.152299849230791 194 194 196
-0.531485977865196 0.2724365614198936 -1.1573341563670425 194 194 196
-0.5302565377336476 0.28120076478671524 -1.1656944555822286 195 195 197
-0.5740569699099451 0.055215337000522446 -1.0847914286186626 195 195 197
-1.0164191198198198 -1.9554030374781095 -0.951158578580497 215 215 215
-0.46609492210905495 0.1175804812507166 0.004161404821291272 176 176 179
-0.4939040561640911 -0.0046973834064666375 0.0003589148930450009 175 175 177
-0.49291607586846864 0.0010664155553090082 -0.00303215504444794 176 176 178
-0.5199891411327605 0.33369179675084426 -1.1286262102124902 189 189 191
-0.536746556414576 0.24874725913202195 -1.1029451233430534 189 189 191
-0.5335314404079974 0.27020057029293126 -1.1206784627249715 191 191 193
-0.5351564707973924 0.2640694976477443 -1.123419952056946 191 191 193
-0.5303411855640151 0.2916015645596254 -1.1385567800367615 192 192 194
-0.5308809579640241 0.2911613790210855 -1.1434324871422739 193 193 195
-0.5330772152142011 0.28204987726024433 -1.1450878277099623 193 193 195
-0.5338010194979692 0.2806429736318905 -1.1495974290372055 193 193 195
-0.5322884327892228 0.2909649716208138 -1.158509213710509 194 194 196
-0.5328850647842986 0.2902360607914215 -1.1632965405248146 194 194 196
-0.533652468287926 0.2886119418842247 -1.1677487447823587 195 195 197
-1.0185316403857896 -1.9594742274797978 -0.9457849250655594 215 215 215
-0.47341002139086086 0.10400060562507576 0.0006617197250665847 176 176 178
-0.5241092654318444 0.33512424528353024 -1.1233460930474044 188 188 190
-0.5264484202089579 0.3252652775259491 -1.1248645668107389 189 189 191
-0.5280783616273983 0.31912046677642986 -1.1277010334304236 189 189 191
-0.5350339586098801 0.2873610911488023 -1.1262231608951085 191 191 193
-0.5375065751067382 0.27674264164525064 -1.1273451055522055 191 191 193
-0.5385812842669504 0.2734788233475731 -1.1311477574124729 192 192 194
-0.543527198013345 0.24979149724879632 -1.1273883356915744 192 192 194
-0.5465160261780151 0.23640183127733438 -1.1273846215816328 193 193 195
-0.547094420923344 0.23572942140356404 -1.1320904973243862 193 193 195
-0.5332440711370903 0.31135338922675637 -1.1654083534786954 194 194 196
-0.5339544191795836 0.31004682613654544 -1.1700085513435998 194 194 196
-0.5339324298074312 0.3126196662028355 -1.1760780018867838 195 195 197
-1.0206204210190268 -1.9634996342233788 -0.9404716944292427 215 215 215
-0.4636153357364104 0.16435591680283626 0.004460204914144069 175 175 178
-0.46123625919223216 0.17655181817061702 0.0008910796554978973 176 176 178
-0.4461430011206522 0.2460419869664008 -0.002656759292659388 175 175 177
-0.5299934159821157 0.3296460049544314 -1.1206604774257547 188 188 190
-0.532453583748857 0.31907490023416485 -1.1219126798597028 189 189 191
-0.5332236813825929 0.3174438760525533 -1.126369536678204 189 189 191
-0.5111332479104621 0.44213344604041854 -1.1872396071650566 191 191 193
-0.5373710035897709 0.3052529453534654 -1.14211813880863 192 192 194
-0.5407669769049024 0.28965223446562915 -1.1414035295609342 192 192 194
-0.5428562829339438 0.2809852510290306 -1.1432192899148956 193 193 195
-0.5444735407740054 0.27482218253493984 -1.1459468206337355 193 193 195
-0.538950801459974 0.30672102314754557 -1.162922686566417 194 194 196
-0.5379948629205513 0.3143054025759989 -1.1708584749499826 194 194 196
-0.5401630149114605 0.30522124041588405 -1.1725244836237523 195 195 197
-1.0226858689648717 -1.9674801029383682 -0.9352177849597635 215 215 215
-0.4673113008507157 0.16579889111974203 0.0045360729869813165 175 174 178
-0.4663373930422901 0.1717130624298111 0.0009534404731056756 175 175 177
-0.448699595176655 0.2531738094903383 -0.0025731717260649607 175 175 177
-0.5365278890217702 0.32057942991507876 -1.1166930690191843 188 188 190
-0.5360596000127591 0.3255585160671356 -1.1235241963595897 189 189 191
-0.5393725304371644 0.31034956202885433 -1.1230817007817835 189 189 191
-0.5285487753041443 0.37069690161192637 -1.1500244655041585 190 190 192
-0.5710088780189866 0.14840730615429013 -1.0788883816800972 191 191 193
-0.5350035857211555 0.3437303316060941 -1.155540496040485 192 192 194
-0.5384936983977139 0.32753944776782706 -1.1546711681198931 192 192 194
-0.546894521600396 0.28496552804198094 -1.1439617044358752 193 193 195
-0.5483791997234467 0.2794803034574549 -1.1469466844247456 193 193 195
-0.5333285983718445 0.36289202099041584 -1.1832095761997956 194 194 196
-0.5293338505013911 0.3869518856847096 -1.1974293168974293 195 195 197
-0.529939882642626 0.38627741235878343 -1.2023906837078213 195 195 197
-1.0247283641527845 -1.971416306996599 -0.9300222942978279 215 215 215
-1.0205489415581928 -1.933362183869599 -0.9757174951605382 215 215 215
-0.47146816766365424 0.1651417950971055 0.004604702053782023 175 174 178
-0.47046074193739296 0.17125391297683779 0.001025248844426402 175 175 177
-0.4511834819306248 0.26070752652011187 -0.002488893643282107 175 175 177
-0.5407764857889538 0.32362546702635375 -1.1170659290884766 188 188 190
-0.5411857741709547 0.32393940163126267 -1.1222202841098496 189 189 191
-0.5410242629033016 0.327331553462778 -1.1284934386415038 189 189 191
-0.5440957275337754 0.31330323155752227 -1.128463726788345 190 190 192
-0.5774341842842153 0.1383360771640345 -1.0745087630161159 191 191 193
-0.5731811834822063 0.16371093664142816 -1.0886078710233784 192 192 194
-0.5645926122263452 0.21257998227500782 -1.1114725215006402 192 192 194
-0.5452038592497618 0.3199949312369592 -1.1562208735780612 193 193 195
-0.5479125094421033 0.307875417387485 -1.1567894035862112 193 193 195
-0.5316395778646081 0.3986580155195679 -1.1958338715702035 193 193 195
-0.5327536323013304 0.3952428156923956 -1.1997758663460723 195 195 197
-0.5795105882287741 0.14393725176974212 -1.1101285695906973 195 195 197
-1.0267482905608676 -1.9753090094371974 -0.9248842206050553 215 215 215
-1.0226795003571367 -1.9375762835704724 -0.9701665885577827 215 215 215
-0.47751211958938206 0.15580632736362737 0.004643106371662818 175 174 178
-0.47689717032646295 0.16016008375643825 0.0010730082735022429 175 175 177
-0.4819784461425419 0.138375643798356 -0.002538421590577331 175 175 177
-0.5860865836924368 0.10401208995298994 -1.0377968469380205 188 188 190
-0.5457469788353889 0.32532996131877734 -1.1219993255572691 189 189 191
-0.546835032386219 0.3219784105843387 -1.125836676347184 190 190 192
-0.5476027491108162 0.32036591778272894 -1.1302996815447373 190 190 192
-0.5795409007187229 0.14915489457381226 -1.0729985270376046 190 190 192
-0.5754969741174808 0.17360463997265346 -1.086720592662903 191 191 193
-0.5781022293463847 0.1618595394123562 -1.0872285686691974 192 192 194
-0.577152216748996 0.16949034869027912 -1.0948552111216243 192 192 194
-0.5497428935863715 0.32158161301056454 -1.156066358297465 193 193 195
-0.5492031791640863 0.32712273867500075 -1.1632130837845618 193 193 195
-0.5312893772181784 0.4276823232863776 -1.2059203988973688 194 194 196
-0.5852150416897721 0.1376988657447249 -1.107061811938811 195 195 197
-1.028746025652445 -1.9791589758338333 -0.9198025621767274 215 215 215
-1.0247859651849 -1.9417427797177202 -0.9646783982839691 215 215 215
-0.484575625622092 0.14163187179795106 0.004664080439995355 175 175 178
-0.48322338429022155 0.14941771808171525 0.0011209510748169272 175 175 177
-0.4865267740264383 0.1357109331601445 -0.0024675969538740378 175 175 177
-0.5195100840521641 0.1199070141932082 -0.3172593837066858 174 174 176
-0.5214649284227302 0.1121922179381088 -0.3202965861776198 173 173 175
-0.523411539045105 0.10450989326705576 -0.32332094323168015 173 173 175
-0.5253499853833289 0.09685975014986958 -0.32633252617570613 173 173 175
-0.5275551276326547 0.08790643634594789 -0.3291808510930845 173 173 175
-0.5297234326632476 0.07912315393357287 -0.33202875460525316 173 173 175
-0.5964658013755806 0.07168787323075318 -1.0255767198720123 188 188 190
-0.5505454038978395 0.32541599470104354 -1.1213101129788816 189 189 191
-0.5517087168872941 0.32163810793179115 -1.1249913343810438 190 190 192
-0.5520140663043522 0.32256101485922506 -1.1303695177157889 190 190 192
-0.5818243883680867 0.161584387245812 -1.076833666662345 190 190 192
-0.6187778584382715 -0.03426395453918357 -1.018999422617281 192 192 194
-0.6189648548849396 -0.03297070475195002 -1.0239707983618893 193 193 195
-1.0307219307898596 -1.982966886781788 -0.9147764170344966 215 215 215
-1.0268687274322295 -1.945862340514291 -0.9592520203122256 215 215 215
-0.48593797664814564 0.1537299912184628 0.004776763106448518 175 175 178
-0.4873292354330917 0.148835910932259 0.0011916822444028342 175 175 177
-0.48651358240450066 0.15419541156845645 -0.00237407156784915 175 175 176
-0.5234084119397755 0.11737182121030533 -0.3090214094065373 174 174 176
-0.5233811317397171 0.11928482287314893 -0.3130865219508881 174 174 176
-0.5260527933487986 0.10803093802806277 -0.31574765166318264 173 173 175
-0.5271179383334396 0.10460995692602458 -0.3192341399800296 173 173 175
-0.5286374420188125 0.09896662689699945 -0.32247120067387364 173 173 175
-0.5300216052982519 0.09397995893182057 -0.3257704694162963 172 172 174
-0.5319803210324644 0.08617823276948611 -0.3287433576107467 172 172 174
-0.53416469380295 0.07726412534091673 -0.33157267491695286 173 173 175
-0.5365064187461395 0.06757012611467161 -0.3342922730270631 173 173 175
-0.5989897032192286 0.07969839585518362 -1.0231497244348446 188 188 190
-0.600955802183862 0.0712675791429711 -1.0247689962698117 188 188 190
-0.5553306090356183 0.3255465988336813 -1.120637663983829 189 189 191
-0.5561647753142462 0.3235694772972285 -1.124965818667695 189 189 191
-0.5569835279025561 0.3216773877284638 -1.1293243766993735 190 190 192
-0.5835115666045853 0.17749902425132708 -1.0819313436682398 190 190 192
-0.6209476828143189 -0.02499129030876379 -1.0172648000677877 191 191 193
-0.6218061051345581 -0.027395482070712324 -1.0208776814644291 192 192 194
-0.622804935488931 -0.030580699254085714 -1.0241989454438003 193 193 195
-0.6215981410184789 -0.02150936315612978 -1.0320730837942511 193 193 195
-0.622262649128153 -0.020449231799860718 -1.0415182712621818 194 194 196
-1.032676361472153 -1.986733425157433 -0.9098048833203146 215 215 215
-1.0289281914142832 -1.94993581146199 -0.9538863512401468 215 215 215
-0.48982726331646875 0.15415699487889065 0.0048486051964117625 175 175 178
-0.48650588538080175 0.1712712912294991 0.0013158600050138664 175 175 177
-0.49143929926465063 0.14979593851267958 -0.0023050490588798957 175 175 175
-0.524792651446673 0.13068737002836184 -0.310181713218048 174 174 176
-0.527716661568552 0.1181381660981338 -0.31273045275826733 173 173 175
-0.5296835883988897 0.11027845218160906 -0.31575291157557733 172 172 174
-0.5315985136352168 0.10266659164368129 -0.31878550395526756 171 171 173
-0.533011762659583 0.09751551918659945 -0.3220724508396625 171 171 173
-0.5347264190818025 0.09087604903822866 -0.32518420588329155 171 171 173
-0.5363918808981282 0.08447256340153841 -0.32830894156074086 171 171 173
-0.5388332758650212 0.0742380732943669 -0.3309841907022587 172 172 174
-0.5413195792900782 0.06377115246729753 -0.3336093633138697 172 172 174
-0.5430829394376377 0.05686119599739621 -0.3366254227817841 173 173 175
-0.606082933910747 0.06483311277038839 -1.0172112935083177 187 187 189
-0.5602385933370303 0.324965746668107 -1.1197108273357976 189 189 191
-0.5601540895033363 0.3281050380464564 -1.1258783284710818 189 189 191
-0.5613559781837706 0.32407813272080055 -1.1294689283709385 190 190 192
-0.5874844091437579 0.18090091955560142 -1.0824742137736008 190 190 192
-0.623338942147515 -0.016861145294238572 -1.0150903842412176 191 191 193
-0.6239026052596752 -0.017618660547522452 -1.019316579829146 192 192 194
-0.6246705854339174 -0.019518133001845683 -1.0231250497605724 192 192 194
-0.6244759215441776 -0.013615550914909264 -1.034345029191079 193 193 195
-1.0346096580746014 -1.9904591884785696 -0.9048871588824514 215 215 215
-1.0309647450489758 -1.9539639532783737 -0.9485803875569329 215 215 215
-0.4923554045050404 0.160971284129858 0.004943182992961438 175 175 178
-0.4946633132561266 0.1517241516078502 0.0013423737352473777 175 175 175
-0.4936721998256367 0.15799743400123017 -0.002222037591722178 175 175 175
-0.5268091575075106 0.13920780864867138 -0.3069559896152667 174 174 176
-0.5274890069798421 0.13768340222928085 -0.3106796708270536 173 173 175
-0.5320526635293442 0.11695249718943979 -0.31237067869517327 172 172 174
-0.5333573295171696 0.11232427262876156 -0.3157364293304814 171 171 173
-0.5343773633726329 0.10910155212885331 -0.3192465297519203 170 170 172
-0.5354567434371515 0.10558269770909545 -0.32271968598571443 170 170 172
-0.5364900649412032 0.10228971982938434 -0.32621273942009293 170 170 172
-0.5402535071973809 0.08545053419169397 -0.32817701258936743 170 170 172
-0.542552506263115 0.07586158411038625 -0.3309258472630082 171 171 173
-0.5455904711559314 0.06259175372624674 -0.33322912100135443 172 172 174
-0.5475762881673375 0.05453661315879956 -0.33610865050000305 173 173 175
-0.6137878705042397 0.04625346320838594 -1.0099612645000862 187 187 189
-0.5626570789327 0.3383259514029568 -1.1237812513271794 189 189 191
-0.5660066500602234 0.3222156290828451 -1.1230365621575422 189 189 191
-0.5663115979131818 0.3232093656598252 -1.1284308498630875 190 190 192
-0.5887814926303884 0.19939991991515826 -1.0885002235698937 190 190 192
-0.6288778523128138 -0.023962803242882136 -1.0118489101879349 191 191 193
-0.6280546248204529 -0.01689694607048947 -1.018928056571539 192 192 194
-0.6286708288456992 -0.01794238620079311 -1.0230496154867565 192 192 194
-0.6296155096389883 -0.018402727335074504 -1.0319042942288825 193 193 195
-1.0365221739558506 -1.994144951696679 -0.9000222425107515 215 215 215
-1.032978769739446 -1.957947529215542 -0.9433331258854504 215 215 215
-0.5144204162213101 0.07540457518242567 0.004706282781017902 175 175 178
-0.49759846039087013 0.15663386857876432 0.0014259527560676489 175 175 175
-0.49556666777801733 0.16788912382178525 -0.0021367276944487725 175 175 175
-0.5378860227816175 0.1064316179360483 -0.30718253959786135 172 172 174
-0.5382628644695511 0.10639580578228161 -0.3110202581556448 171 171 173
-0.5380296277181155 0.10940210160300505 -0.31518782620853186 171 171 173
-0.5381230014106976 0.11078562890763108 -0.31919163012218615 170 170 172
-0.5397945846072867 0.10429829189283017 -0.3223394130966039 170 170 172
-0.5410095702217225 0.10008434492058363 -0.32572661376306034 170 170 172
-0.5417229972570831 0.09837278811353391 -0.3293880776719478 170 170 172
-0.5442234376304834 0.08772734071349873 -0.33203273678845896 170 170 172
-0.5499301630435385 0.061030862350171966 -0.3328054170464707 172 172 174
-0.5539900470422852 0.04254547786261569 -0.33446684447958447 173 173 175
-0.5770572517133039 0.27861729948012204 -1.0917843865798063 187 187 189
-0.5718148671218177 0.3109828796897417 -1.10826699491593 188 188 190
-0.5662192592251165 0.34540983419928173 -1.125598460542096 189 189 191
-0.5671984633345502 0.34262011034388057 -1.1296580247627055 189 189 191
-0.5911235223910114 0.20960507196249542 -1.0866526638405227 190 190 192
-0.589826799617385 0.2196244910678855 -1.0951447628391 191 191 193
-0.6332950628001943 -0.019920248245132638 -1.0216668290083648 192 192 194
-0.629702449813569 0.0055266972886940935 -1.0401249108445074 193 193 195
-1.038414229155589 -1.9977912289986275 -0.8952094318667368 215 215 215
-1.0349706403740524 -1.9618873050601375 -0.9381435629822297 215 215 215
-0.5182393579786078 0.0756152501026552 0.004775297534651883 175 174 178
-0.5024085298975866 0.15265405960161288 0.001488368656598604 174 174 175
-0.501498330123201 0.1586410841197936 -0.002073647634181247 175 175 175
-0.5411269973593623 0.1105836849637345 -0.3073850237036543 172 172 174
-0.5423477364022219 0.10632804309907024 -0.3107802378917528 171 171 173
-0.5426771691310487 0.10654193696055236 -0.31464657364768334 171 171 173
-0.5429847952191091 0.10686763956307346 -0.31852975720247795 170 170 172
-0.5454108139825569 0.09842139099147557 -0.3253013167899608 170 170 172
-0.547590077659724 0.0893313284450154 -0.32812965220458956 170 170 172
-0.5498842903284523 0.07965270038473093 -0.3308709323091967 171 171 173
-0.5514223455114451 0.07377306764969788 -0.3340274362273612 172 172 174
-0.5807691312942052 0.28431216817178895 -1.0931053645360913 187 187 189
-0.5824516171321134 0.27744081663434533 -1.0956063542320023 188 188 190
-0.5856143603216679 0.26210060052049955 -1.0950598817085089 189 189 191
-0.5725110295639149 0.33978198604835363 -1.1279142927728683 189 189 191
-0.5948665899377303 0.21459070498155686 -1.0877575871410365 190 190 192
-0.5901289793176556 0.24443560668616862 -1.1034445333967922 191 191 193
-1.0402861654687308 -2.0013987998347114 -0.8904477259775064 215 215 215
-1.0369407253263772 -1.965784049133348 -0.9330106957374666 215 215 215
-0.5220870273169635 0.07567295877585009 0.004843699429336254 175 174 178
-0.5105336522772376 0.13270480159395814 0.00151180460999846 174 174 175
-0.5054196390743254 0.15890174419473604 -0.0019996100696442302 174 174 174
-0.5462632059801114 0.10332533874832059 -0.3025682349161943 172 172 174
-0.5453768074856807 0.10968165009050337 -0.30706008855183925 172 172 174
-0.5464139303518228 0.10633274778608659 -0.31054811776261715 172 172 174
-0.5464382063418866 0.10810066788697384 -0.3145785311551387 171 171 173
-0.5475746935992195 0.10424789854458899 -0.3180093166515831 171 171 173
-0.5489150521177835 0.0993603573088983 -0.3213205972142435 170 170 172
-0.5497579748367936 0.09698755279500032 -0.3249019577296516 170 170 172
-0.5510778725681952 0.0921965909971314 -0.328209679861183 170 170 172
-0.553155342694811 0.08355980427689032 -0.3310718758667174 172 172 174
-0.5543702060334736 0.07929072266768776 -0.3344171405693689 173 173 175
-0.6289559564849626 0.029033028442294523 -0.9928673422187967 187 187 189
-0.5929665280220435 0.23851255042721803 -1.0713054051528044 187 187 189
-0.5837285357680979 0.29440824665479004 -1.0959845788896974 187 187 189
-0.5984954521661281 0.21212554018269072 -1.0716483015421936 188 188 190
-0.6019363666550255 0.1950007266174526 -1.0703583570430244 189 189 191
-0.5923358267000369 0.25311116200781536 -1.0960511915180717 189 189 191
-0.590026709434682 0.26921304316871014 -1.1067760378917815 190 190 192
-0.5924637126156631 0.2579074713420465 -1.1076225298060711 191 191 193
-0.5916509680508308 0.2653904601245555 -1.1152804202988416 191 191 193
-0.589390321131975 0.28127700939609235 -1.126042481349377 191 191 193
-0.5910794948162994 0.2742969829418589 -1.1284605477487284 192 192 194
-0.58960465546287 0.28566773945718216 -1.1376341505584375 193 193 195
-0.5858009929745301 0.31058908999693746 -1.1518737012264542 193 193 195
-0.5787548293172518 0.3573150284734947 -1.17944955908939 194 194 196
-1.045744597244819 -2.0417866076124707 -0.844025437662512 215 215 215
-0.5255313931982298 0.07765910815207391 0.004919100846579413 174 174 176
-0.5529672833261428 0.09176274052784608 -0.30496254001072465 173 173 175
-0.5504726200214355 0.10635466780463161 -0.31031804981113903 172 172 174
-0.5506598997663412 0.10731572683463084 -0.3142600591390637 172 172 174
-0.5508104212162854 0.10846737573669571 -0.31822939955494356 171 171 173
-0.5539259189531927 0.09450953466005757 -0.32055132837822525 171 171 173
-0.5520633826332232 0.10592615978319231 -0.3256528040710707 171 171 173
-0.5534901186615155 0.10057162960368142 -0.328907552557949 172 172 174
-0.5547189628651047 0.09622274815338681 -0.3322663270841964 173 173 175
-0.6272849784991594 0.06370919768354918 -1.0044044801595908 187 187 189
-0.6256996703623718 0.07550681711559554 -1.0131409394038124 187 187 189
-0.6234994998077033 0.09089947615257424 -1.0231943166563677 188 188 190
-0.6060424845551469 0.19499697481217357 -1.0648678856050013 189 189 191
-0.6058983767772355 0.198573157903665 -1.0709508520969155 189 189 191
-0.5960469334027609 0.2586826066996789 -1.0973507238060403 189 189 191
-0.5919947331987572 0.2851076298077178 -1.1118011447536302 190 190 192
-0.5941372911793393 0.2754476556470695 -1.1132690376502055 191 191 193
-0.5942051970943136 0.27788691461018655 -1.1191148471938337 191 191 193
-0.5932971781223191 0.2860377598894562 -1.1270624145020018 191 191 193
-0.5889378100955797 0.3143969165158198 -1.142462559158622 192 192 194
-0.5868878826267891 0.3292900520199078 -1.1529945828487784 193 193 195
-0.5893233440561898 0.3179268024213241 -1.1538547814825915 193 193 195
-0.5923905294463643 0.30283989637404723 -1.153298516019849 194 194 196
-0.5893555336192394 0.32355860601137243 -1.1660797348603391 194 194 196
-1.0474530675995364 -2.044762461404396 -0.8400245330265861 215 215 215
-0.5566604467716354 -0.054788560944594555 0.0044989593579846665 174 174 176
-0.5601663706714651 0.07556896397886909 -0.30304768488904893 173 173 175
-0.5589412584755403 0.08376051613053831 -0.30770362818846686 172 172 174
-0.5573427170753147 0.09387975748745042 -0.31259125003580257 172 172 174
-0.5591103305816619 0.08674435100612857 -0.3156447451783595 172 172 174
-0.558474967926282 0.09193839919372133 -0.32003256340173375 172 172 174
-0.5603835714732003 0.08407191770127555 -0.322991772434365 172 172 174
-0.5602718965035504 0.08658310579692682 -0.32709742314835666 173 173 175
-0.6215148011312626 0.12295089466694684 -1.0245439796525095 187 187 189
-0.623567723332715 0.11362676124993346 -1.0259268334981615 187 187 189
-0.6211278862156066 0.1306111314165512 -1.0365985603213144 188 188 190
-0.6109862794585513 0.19279621352195386 -1.0634046253091216 189 189 191
-0.6189496792095438 0.1488273753585935 -1.0524956993973236 189 189 191
-0.5984367757395826 0.2720867362436555 -1.1014591757908736 189 189 191
-0.5969336339127329 0.28378744628725217 -1.11061444340142 190 190 192
-0.5979630249849246 0.28060620799065195 -1.1144250491424865 191 191 193
-0.5953751675816953 0.2987347906819743 -1.1259816358144683 191 191 193
-0.5953736516466597 0.30164824268280066 -1.1320445640668992 191 191 193
-0.59179541321696 0.3256840677438322 -1.145873712383214 192 192 194
-0.5902465714600759 0.3377780286342964 -1.1553855940384727 193 193 195
-0.598226341041568 0.2964689815725963 -1.1501919134973813 194 194 196
-1.0491454307750159 -2.0477103200973596 -0.8360612820714042 215 215 215
-0.5599608268389864 -0.052967856952445935 0.004570605075676498 174 174 177
-0.5586550272089622 -0.04497723503029394 0.0012815468683456677 174 174 176
-0.5613222142107906 0.09418838496939737 -0.3123912014541129 173 173 175
-0.563091382275684 0.08700363198352931 -0.3154382902637566 173 173 175
-0.5607594204068551 0.1010196455897609 -0.3207885963433722 173 173 175
-0.6284283967962587 0.10838880180191582 -1.0187846422389533 187 187 189
-0.6263679031104271 0.12327622212462117 -1.02866977733258 187 187 189
-0.6265716841620971 0.12480861279102504 -1.033883611097864 187 187 189
-0.6250913878323731 0.13631276728345537 -1.0426517733096845 189 189 191
-0.6234119439181247 0.14902154345877777 -1.0518926432305533 189 189 191
-0.61953219058878 0.17480282936116887 -1.0658681040781517 189 189 191
-0.6185990702729308 0.1831499357489676 -1.0736522286925003 190 190 192
-0.6176595367759988 0.19155438902759866 -1.0814898082359594 190 190 192
-0.6179107988083012 0.19289812257204222 -1.0867940071983 191 191 193
-0.5959332235386944 0.3265406172460883 -1.1404088963303405 192 192 194
-0.5943599136644113 0.33889227161375135 -1.149984835909771 192 192 194
-0.6539890205204191 -0.008330725724254556 -1.0361952255554294 194 194 196
-1.0508218946048324 -2.05063037656189 -0.8321353823447348 215 215 215
-0.5632123034127636 -0.050899940502097674 0.0046431975017932475 174 174 177
-0.5655620578512414 -0.06084445385701495 0.0013082348064043237 174 174 176
-0.5656608149489022 -0.05970990390151301 -0.0019915167968698883 174 174 175
-0.624978636521575 0.15524137957206177 -1.0345484662003839 187 187 189
-0.6237920961966106 0.16511433500603515 -1.04273765656782 187 187 189
-0.6241564106784588 0.16575717896607886 -1.0477008780738644 187 187 189
-0.6270224537373321 0.15146513866122543 -1.0473675448592301 189 189 191
-0.6227294248989133 0.1799415900998555 -1.0622523121365965 189 189 191
-0.6211558042777032 0.19220557892656348 -1.0714242959337874 189 189 191
-0.6202099769675495 0.20073681271886215 -1.079297795153944 190 190 192
-0.6192574815931916 0.20932792263376684 -1.0872262551169833 190 190 192
-0.6186339453457282 0.2159651890409934 -1.0944785781261335 191 191 193
-0.6187904689699413 0.21793350752988644 -1.1000547123736564 192 192 194
-0.5991038369914761 0.33920927676415225 -1.1493662576393777 192 192 194
-0.6593388679397898 -0.02024482196830263 -1.0221211579978016 192 192 194
-0.660108172785092 -0.022182260677643784 -1.0258961147843149 193 193 195
-0.6585960877210442 -0.010363969079907692 -1.0347783827173775 194 194 196
-0.6610649707504201 -0.022547186856243434 -1.0347523766320734 194 194 196
-1.052482704755676 -2.0535232651617155 -0.8282460336380046 215 215 215
-0.5643937553256326 -0.038568732681498796 0.004754391374444444 175 174 177
-0.5662947624493276 -0.04633941109888173 0.0014114225721820611 174 174 176
-0.6228820087880921 0.19479296003492683 -1.0477357788139452 187 187 189
-0.6226920356735131 0.20170439972132448 -1.0597332140335782 187 187 189
-0.6014617947576474 0.33558341646074996 -1.1170669761267318 189 189 191
-0.6028784032406092 0.33007095812206605 -1.1201172385906981 189 189 191
-0.6195194903126617 0.23252908114978854 -1.090046623502189 189 189 191
-0.6207201111124306 0.22821889249839447 -1.0933590486192366 190 190 192
-0.6199144066098712 0.23605452480270325 -1.1010722602108531 191 191 193
-0.6216564052854784 0.22846445630246645 -1.1031921601838148 192 192 194
-0.6212668883513923 0.23379735633029203 -1.1100261898523371 192 192 194
-0.6630187143752504 -0.014089890637079827 -1.0282313254247184 193 193 195
-0.6629090731690062 -0.010674634507563174 -1.0340025287213606 194 194 196
-1.054128066606533 -2.0563892253435103 -0.8243928838513314 215 215 215
-0.5688295744699323 -0.04231780182987879 0.004805301589923372 174 174 176
-0.5689822176847168 -0.04141077095915632 0.0014906343483165746 174 174 176
-0.5682150971611579 -0.0359089764491386 -0.0018234113113316797 174 174 176
-0.6236426851650003 0.22066023318331934 -1.060931388870163 187 187 189
-0.6197172781002421 0.24746635288789418 -1.0752155532809207 187 187 189
-0.5997427985922218 0.3719507014400348 -1.1242383847453448 188 188 190
-0.6036187307976447 0.354567326858984 -1.1281702576512302 189 189 191
-0.6230663381604087 0.2390326840124607 -1.0916893805070282 190 190 192
-0.6240717480532826 0.23589588939755807 -1.095433936336245 191 191 193
-0.6227472839464705 0.24699880668317867 -1.1043398522373993 191 191 193
-0.6241060574371922 0.24170863593141498 -1.107314129624556 192 192 194
-0.6243853842120677 0.2430232803973442 -1.1126945076486636 192 192 194
-0.66863068394327 -0.022454187083143284 -1.0244867855255324 194 194 196
-0.6686588276234843 -0.019847588078363232 -1.0299407397924647 194 194 196
-1.0557581985197593 -2.059228673987627 -0.8205753818264069 215 215 215
-0.5502038733527049 0.06963392728049012 0.005296224390101009 174 174 174
-0.5698955792642048 -0.027522089904901792 0.0015932719341267276 174 174 174
-0.5689015397456585 -0.020825327042549024 -0.0017341642579633831 174 174 174
-0.6249719311121974 0.240562707881984 -1.0672459634053084 187 187 189
-0.6191055951279658 0.2795592908382079 -1.0858545444597234 187 187 189
-0.6003845411000328 0.39756161343473073 -1.132599762872312 188 188 190
-0.6269114039919518 0.24379047334449727 -1.092702637892489 190 190 192
-0.6278014955129689 0.24135502013369073 -1.096705581089207 191 191 193
-0.6278432691952249 0.24415296240588463 -1.1026037527445627 191 191 193
-0.6272601436494499 0.25082016475334007 -1.109925790163049 192 192 194
-0.6293268336439155 0.2411202721588559 -1.1112886548865912 192 192 194
-0.6264445091678704 0.2620361076369198 -1.1238738909709176 193 193 195
-1.0573733003367796 -2.062041852695102 -0.8167931755769642 215 215 215
-0.5571878382795171 0.053652571633396 0.005302558444957618 174 174 174
-0.5736920754908922 -0.02804356878596656 0.0016587761114457006 174 174 174
-0.5649530263393292 0.01789945789452907 -0.0016109368252503337 174 174 174
-0.6183901981941258 0.31286795075394785 -1.096908505901244 187 187 189
-0.6037058830501917 0.4070157974335373 -1.13522680528946 188 188 190
-0.6051221288332358 0.4014706933725001 -1.1383772469368145 189 189 191
-0.6065924276450657 0.3955824597699107 -1.1413932795750537 189 189 191
-0.6306358722143646 0.24935622171580757 -1.0940046003451722 190 190 192
-0.6315405907192132 0.24682766267579162 -1.0979803556629315 190 190 192
-0.6312170100078005 0.25194919757455064 -1.1047254055489613 191 191 193
-0.6300053972774532 0.26262256664889805 -1.1135132460367085 191 191 193
-0.6309293457895087 0.25999095841514686 -1.1174780242836582 192 192 194
-0.8409216253802463 -0.21991464779939618 -2.247485361433635 214 214 214
-0.8416049548532278 -0.22071472414073529 -2.252637346764547 214 214 214
-0.8427045863896531 -0.22537306799513362 -2.254400056395368 214 214 214
-0.8428675489915993 -0.22133402428304044 -2.2638202803247323 214 214 214
-1.0589735951899586 -2.0648293133541373 -0.8130455647527942 215 215 215
-0.5573679546934472 0.07385712446395269 0.001994939991236608 174 174 174
-0.5556476422862386 0.08442747017245648 -0.0014460020266583162 174 174 174
-0.6175391736810284 0.3444158826512925 -1.1023196765707064 187 187 189
-0.6177060997916002 0.3465821854886714 -1.1080911263255075 187 187 189
-0.6065246860013778 0.41976058268879224 -1.1390153084606705 188 188 190
-0.609478458370446 0.40456207721868287 -1.1387511740779122 189 189 191
-0.6093870699008519 0.40842827676109383 -1.145254863533396 189 189 191
-0.6106566574823824 0.4037646744312164 -1.1487162097242631 190 190 192
-0.6139530596299756 0.3929649685763702 -1.1602071871463613 191 191 193
-0.6378351398728755 0.24576932200015503 -1.111570660188846 192 192 194
-0.6620654790585302 0.0990933562948823 -1.0673244877813493 194 194 196
-0.8440125096556406 -0.21174928051281022 -2.2471865325810985 214 214 214
-0.8452774703019559 -0.2179876925416469 -2.247590590436999 214 214 214
-0.8456636191988474 -0.21597272831396097 -2.2552105154448157 214 214 214
-0.8469827775527359 -0.2227433257046451 -2.2551252099468173 214 214 214
-0.8457748722240632 -0.20564137365640606 -2.276056450824369 214 214 214
-0.8463583080670698 -0.2054308350315407 -2.282149037510136 214 214 214
-1.0605592802218289 -2.06759134423696 -0.8093321477249928 215 215 215
-0.5478435840174068 0.1404115659336377 0.005772937256924841 174 174 174
-0.5610983882814305 0.07432610056384392 0.0020653882587166675 174 174 174
-0.5652347075014862 0.05493473959552135 -0.0014178369642582483 174 174 174
-0.6166269188432298 0.38010967477018903 -1.114131602539585 187 187 189
-0.6169110074510936 0.3816105592583723 -1.119722144742267 187 187 189
-0.611277198211087 0.4205010980508658 -1.1385517861283307 188 188 190
-0.6125979582029942 0.4154998391489018 -1.1419131058180025 189 189 191
-0.6194307648472303 0.3756001916368702 -1.1328054987098437 189 189 191
-0.6227367190481387 0.3579695037492452 -1.1315616217766746 190 190 192
-0.6653853746695724 0.09681268482466476 -1.0518308938719347 191 191 193
-0.66765052358579 0.09155594030662823 -1.0638686316825576 193 193 195
-0.848057253979705 -0.21251864385710545 -2.239093992384922 214 214 214
-0.8482527166652485 -0.20863815695287663 -2.248320339306105 214 214 214
-0.8491459840699844 -0.2113979180413419 -2.251770105211172 213 213 213
-0.850189348749717 -0.21559896099112474 -2.2539528320762487 212 212 212
-0.8511987535052388 -0.21948491484694121 -2.2564014405148773 211 211 211
-0.8498213194958466 -0.20042499651707307 -2.279048847872593 213 213 213
-0.8506602039266423 -0.20263386285226725 -2.2830118876681693 214 214 214
-0.8521134450748624 -0.21077999181866253 -2.2817170522590784 214 214 214
-1.0621305499690112 -2.070328234629614 -0.8056525229181222 215 215 215
-0.55109293275081 0.1437957436169105 0.005855133096157782 174 174 174
-0.5508705774952892 0.14683469931525672 0.0023297162019169405 174 174 174
-0.5492831146760031 0.15693076322303395 -0.0011962210726773406 174 174 174
