ply
format ascii 1.0
element vertex 684
property float x
property float y
property float z
property uchar diffuse_red
property uchar diffuse_green
property uchar diffuse_blue
end_header
-0.13185128383641787 0.4245766990319805 -2.108280814332698 119 97 61
-0.13733363826264128 0.4284930149037779 -2.1091477810149795 92 68 35
-0.14363037013477847 0.43295104953551494 -2.1092312012353007 86 63 26
-0.15007076724446805 0.4375037109132675 -2.1091550070131007 84 62 24
-0.1285194197575541 0.4234114082325112 -2.1354403573890215 82 59 24
-0.13096954754455664 0.4253078699710354 -2.1391601211963622 83 61 25
-0.13859385620747555 0.43064919470266894 -2.137970654058339 85 62 26
-0.13991126330500248 0.4317906427617502 -2.142745272346493 85 63 26
-0.13364868729758345 0.42788709856949225 -2.154748294363835 86 64 27
-0.1328299242205 0.4276080718870802 -2.1615894292607436 85 63 26
-0.124234371726064 0.4221554004777197 -2.1758998720435287 84 62 25
-0.12786565625671714 0.42483876013901073 -2.178510541575416 84 62 25
-0.13962492726406478 0.4329276442814223 -2.1732744758244706 84 62 25
-0.1505575334193725 0.4404644222598956 -2.1687833229164726 85 63 26
-0.1540008262092155 0.4430195870476663 -2.1715032149866285 84 62 25
-0.16226143227431644 0.4487766487589657 -2.169530062702449 85 63 26
-0.16457173574619005 0.4505773812970445 -2.1733223912165065 86 64 27
-0.17533958778204428 0.4579981154709493 -2.1688427473165675 86 64 27
-0.17492685154556764 0.45798836508779844 -2.1752747619313393 85 63 26
-0.1739040787751922 0.45757388040311153 -2.182317834269827 85 63 26
-0.17412894902842718 0.4579886682342149 -2.1881456428068926 85 63 26
-0.16482237226572666 0.4520745897251432 -2.203403690239828 85 63 26
-0.15695750576666662 0.44712032000701135 -2.2172926624060576 85 63 26
-0.1668034300914346 0.4539246731342466 -2.213628925225652 88 66 29
-0.17286839238285467 0.45821773491282897 -2.213689176284226 88 66 29
-0.18400534950053188 0.4658752802873043 -2.2086557777379037 89 66 30
-0.18626401882139432 0.4676403933822916 -2.212468779467395 82 59 24
-0.18847984734197082 0.46937694771094923 -2.2163216022565337 74 53 22
-0.19073488567295577 0.4711393737264598 -2.2201319037895897 68 47 21
-0.19431736648088055 0.47378184458805184 -2.2225975224655468 66 45 22
-0.19622834779796694 0.47531573367602414 -2.2267463225747077 73 53 27
-0.1983487087322327 0.47698834620374647 -2.230681031000258 81 62 26
-0.20046822631904165 0.4786602898020478 -2.2346140908397754 84 66 22
-0.20182269901302508 0.4798252180872707 -2.239326254822054 84 66 19
-0.20456657491544672 0.48191064724993193 -2.242616803409348 85 66 22
-0.20900432839986688 0.4851177319874966 -2.244161344107001 87 68 26
-0.21253511133823916 0.48772352785897627 -2.2466246068454865 91 72 30
-0.21674118448821156 0.49077597000384415 -2.2483799712726555 92 73 36
-0.21851070077574142 0.49221486117212987 -2.2526444543222333 90 72 37
-0.21961836397002588 0.4932156810344453 -2.257595627045927 96 82 48
-0.22002477779742957 0.4937526050820356 -2.263280092115976 129 120 99
-0.22074542123395063 0.4944977335683824 -2.268643555577352 170 167 160
-0.22276796657240583 0.496104271449598 -2.272649396196113 187 186 188
-0.2258047569790521 0.4983814929325716 -2.275588550018849 196 196 198
-0.20981431295179914 0.48807704665111573 -2.2985468262307975 200 201 203
-0.2522091233829248 0.5163756556366331 -2.259987005471754 204 204 206
-0.25617787509495277 0.5192653272003125 -2.2618588999513656 206 206 208
-0.16513577860889872 0.45936614222571154 -2.3645289641305363 207 207 209
-0.30613723199994897 0.5528079822264244 -2.2208560826803367 208 208 210
-0.30443999303279595 0.551947679833126 -2.2286126517701033 209 209 211
-0.3258980206214247 0.5663817612013489 -2.2116211319193466 209 209 211
-0.35434492979153076 0.5854259907704458 -2.187020775315105 210 210 212
0.7459015029472121 -0.27843321190882986 -0.09529674678621233 175 175 175
0.2932867782895814 0.0827559154324925 -1.0341211962739592 178 179 183
0.29878684947629974 0.07919806365246512 -1.0413396299341708 178 179 183
0.2868702562025612 0.08762612881602855 -1.0418237045794718 178 179 183
0.29553614553726626 0.08189105420580345 -1.050298757020057 178 179 183
0.27732184396141 0.09464988305838151 -1.0482752467440795 178 179 183
0.2782972398671731 0.09420604000165028 -1.0537483594281059 179 180 184
0.2862594723961513 0.08895726656790492 -1.0619973599949213 179 180 184
0.2825982930044877 0.09170345835360189 -1.065659879372646 179 180 184
0.24452369613479516 0.11811218377123667 -1.05556064001531 179 180 184
0.2759776659732865 0.09671237590139115 -1.0732440705829347 179 180 184
0.2774940412661504 0.09589838403620699 -1.078974448432279 179 180 184
0.26817582458175493 0.10253208813639542 -1.0803244434624053 180 181 185
0.2619537241545435 0.10703663540710934 -1.0829063041823535 180 181 185
0.2553903644601514 0.11177490810066237 -1.085331010775965 180 181 185
0.1927111999583698 0.155069019074959 -1.0646615430643391 180 181 185
0.19364651949091882 0.1546491434317664 -1.0700382062504734 180 181 185
0.19390690372949948 0.15469333763856774 -1.0751446733216334 180 181 185
0.19416768931910564 0.1547375845213435 -1.080258665318535 180 181 185
0.19186784147869443 0.1565406650633958 -1.0843072603081176 181 182 186
0.19234538658185335 0.15643650893830957 -1.0895222748837525 182 183 187
0.19123239347519747 0.15742474041751248 -1.0940729981392916 182 183 187
0.19365503956423452 0.15598589787099437 -1.1001276417468473 183 184 188
0.19351069489128708 0.1563097419170429 -1.105102730740628 183 184 188
0.19256249938543596 0.15718553978890987 -1.109739088512005 182 183 187
0.19542798054532484 0.15544442048325213 -1.1160204532141107 183 184 188
0.19821938903060804 0.1537549129215548 -1.1222874267633849 183 184 189
0.19415329753502242 0.15677076974011755 -1.1255919269720782 183 184 189
0.20323043063571028 0.15077044459923966 -1.134624011777764 184 185 187
0.21109170323182527 0.14560592747792506 -1.1431651070261342 184 185 187
0.216957308795692 0.1418116834039218 -1.150864673519624 185 186 188
0.21993781073680063 0.13999707591548505 -1.1573175149271515 185 186 188
0.22288502383302672 0.13820610950729495 -1.1637738910117152 185 186 188
0.22584266731086144 0.1364088064058877 -1.170253153725033 185 186 188
0.20773768579840313 0.14904938597152845 -1.1673079713754837 186 187 189
0.210475005633206 0.14740285720199942 -1.1736830079392508 186 187 189
0.13917751172016826 0.1964900989286481 -1.146591267091701 186 187 189
0.13937950176390934 0.19657570896971743 -1.1517027117472722 187 188 190
0.13088825451967118 0.2026172187454135 -1.1528551636521156 188 189 191
0.2244716653251828 0.1387371117375435 -1.2007544222555726 189 190 192
0.2110988089469102 0.14812868500912507 -1.1998088135433826 189 190 192
0.2317100307677284 0.13424537474358683 -1.2145246771983305 189 190 192
0.15559181322074264 0.18659918235922873 -1.1844262883529062 190 191 193
0.15189534983903089 0.18935712597045823 -1.1877943821194632 191 192 195
0.21919497229951218 0.14351452043541563 -1.2243956592641396 191 192 196
0.22320160994226945 0.141005629825936 -1.2315117021458664 192 193 197
0.3211934441193803 0.07417726095854954 -1.2830327282060312 192 193 197
0.29073523253001066 0.09526240082407411 -1.2740389247583483 193 194 198
0.29269707484391366 0.09416094401575226 -1.2803695409744686 194 195 199
0.2841027538142069 0.10739516150315936 -1.4410708775262415 200 201 205
0.2857608543721357 0.10651557634916031 -1.4475717881980712 200 201 205
0.27738112393609815 0.1124749417007665 -1.44864635225665 200 201 205
0.2682119491553262 0.11897080571270369 -1.4492635938810325 200 201 205
0.25330824784063743 0.12937087144821274 -1.4467173516655703 200 201 205
0.23678884185069926 0.1408687165423747 -1.443229809656808 199 200 204
0.2208368472141839 0.15197744425385284 -1.4399923091775162 194 193 196
0.19761060444995815 0.16803568404272018 -1.4326754058262272 152 150 146
0.18417374810697296 0.17742633588665846 -1.430697441680962 117 110 102
0.17142746191591374 0.18634477476780603 -1.4290543530526796 110 101 90
0.158151598317731 0.1956215030973394 -1.427068489808756 105 92 76
0.14726601706822362 0.20326967723850448 -1.426374500192736 107 93 73
0.14145240871890113 0.2074655900857456 -1.4284977239136747 108 92 70
0.13234815394624982 0.21389906898394134 -1.4287432561214608 105 88 65
0.12938754944145237 0.2161527133157124 -1.4324431384632421 107 89 65
0.13478504820354098 0.21272239120598624 -1.4408978705488138 107 90 64
0.10268750688240985 0.23478742406508862 -1.4279476394006911 106 89 63
0.0860902660248184 0.24630900854061505 -1.42376165402991 107 90 64
0.08204878788185377 0.24929309634775765 -1.4267433426201774 107 90 64
0.08265251668434004 0.24911964377162205 -1.4324002273326868 104 86 61
0.0705596539913011 0.25757455887068875 -1.4306995142528718 102 85 60
0.07888216319590619 0.25215621816780753 -1.4408439872366186 101 83 58
0.07982195697637007 0.25175528049051754 -1.4467157517299951 99 82 56
0.0774108728154354 0.2536309560508355 -1.4506326800029512 96 79 53
0.07128660411264504 0.2580283419588133 -1.452359726169948 98 81 55
0.06302692273722843 0.26387495146113266 -1.4528053215550198 98 81 55
0.06463069397972371 0.26302330151315395 -1.4590733856243479 95 77 53
0.06196100385234765 0.26507341685727154 -1.4628112319533904 96 78 54
0.042118516970195974 0.2787798116860165 -1.4562830622606593 99 81 57
0.04155063668209408 0.2794014116064121 -1.4612352082376776 90 74 50
0.041292092426548355 0.27981330968880963 -1.4663782018818292 76 61 40
0.04208164198444764 0.27951436118008016 -1.4721603458794557 74 56 34
0.04153251453984591 0.28012402667801295 -1.477141502370202 111 91 60
0.0407667347339693 0.28088085813920005 -1.481995609742619 126 103 69
0.0386462382904445 0.28255661800598336 -1.4860263069225974 115 91 57
0.035652552931246084 0.2848243881411701 -1.4895197881290687 114 90 56
0.0328967548601925 0.2869306068493941 -1.493153641270307 121 98 64
0.030981494430357415 0.2884668083636973 -1.4973013942900513 125 101 67
0.0257579735793389 0.2922452927005977 -1.4993987108777047 111 88 56
0.023098170080436686 0.29428563819960085 -1.503073916206463 103 83 53
0.019470661268234546 0.2969815018904382 -1.5061409176036062 102 83 51
0.020361816398952848 0.29661556043106124 -1.5120280203468095 99 80 48
0.017795126996867305 0.29859247971179687 -1.5157538770431034 98 79 47
0.011800248864807739 0.30289114880742873 -1.5173142192541837 98 77 46
0.010577550466922714 0.3039572001061018 -1.5218745585163616 93 70 40
0.03846430693140607 0.2853130863437213 -1.5449188509785283 81 60 28
0.031092798585284964 0.2905449895233369 -1.5456299442552348 104 82 43
0.025153606602770273 0.29480620735397794 -1.5472313405802671 151 127 81
0.021282471566324845 0.2976668899238148 -1.550140468204994 150 124 76
0.01755022017040786 0.30043314504529767 -1.5531290762434922 154 126 83
0.013562388466336617 0.30337191174510225 -1.5559432234401684 133 104 67
0.011518045598235882 0.3049954197294635 -1.5600068619416412 103 79 41
0.012491170304672283 0.3045778016654107 -1.5660317361358518 104 81 43
0.013270036767301374 0.30429208677127945 -1.571941548743639 107 83 45
0.011098747998293024 0.306001781286453 -1.5759297507467949 117 94 55
-0.0011068907776988768 0.3144956840118811 -1.5733199370041722 116 94 55
0.0016813241293008874 0.31285149129614187 -1.58055186739898 95 73 35
-0.0020957305248237024 0.3156457057993286 -1.5834587579122414 107 85 49
-0.007090204762918273 0.31926222923187303 -1.585547517775593 102 79 47
-0.010770032481892178 0.32198976063308277 -1.5884970930602624 63 46 22
-0.012325984076711483 0.32328197884760507 -1.5928574623627494 85 69 50
-0.01759080240258243 0.3270795634802817 -1.5947299612200152 108 89 67
-0.026186817450454536 0.33312630639237 -1.5943435171239646 116 93 67
-0.027150620240625534 0.33401760296461547 -1.5990804595489154 114 89 59
-0.033669497415839855 0.33865980987378536 -1.6000556465937403 121 100 68
-0.039122066385705034 0.3425811596335473 -1.6017335937339767 129 109 73
-0.043355707718622516 0.34567895945748495 -1.604225701558242 117 95 65
-0.05083783981562773 0.3509686054888212 -1.6044819958209082 125 102 70
-0.05817675065372785 0.3561604077425498 -1.6048097842644213 127 105 70
-0.06462695707382177 0.3607514399846609 -1.605723763513285 117 97 66
-0.0692925479739393 0.36413760577979376 -1.6078495068083236 120 96 68
-0.07561278463188453 0.36863917165454674 -1.6088132271353823 116 96 66
-0.07367893349816679 0.3675733868749219 -1.6155007194987112 145 124 87
-0.08403236826045224 0.3747933487442609 -1.6136232461244668 133 108 71
-0.09633186189856419 0.38332348469956357 -1.6103417151536292 165 137 98
-0.10437197485187766 0.38898029268327644 -1.6100050548940088 160 131 90
-0.10629811836971748 0.39051516136356773 -1.6139509018191092 150 123 85
-0.11156475136735994 0.39430098906055217 -1.615531258380233 100 76 40
-0.10961635201889675 0.3932248662127946 -1.6222170667530555 76 56 25
-0.10885407771297129 0.3929485162278139 -1.6280744457431158 89 69 42
-0.1045799178406907 0.39030722421210595 -1.6364525380925086 92 72 45
-0.09298807285719918 0.38273908846941074 -1.6501046477511212 95 75 48
-0.08440225631066656 0.3771977889820604 -1.6616561371323186 97 77 50
-0.07766951236948855 0.3729061764248819 -1.6719180597901784 95 78 47
-0.06788400680482537 0.3665613968819616 -1.684429324181544 101 84 53
-0.05250597486069819 0.35645508154591754 -1.7010562815679036 92 74 48
-0.04592074907564775 0.35226921446179543 -1.711355850621855 72 55 31
-0.035100645339804004 0.3452357743401914 -1.7247900838066623 67 52 27
-0.03936054513577025 0.34834946396593963 -1.7272231671195934 71 54 30
-0.03556936071710903 0.34604738716754857 -1.735567739533266 77 59 35
-0.035703504578409706 0.34638624811916824 -1.7410405896654053 88 71 45
-0.03451427678790986 0.34583560038406336 -1.7475006040804313 93 78 52
-0.031176506857318487 0.34384111081547425 -1.755570216648606 106 88 61
-0.03206887917506046 0.34469111415364734 -1.7605110054692399 104 84 55
-0.030530168219417175 0.3439074027274839 -1.7672730053513925 108 87 54
-0.030745479878739712 0.34430302481958763 -1.772734695644301 113 90 57
-0.032975286120273506 0.34605242396001373 -1.776687580724738 128 105 70
-0.032379688178407806 0.3459037124044189 -1.7827703440888172 108 86 56
-0.029883988249854165 0.3444792755816023 -1.790302629977629 98 80 50
-0.03066475972540683 0.34525602650420417 -1.7953661165200614 100 83 55
-0.030701004208965432 0.3455330634271781 -1.801001166222995 100 82 54
-0.033596611234658236 0.34773002875763565 -1.8044584296043744 103 86 58
-0.030913036013817452 0.34618185188407746 -1.812187799567789 91 74 48
-0.03508090170373823 0.3492327232030841 -1.8146680842454819 92 72 48
-0.04062350028643397 0.35320551465968086 -1.8160755834089213 98 78 48
-0.044154706970646274 0.35582802695132815 -1.8190212233006824 107 86 55
-0.045267793061695205 0.35682807892186996 -1.8238353569303531 106 83 52
-0.04928998259715095 0.35977934158516517 -1.8263863942407292 103 80 49
-0.04819430943842051 0.3592981758669069 -1.8329244951033443 111 88 57
-0.046601504690962414 0.35848429766608614 -1.839865612190811 111 88 57
-0.041003051462389806 0.35498590243244815 -1.8499715991729921 111 88 57
-0.036140880265879916 0.35198258081021666 -1.8595323743733334 111 89 58
-0.04746892200742636 0.35983042324829356 -1.8563182764365687 114 92 61
-0.04212974138021669 0.35650857373834344 -1.8662818344443803 113 91 60
-0.057441175478758655 0.36702259267642984 -1.8598437050247494 110 88 57
-0.056272527629742775 0.3664950334005425 -1.8664957722458688 112 89 58
-0.05526139978860767 0.36607358696270614 -1.873035609320087 109 86 55
-0.055025889006835804 0.3661720777738211 -1.878965587361018 113 90 59
-0.055794792758022516 0.3669434282067235 -1.8840956609380775 109 87 56
-0.05549917475885535 0.3670024124523983 -1.8900905247286814 106 85 54
-0.05480112679841437 0.36679249775046274 -1.8964213370002407 99 78 47
-0.05390740484873913 0.3664521699928732 -1.9029229822006635 104 83 52
-0.05354266263315699 0.3664663208979801 -1.9090059065200737 105 82 50
-0.056079653415256336 0.3684219918969177 -1.9127250936649838 103 80 48
-0.06204594197735663 0.37267106755970963 -1.9136260603281379 106 83 51
-0.06473875761753595 0.3747301799058082 -1.9171999498702221 105 82 50
-0.0679666302547034 0.3771468061749103 -1.9203270653603703 101 77 45
-0.07044154489604965 0.37905974192899167 -1.9240699127986987 102 78 46
-0.07491407717566184 0.38230766453010134 -1.9261496832563036 100 76 45
-0.08190965116794591 0.387241028812481 -1.9261136952775035 98 75 44
-0.07916883707301081 0.3856677816571525 -1.9341861048157245 94 71 40
-0.08132168589508776 0.3873647014324667 -1.9381795407743991 91 68 37
-0.0743569766869952 0.38297160746757947 -1.9498343034333974 92 69 39
-0.07501793712497756 0.38367302170197903 -1.9551035684064753 97 76 47
-0.08157178143834248 0.3883093845681709 -1.9553950404267424 100 79 50
-0.0807279460714806 0.3880059990706814 -1.961935904642426 101 80 51
-0.08396932865705925 0.3904299899769692 -1.9650144866493227 98 77 48
-0.08411624786519062 0.3907884783568476 -1.9707252074042032 95 74 45
-0.08242584987606827 0.38992135095514074 -1.9780158342796643 95 74 45
-0.07612485169465916 0.38597905637055585 -1.9892804611581054 96 75 45
-0.07179399990654195 0.38335271625755285 -1.9988897865800945 96 75 44
-0.07087243386071551 0.3830014487914313 -2.0055864463779853 90 69 38
-0.09568319279030874 0.399809149417089 -1.990015950559063 92 71 40
-0.09183795057064087 0.39750695918297496 -1.9992125234804283 92 71 40
-0.09413835994766973 0.39930256187783003 -2.0030846738973125 91 70 39
-0.09343330382007126 0.3990949986766085 -2.0095789646102777 89 68 37
-0.0837517080751019 0.392906498769185 -2.0239496314728003 88 67 36
-0.09371888920420096 0.39981123455279577 -2.0211142674127376 88 67 38
-0.0867898621748211 0.39545922259710414 -2.0331255572882507 87 66 37
-0.08545710955730129 0.3948363180120524 -2.040235231039506 94 73 44
-0.09132099437032098 0.3990062552203479 -2.040981610639959 100 77 47
-0.0987180762936326 0.40419599019047936 -2.0403435092347255 135 107 71
-0.1062512648597031 0.4094750079608251 -2.039554541838272 145 117 78
-0.11367074366041963 0.4146769954112073 -2.0388369524714345 100 77 46
-0.12493482250891763 0.4224359483931378 -2.034642090782764 85 65 38
-0.13172084058152345 0.42721338313898777 -2.03442459268976 84 65 35
-0.09850166002086258 0.40537843621335873 -2.0702615248395775 84 63 32
-0.11766025405851821 0.4183868588272228 -2.058903734988202 85 64 33
-0.10756145533076783 0.41193619543987275 -2.0739948135349087 86 65 34
-0.10340718443733338 0.4094404617231871 -2.0837394609957918 86 65 34
-0.10880378095750465 0.41329481574505195 -2.0848009387806843 85 64 33
-0.10523042639945845 0.4111867775121357 -2.0940501960599573 82 60 31
-0.09965368976888977 0.40774873583882615 -2.1051653251458413 91 72 43
-0.11484346267295226 0.41810917678031667 -2.097208945765885 90 71 38
-0.1183410435344237 0.42069980520890415 -2.0999716689596597 113 91 53
-0.12057194877210414 0.42244875562498985 -2.10389712590646 142 114 74
-0.12422111106698441 0.42513933340308563 -2.1065033806357647 142 117 76
-0.12034747397864787 0.42283501774514337 -2.11610119021775 103 83 47
-0.11927413619678079 0.4223908183612015 -2.123114577356945 88 66 32
-0.11601049125891688 0.4204936319012772 -2.132192849713287 86 64 27
-0.11264078751785844 0.4185272430712048 -2.141396967287168 84 62 24
-0.12973942530016264 0.43014141368640985 -2.131359652405306 84 62 25
-0.12916338574795266 0.4300280725478542 -2.137925838272943 85 63 26
-0.14039325377983625 0.43774488213000445 -2.133327405923496 86 64 27
-0.12610811866840932 0.42854104780640256 -2.152901222211704 86 64 27
-0.12261748106176573 0.4264973004847235 -2.162283562097424 86 64 27
-0.12300568426289987 0.4270258287805223 -2.1679904308821207 85 63 26
-0.12550723626724009 0.42895522144438725 -2.171680972258469 84 62 25
-0.12777667917264662 0.43073062600816514 -2.175590027617953 85 63 26
-0.1347911484461306 0.4356493626855719 -2.1749275605217604 85 63 26
-0.14106717937114233 0.4400777104613318 -2.174949369756422 86 64 27
-0.15627415879117368 0.45041935126880245 -2.166299706762965 85 63 26
-0.1582458897425439 0.45199446649525077 -2.1704267777081583 86 64 27
-0.16029285267778381 0.4536193136124007 -2.1744790063933017 87 65 28
-0.16233925891078677 0.45524370260832664 -2.178529769553746 87 65 28
-0.1647389952774379 0.45710181906460134 -2.182232608720518 86 64 27
-0.16401963926073693 0.4568960703629597 -2.188993611547539 85 63 26
-0.16548317113882877 0.45813490554749997 -2.1936187089514063 85 63 26
-0.1624958052993326 0.45643002138815375 -2.202638796960645 86 64 27
-0.16034935842147952 0.45528234560588793 -2.2108519299777716 87 65 28
-0.16404810988121815 0.45800012359337333 -2.2132837998965194 88 66 29
-0.16991889941055038 0.46215317397678146 -2.2135426206224715 88 66 29
-0.17108918750018165 0.463198639123024 -2.2184701526938455 88 66 29
-0.17543519266342894 0.46634266984400186 -2.2202219880321676 86 63 29
-0.18113151941784966 0.4703781412994232 -2.2206039305002636 73 53 21
-0.18812666752529095 0.475270536285634 -2.219656611687148 65 45 17
-0.1918423251899724 0.4779958185975928 -2.2219893904972476 70 49 21
-0.19183618978682787 0.4782631532280404 -2.228076964411885 81 61 26
-0.1941086422732849 0.48003513691857735 -2.2318617876312836 85 66 25
-0.19510508887363887 0.48096475986302145 -2.2369415377433928 85 66 23
-0.19580482009152028 0.48169874312478367 -2.242327741793564 84 66 21
-0.20078434993858651 0.48525673301419103 -2.24334108889228 86 67 24
-0.2035577388794625 0.4873585861783018 -2.2465990410448793 89 70 28
-0.207081545543214 0.48995509515475577 -2.2490789629945422 91 72 31
-0.21217787318204934 0.49358808662463716 -2.2499266555856776 95 76 37
-0.21341963890127708 0.4946789431411907 -2.2547414291619976 100 79 45
-0.21405026867150379 0.4953670650538572 -2.260192297616375 107 93 64
-0.21326371575635655 0.49512146457944345 -2.267122523839686 147 140 125
-0.21554649971391115 0.49689891212615644 -2.2708664649748487 178 177 172
-0.21723849535544554 0.4982869995269629 -2.275224549270572 192 191 194
-0.2219363228857945 0.5016549132010459 -2.276431694002494 198 199 200
-0.23666308526498248 0.5116264958465406 -2.2670807999476357 201 203 205
-0.14323090334140337 0.4503816738837992 -2.3716424016365014 204 205 207
-0.13890583415133606 0.4478187867173924 -2.3825822056702206 206 206 208
-0.1582623796083404 0.46084369074645715 -2.368464536675699 207 207 209
-0.3049635619361626 0.5576609493356767 -2.218957117773151 208 208 210
-0.30446282326036384 0.5575965287480893 -2.2254291913712825 209 209 211
-0.32285779215150695 0.5699618181778034 -2.2117310488204907 209 209 211
0.8115124194857243 -0.31827247503910017 -0.09709448240493163 175 175 175
0.32871434526992666 0.06655649257595675 -1.0931158959278393 179 180 184
0.32191569472236226 0.0714513849522479 -1.095588742405973 180 181 185
0.3151425050697909 0.07632794933567305 -1.0980524017533462 180 181 185
0.3083939865496109 0.08118673170559121 -1.100506662377022 181 182 186
0.3016710459637829 0.08602711575160815 -1.102952000425447 181 182 186
0.2953426603421718 0.09059641559318332 -1.1055400717895754 181 182 186
0.2044322690796763 0.1530828043461659 -1.0732079958734035 181 182 186
0.20447976965166414 0.15327771769417003 -1.0782403521417339 181 182 186
0.20473022199631297 0.1533339914234631 -1.0833637835414693 181 182 186
0.20132600994289626 0.15589218403119226 -1.086965284126371 181 182 186
0.20176323647091707 0.1558209744129358 -1.092174847317069 182 183 187
0.20188944230439784 0.15596296788072572 -1.0972611454082455 182 183 187
0.20199297292096693 0.15612078908843013 -1.1023447159991389 182 183 187
0.20209633403592622 0.15627903559486223 -1.1074350320967208 182 183 187
0.20149414051510323 0.15692022696079805 -1.112230088628173 183 184 188
0.20035583525809947 0.15792828396792147 -1.1167986492591067 183 184 188
0.20319262520189377 0.1562179702988023 -1.123086704273138 183 184 189
0.20442738326247337 0.15560389787741197 -1.1286970032257369 184 185 189
0.20965451417475853 0.15226077034294433 -1.1360591951111767 184 185 187
0.21303034251611289 0.15018443049492713 -1.1426376244197822 184 185 187
0.2164975890737956 0.14804650185000656 -1.14927604229905 185 186 188
0.19573108853567076 0.1636297175722642 -1.1707531122563377 187 188 190
0.11776873812188562 0.217327862104631 -1.145482724909347 188 189 191
0.23532511708177098 0.1372969267536111 -1.2042691613965828 189 190 192
0.23630566028541838 0.13686458875505908 -1.2099433790465661 189 190 192
0.24299631383418827 0.13253540844560024 -1.2182643453105522 190 191 193
0.23206968033634237 0.14046811082467786 -1.223687659971405 191 192 195
0.23081835188031483 0.1415597710159041 -1.228346451435874 191 192 196
0.21704641483925108 0.15119267030445693 -1.227126738377411 192 193 197
0.24848030597440376 0.1299895111455171 -1.247179975513319 193 194 198
0.2678749050676106 0.11700301132595309 -1.2616636053763979 193 194 198
0.2760120053162811 0.11169678967219426 -1.2708772020060677 194 195 199
0.3026935305746613 0.10127717165117389 -1.4549155840035057 200 201 205
0.3139248289501587 0.0939081643281518 -1.4666397815470955 200 201 205
0.2962151268408971 0.10618734972612598 -1.4626906227946583 200 201 205
0.2789697434776757 0.11814835616457581 -1.4589278906124816 199 201 205
0.2621087472164384 0.12984555444831147 -1.4553106069124007 198 201 207
0.2477062891209324 0.13987166834218218 -1.4529813496290889 199 201 207
0.23089532131912893 0.1515293861144783 -1.4492695885531415 198 198 202
0.21413037378595084 0.1631530004309069 -1.4455197147389462 172 170 169
0.18843226976442873 0.18083260863561834 -1.4367386546054133 124 119 114
0.17851568024296288 0.1878053804058324 -1.436665472852798 115 106 98
0.16701297647585084 0.19585204455423966 -1.435668763693591 108 98 85
0.15599630172267553 0.2035673148856702 -1.434903835246434 105 92 76
0.16109528190938088 0.20035661541318595 -1.4431978093981317 105 91 72
0.14502103175689673 0.21149768895258547 -1.439521745418161 103 88 65
0.13872589771966626 0.21600899150581448 -1.4413471120700443 105 88 64
0.1322862035024877 0.22061735184332876 -1.4430702801481134 104 86 62
0.11655444716947122 0.2315199200509292 -1.4394477991702606 104 86 62
0.12301774023111806 0.2273853482340326 -1.4485327939687447 104 87 62
0.12021932213598058 0.2295251265282201 -1.4523050550716847 104 86 63
0.09791272619977454 0.24487527928530162 -1.4447668786767243 101 83 60
0.09817111500449521 0.2449430021511202 -1.4502656999829384 99 81 58
0.09302353705984528 0.2486708706648763 -1.4526166140428083 98 81 56
0.08853005969753552 0.2519553047298551 -1.4553358207689973 97 80 54
0.0799761814951297 0.2579872301063581 -1.455654721097691 88 71 45
0.07588552790309194 0.2609975689153027 -1.4585785022004374 94 77 51
0.07172089550920718 0.2640574837499042 -1.4614479249446797 98 80 56
0.06946262709888412 0.26582725537621893 -1.4654400606446722 99 81 57
0.06965963573578143 0.26593616130854425 -1.470894879931252 100 82 58
0.05138955185308547 0.2785347328846604 -1.4652964835376179 84 68 46
0.05294151678971071 0.27772632293233807 -1.4715417575896728 77 63 41
0.053471750911096905 0.27760933935566 -1.477184510147132 72 55 30
0.051298460949120994 0.2793203791989672 -1.4811997568648831 118 97 67
0.049235104449859846 0.2809570100997515 -1.485279508214941 114 94 63
0.04655096870727432 0.2830130844140459 -1.48897883961323 109 87 57
0.04550526020036055 0.2839618566381232 -1.4936764418367616 112 91 61
0.04133876322704594 0.2870191745817925 -1.496459719706191 114 94 64
0.039576692545735925 0.2884517826510393 -1.50071413315469 109 88 60
0.033987407277201676 0.29246929725088466 -1.5026003386030449 94 73 44
0.031919502725805626 0.29410800792405994 -1.5066554123245182 102 82 52
0.03490393418158794 0.292335256409219 -1.5138564622134778 98 79 47
0.032623350127095385 0.29411788363147845 -1.5177859395557423 95 76 44
0.02837179321355071 0.29723080451582 -1.5204758833994765 96 77 45
0.023918386290844584 0.30047943168543023 -1.523027184001512 95 76 45
0.017165097413729458 0.3052794687856431 -1.5241127397366445 86 65 35
0.020976631796890244 0.3029503284948136 -1.5318749061334354 83 64 30
0.03524018774621884 0.2935713004262603 -1.546312277510857 138 115 73
0.02954211260373929 0.29765968459131253 -1.5480737015274213 144 120 75
0.025669898826121695 0.3005158841738969 -1.550987083056054 140 115 75
0.022058939504955133 0.30319546915028506 -1.5540585324812426 129 103 69
0.019701242247743 0.30502970611627006 -1.557929876888608 99 73 41
0.018757841226595684 0.30591042291316695 -1.5627137772004722 101 80 43
0.018065422065488335 0.3066221211880164 -1.5676638902552122 101 80 43
0.016602974898550116 0.30785293180560114 -1.5721162397099897 110 89 51
0.015868404229755495 0.3085933413055488 -1.5770456046015322 122 100 62
0.017630798098529243 0.3076517530142664 -1.5836182503957426 99 77 39
0.006028728295676022 0.3157130214868341 -1.5814027898212804 104 82 46
0.0026455616443002428 0.31823692854877034 -1.5845749392851176 106 83 50
-0.0007432116414664569 0.3207642542044748 -1.5877355057818114 89 69 38
-0.004819802781850402 0.3237543164549538 -1.5904304252573316 79 61 35
-0.012953066898007681 0.32947474550477035 -1.5904054140652157 87 69 48
-0.017516453779485353 0.3327910383278627 -1.5927428674204693 96 77 53
-0.018131406477713885 0.33344953700644253 -1.5977215503040945 106 83 58
-0.02125601443669528 0.3357969172570584 -1.6010119059352446 123 98 71
-0.02804120145231931 0.34060670478588523 -1.6018177929283188 122 97 67
-0.033747853004981065 0.3446899346582191 -1.6033326428769457 128 106 73
-0.03800941831364585 0.34780041265283623 -1.605813569479543 114 91 60
-0.04373293139228435 0.3518934388825324 -1.6072828995042008 125 100 68
-0.049708945322114284 0.35615538252825985 -1.6085602370761352 113 89 55
-0.06142523744967854 0.36427530997879254 -1.605866646476444 126 106 75
-0.06594854937408501 0.3675584164675766 -1.608094020767755 133 112 83
-0.07123106366422732 0.37135112905887274 -1.6097819615970907 125 105 75
-0.07344202218781887 0.3730791882722518 -1.6135882785753437 141 122 87
-0.083307767027754 0.3799498384953347 -1.6120526697263895 139 114 77
-0.09047344559767229 0.38500505440963195 -1.612368418034412 158 130 93
-0.09786427466696557 0.39021031821118984 -1.6125003465962364 139 113 76
-0.10229050725489808 0.3934235916079673 -1.6146937790181501 148 122 89
-0.10484506049579534 0.39537960361996516 -1.618196866782701 87 64 33
-0.10439578258797844 0.3953189252706675 -1.6238253902840234 83 64 35
-0.10309186107335555 0.3946850405435489 -1.6300713783063527 98 79 51
-0.09795114616945111 0.39147691853185995 -1.6390692393358608 95 75 48
-0.08655902598206727 0.3840756021568862 -1.652574823858369 95 75 48
-0.07798893642832289 0.3785702879526003 -1.6641137546121896 96 76 49
-0.06609105865744636 0.3708349318186753 -1.6780986868672119 103 83 54
-0.059014068439210865 0.366335670483256 -1.6886610695210311 99 81 52
-0.046395561635107496 0.3581223210862998 -1.7032841166413155 86 69 44
-0.03399294911531764 0.35005675494408306 -1.717816945485055 69 53 32
-0.026761455377388776 0.345460645749308 -1.7286403208779613 71 56 34
-0.030889539830100343 0.34848011736451573 -1.7311850382736815 86 69 46
-0.02863130779084272 0.3472193557971063 -1.738410891790305 93 76 51
-0.02699477780748627 0.34637599088456644 -1.7451969070765485 92 75 49
-0.02524126928611098 0.34545496582812724 -1.7520850017214689 99 83 55
-0.023591826751972023 0.3446043786907492 -1.758912043416576 108 89 59
-0.021948897764524244 0.3437588658665811 -1.7657499328024029 110 88 56
-0.022688596340654454 0.3445094713022874 -1.7708245094319075 121 99 62
-0.024772367353185387 0.34616012153139175 -1.7748967272805247 122 100 63
-0.023583315183072495 0.34561990761040046 -1.7814262122272588 121 100 67
-0.024111377697694114 0.3462295338021289 -1.7866749451389907 98 78 50
-0.02405396818561717 0.34644762833351556 -1.7923718474672152 100 80 53
-0.02912427945510282 0.35009684246545825 -1.7941872116838653 98 81 54
-0.03493450103303963 0.35424028056256446 -1.7954232364827347 102 85 59
-0.030487586106823505 0.3515224231242939 -1.8044694152146832 105 87 62
-0.024731686708339196 0.3479305373434957 -1.8145473292565324 83 65 43
-0.03689554829506736 0.35632183609854184 -1.8108953648657413 86 66 41
-0.03970755024142658 0.3584589958614384 -1.8143993016071394 117 98 67
-0.044123836534920746 0.361668215546858 -1.816657603701123 112 93 61
-0.0392838499167284 0.35869091368348094 -1.8260800583003853 106 85 54
-0.04116801825717842 0.3602080188006912 -1.8303037074847834 103 81 50
-0.043904976889715897 0.3622948044789506 -1.8338609182340115 115 92 61
-0.0447535014731274 0.3631199468285611 -1.838890981358564 115 92 61
-0.04102992026011926 0.3608917661837396 -1.8475146146188826 113 90 59
-0.03561312271815631 0.3575341393761486 -1.8574979471570554 112 90 59
-0.04152435494980694 0.3617410580127406 -1.858566950452138 112 91 60
-0.03832209305745171 0.3598635686640741 -1.8668369565310388 112 91 60
-0.03976122764914525 0.3610848865474611 -1.8714415386378886 113 92 61
-0.045836351626310945 0.36539986051528045 -1.8723510006286284 114 91 60
-0.04849918295519062 0.3674372077923826 -1.8759679054326863 113 90 59
-0.05109307747498365 0.36942834871018754 -1.8796352618092014 114 91 60
-0.05306920417611688 0.3710072532731126 -1.883795190392768 110 88 57
-0.05449198525345933 0.37221708823244953 -1.8884002440751473 100 79 48
-0.04943599433372531 0.3691072944890449 -1.8982516437638253 96 75 44
-0.04868042092577274 0.36886580481206566 -1.9046440826872728 100 79 48
-0.04842340916644733 0.3689571621156781 -1.9106424551484014 105 82 51
-0.04601250096094023 0.36761358023888996 -1.9184101354478107 104 81 49
-0.05010851245545117 0.37060645052210145 -1.9208658391287305 108 85 53
-0.0587265404103125 0.37661126840183595 -1.9195926759739985 102 79 48
-0.05778770639176284 0.3762489802770751 -1.9261641049898026 100 78 46
-0.06378413799346516 0.3805058743605691 -1.9270135828097013 100 77 46
-0.06440094270792313 0.38117979798129475 -1.9323035157955633 98 76 44
-0.05164401954422104 0.3729506546811507 -1.948724555437533 96 73 43
-0.05988049894568792 0.37869836544029134 -1.9477005206414857 94 71 41
-0.06639371415303419 0.38329774922235654 -1.948085932942717 93 69 40
-0.07488732289440098 0.3892137691694044 -1.9467847375485432 97 74 45
-0.08405591803204565 0.39557728951958615 -1.944881036858148 99 78 49
-0.08115302695931614 0.39390960028925337 -1.9531334031842302 100 79 50
-0.0821876522117842 0.39486159378936303 -1.9580738434953648 100 79 50
-0.0794153671333111 0.3932823892604487 -1.966251414946234 97 76 47
-0.0833391753153106 0.396155895391958 -1.9687462816227843 95 74 45
-0.09062437706822585 0.40126321962320743 -1.968357336056413 96 75 46
-0.09257437684599151 0.4028235339179307 -1.9725126234741286 98 77 47
-0.08598613590625787 0.3987103385642743 -1.9840060202660714 96 75 44
-0.08541205707687449 0.39859461182274786 -1.9903562677339295 92 71 40
-0.07583816801714488 0.3925013330823745 -2.004499995476051 92 71 40
-0.07957001171706601 0.39524737185517694 -2.0071618198035517 92 71 40
-0.08283466808439555 0.39768271859253057 -2.010219558353564 91 70 39
-0.08553756795730111 0.3997447504998517 -2.0137592645721663 88 67 36
-0.07777893760720112 0.39486238144051516 -2.026446527018134 87 66 36
-0.08799333611345878 0.4019102715674651 -2.023411542657526 87 66 37
-0.08145983920705452 0.39784313949122896 -2.035071387566134 87 66 37
-0.08017411005800307 0.39725945850824695 -2.0421417980758365 98 76 46
-0.08811299227644098 0.40279529502746664 -2.041062189996404 102 77 47
-0.09535102730115524 0.40786487013126527 -2.040572556683289 142 112 78
-0.10282687847025584 0.41309083660668505 -2.039842537997685 129 100 66
-0.10949406513018584 0.417779329188929 -2.0398046386135995 93 72 42
-0.12049759050591036 0.42534097631182044 -2.0358577390108334 85 65 38
-0.11234117785435527 0.42020258758483897 -2.0490697948671497 85 65 35
-0.09328370780444878 0.40784335240999686 -2.0721512538384443 85 64 33
-0.08534930951704056 0.402857965152557 -2.0852932112352764 85 64 33
-0.10158389637811044 0.41388378107910295 -2.076590920593824 85 64 33
-0.09654970850089123 0.41082077056971433 -2.0871353728438256 84 63 32
-0.1026997033304668 0.41516482657395837 -2.0875249592228626 85 64 33
-0.10264645975462822 0.41540115962125906 -2.0935592462742973 84 61 33
-0.09652956036666865 0.41162436826814686 -2.1051590096357047 86 67 38
-0.1090971981185822 0.42021451989398284 -2.0996293664246912 82 64 30
-0.1123357578030697 0.42262937850990134 -2.1026401663630616 114 92 54
-0.11554771025990335 0.42502626494106166 -2.1056673945822624 138 110 71
-0.11951615716761399 0.42792314991876496 -2.107985424461681 133 108 70
-0.10831433683086356 0.4207873296043891 -2.124392005609782 94 74 39
-0.11144432400391147 0.42313056214056116 -2.12750754332485 86 64 30
-0.10895758179431081 0.4217604314492677 -2.135865864579355 85 63 27
-0.12060473711214204 0.4297330181883544 -2.130996831034456 85 63 25
-0.13971335124353468 0.44263391513243006 -2.11906059891551 85 63 26
-0.12590396166976237 0.43378159117314125 -2.138064834689607 86 64 27
-0.1188362418433111 0.4293864333417827 -2.150777919083504 87 65 28
-0.11493197348091833 0.42708272969124556 -2.1605385101710635 86 64 27
-0.11458253833755427 0.42712778045849514 -2.1669492760834235 85 63 26
-0.11684002356647977 0.42889446519154845 -2.170885519737638 85 63 26
-0.12014526382810548 0.4313526341508552 -2.173817022032546 85 63 26
-0.12426166445584397 0.43434575789283597 -2.1759621867268137 85 63 26
-0.13130296079584125 0.43926829511302745 -2.175282199860845 86 64 27
-0.13580496492364313 0.4425142758477962 -2.1770216933220525 85 63 26
-0.1506326066519088 0.45257045751114783 -2.16876282899419 86 64 27
-0.1543679008506202 0.45530816309614036 -2.1711874917520477 86 64 27
-0.1559851619229995 0.45664880864414376 -2.1756602703806296 87 65 28
-0.15759076551864204 0.4579817837639332 -2.1801447376290928 87 65 28
-0.15880816184994495 0.45905890176452874 -2.1850091237972458 87 65 28
-0.16358756273523645 0.4624834783366877 -2.1863839357853654 89 67 30
-0.16584474015636275 0.4642454666831415 -2.190221443776985 86 64 27
-0.14314411915377173 0.44956639204844334 -2.218659342451431 87 65 28
-0.17619626197387728 0.47161351628815157 -2.1921167152731225 87 65 28
-0.1698957560805021 0.46773910445302885 -2.204411672750083 88 66 29
-0.1607483037691962 0.46199230581767936 -2.2195800745197105 88 66 29
-0.1788497209527316 0.47418484354427415 -2.2076478233191366 89 67 30
-0.1809986370286371 0.4758745005064069 -2.211569699708761 88 65 29
-0.1774845412133756 0.47383775502394315 -2.2211645674620093 77 57 23
-0.183969498864467 0.47838047102535536 -2.2207391469545352 75 55 23
-0.18906265034015834 0.4820065183381547 -2.2216897876856656 79 59 24
-0.1882083202504548 0.48172047376177 -2.2286314212412908 84 65 23
-0.18980364781012543 0.48304572005214735 -2.233104871274273 86 67 23
-0.19083106187782795 0.4839976514745262 -2.2381557498774987 86 67 24
-0.1910194287986564 0.48439827920453027 -2.244065010202993 86 67 24
-0.19533159338822037 0.4875091354085531 -2.245769751284598 88 69 27
-0.20100435168234515 0.4915132354620085 -2.2460660856302637 93 74 33
-0.20406577685285376 0.4938010083466946 -2.249022321654384 92 73 34
-0.20757336602405568 0.4963814452305981 -2.2515112647448077 94 75 37
-0.20850437281769485 0.49726957901810287 -2.2566508025613 99 79 48
-0.20860873484775383 0.4976152121988326 -2.262650447712721 117 105 86
-0.20733827820843836 0.4970588575837081 -2.2700863357954892 161 156 147
-0.21124705275215816 0.49990206399872816 -2.2721464888573735 183 184 180
-0.21352060378544363 0.501671810262425 -2.2759011147241415 194 194 196
-0.21763763497507554 0.5046506945870892 -2.2777226668545407 199 200 202
-0.23395139440299273 0.5156282475729466 -2.266729125316282 201 203 205
-0.10142870327946374 0.4290058563460514 -2.412286816667346 205 205 207
-0.13302174260157773 0.4500120767724406 -2.3854255331189216 206 206 208
-0.1419897915443903 0.4561806053646322 -2.3823336120682743 207 207 209
-0.3544883257641226 0.5959919887440577 -2.169065459790567 209 209 211
-0.2953605263014449 0.5575212811105501 -2.237925663019108 210 210 212
0.864983897354726 -0.3493648871070842 -0.09852584812625087 175 175 175
0.22129608647575474 0.14763560306042178 -1.08391375715513 182 183 187
0.22146718507148855 0.1477515181595 -1.089029942524392 182 183 187
0.21968954319877065 0.14919727083966833 -1.0933387264453183 182 183 187
0.2602405383444742 0.12608148319640822 -1.2089441389396411 188 189 191
0.2449228738489374 0.1367466923696169 -1.2072012443767517 189 190 192
0.24723804134185845 0.13541303179836656 -1.2134997015592202 189 190 192
0.22768047107368652 0.1499228743903625 -1.2306277307148588 192 193 197
0.25305943909223444 0.13291220309033008 -1.247824837455791 193 194 198
0.2531955476710012 0.133064076193338 -1.2531884788558063 193 194 198
0.2868000426475714 0.1104709631278929 -1.2744599293896155 194 195 198
0.3113430652719763 0.10196857978309087 -1.463434173642959 200 201 205
0.335552887189585 0.08585210891818573 -1.4822364508829733 200 201 205
0.31506830814988934 0.09997142278760235 -1.4767949606924105 200 201 205
0.29496898900010954 0.11382656978754341 -1.471485723006556 200 201 205
0.2770524919519123 0.12620215370144483 -1.4672980112223715 200 200 207
0.25893534179309013 0.1387102639908454 -1.4629317324404578 200 200 207
0.24078873449225158 0.15123510744947688 -1.4584802035285986 200 201 204
0.2235067996547334 0.1631723247229005 -1.4544397016173982 192 191 192
0.19958548189727643 0.17959344052443899 -1.4466319470993536 151 147 142
0.18696367081721849 0.18837506426330808 -1.4450538246479372 117 110 102
0.17446149039168118 0.19707373280749713 -1.4434966840303347 108 97 85
0.1622679305574326 0.20556181211116176 -1.4420677613274635 105 93 78
0.16165478181267112 0.20622626640492686 -1.447148757031216 110 97 77
0.15307375032436765 0.21227176905667217 -1.4477075948677576 103 87 64
0.14458385010795521 0.2182543854676985 -1.448289066458166 102 84 61
0.13731155223398256 0.22341363787808066 -1.4495384793002208 102 84 60
0.12748034294448873 0.23029910739911996 -1.4492938656366054 100 82 59
0.12248544126144312 0.23391884026759124 -1.451803338295914 98 80 58
0.12315668423876797 0.23371427357513125 -1.4575782272734827 101 83 61
0.10822576139345502 0.24403732770967257 -1.45429903418771 99 81 59
0.11001886559945473 0.24307531015629175 -1.4607147425482698 102 85 61
0.10286805574389685 0.24814688021072318 -1.4619108872652395 97 80 54
0.09050167116595592 0.256734883537125 -1.4600197648943314 100 83 57
0.08045793816532149 0.26375453227452245 -1.4594518531274516 101 84 58
0.07791683999320875 0.2657140294183266 -1.4632872260921983 99 81 57
0.06767876295788827 0.27286209652551807 -1.4625476409103582 103 85 61
0.06346399336589215 0.275948572710695 -1.4653610886799469 93 75 51
0.06433708451111503 0.2756056849388566 -1.4712070713982814 78 60 38
0.06488177996758071 0.2754845841012233 -1.4768668348387801 90 73 51
0.06414934501519448 0.2762243610582517 -1.4817665849315973 90 73 48
0.061210951761388244 0.2784503156329814 -1.4853362988812995 99 80 56
0.058760910524770116 0.28034709345109776 -1.4891967941980038 103 84 58
0.056010267567238314 0.2824461433136282 -1.4928707021022438 96 76 50
0.054309377940880255 0.283838146111323 -1.4971815035969724 80 60 34
0.05562816110611335 0.2831972220033437 -1.5033445865873725 88 69 43
0.0517026553912443 0.28608694956150404 -1.5062919241247688 89 71 46
0.05006739465100574 0.28743483194838837 -1.5106443436404617 101 83 57
0.04735970679908791 0.28950437546303587 -1.5143318548577165 97 78 50
0.04471561920908673 0.29153091281536575 -1.518054286710963 96 77 46
0.04261425243566458 0.2931921502414095 -1.5221112453724555 98 79 48
0.03941723643090833 0.29559024627490393 -1.5254795906697383 98 79 47
0.030823285751483298 0.30161753921233225 -1.5254470481101519 90 71 38
0.031549013229798306 0.3013767541370767 -1.5312653779432446 87 69 34
0.03401798046490495 0.29996445636053415 -1.5381982156000826 125 105 69
0.03126520649603032 0.3020630921601919 -1.541830728827158 140 116 76
0.025518496653210487 0.30617373980498264 -1.5435489401094649 131 105 66
0.0213571790202714 0.3092181591155725 -1.5462635205625277 132 108 73
0.019191313830959955 0.31092131776045556 -1.5502483703472492 104 81 49
0.01831817412815734 0.3117559200441533 -1.555063958470456 101 80 46
0.015568648122867845 0.31385103709348783 -1.5586695781442879 100 80 43
0.020654377280410252 0.31068384373042507 -1.5673545805201088 96 76 39
0.020110310578062895 0.31129837516297787 -1.572403902385175 114 94 57
0.018042485092994942 0.31293616118221246 -1.576462559828612 101 80 43
0.018751810593192697 0.3127096138124989 -1.5823401183946892 100 77 42
0.02008839011061342 0.3120625569790742 -1.588640931285031 109 86 53
0.00844764928319175 0.320124842606953 -1.586388402329185 87 64 33
-0.00409886680787408 0.3287927967075385 -1.5834908336143079 78 59 32
-0.005937686751825988 0.33027506824036257 -1.5876608719203746 102 82 55
-0.008736116793174598 0.33240096546091946 -1.591190016850253 90 71 46
-0.010818172622367173 0.334046179353324 -1.5951932731074305 106 88 60
-0.01293431352480856 0.3357141554157351 -1.5991716133550975 114 94 64
-0.015111168230615812 0.3374227358813936 -1.6031068611065333 120 96 68
-0.023702707952932334 0.34343123179324186 -1.6027033995079099 129 103 70
-0.029983130059276775 0.3478892711405712 -1.6038357978761955 127 103 72
-0.03259672536839103 0.3498890767917213 -1.607442418413914 127 104 75
-0.039534781091147664 0.3547861753016303 -1.6080916697737213 131 108 80
-0.04392423142301838 0.35797479016928235 -1.6104627076990978 105 84 57
-0.05347439059321152 0.3646195405307035 -1.6092735846121076 122 102 76
-0.06251357081656034 0.37092040644938457 -1.6084005148020424 112 93 64
-0.0612611478175068 0.37032840778735016 -1.614615047916248 119 99 68
-0.06690593964904373 0.37435468282019024 -1.6160540676173887 132 111 77
-0.07719246570607596 0.3814872371305566 -1.614241115118972 148 121 86
-0.08428717534427044 0.3864817116340304 -1.6146189001878972 140 112 76
-0.09140591574245277 0.39149109738389964 -1.6149544727850673 140 117 81
-0.09658324059435192 0.395200359616413 -1.6166303408728135 128 104 69
-0.09934272863855254 0.3972914085344001 -1.619996208543216 86 63 35
-0.09672723240889741 0.39578710598075756 -1.6271629650672939 96 77 51
-0.09541047382458412 0.39515223623939516 -1.6334265334178133 98 78 51
-0.09153741269328197 0.3928087346302358 -1.6415257605296818 92 73 45
-0.07778529211105678 0.3838618956618634 -1.656715218111112 97 77 50
-0.07289223811877582 0.38084001427918446 -1.6656202533906221 102 82 56
-0.05913035534263528 0.3718923058398954 -1.680939356320453 113 93 67
-0.05184353945141762 0.3672746399769544 -1.691654518083308 79 61 34
-0.029541033673924078 0.3526268326459072 -1.7132898195906847 77 61 37
-0.022625378737308466 0.34826257729835597 -1.7238539565018722 77 62 40
-0.018081487433634302 0.3454842515127056 -1.7327289029790172 83 67 44
-0.02161414748936019 0.3481006353780332 -1.7357248952396156 91 75 49
-0.01926220495212949 0.34678762674354563 -1.7430305763024168 98 81 53
-0.016826879645793436 0.34541982657364123 -1.7504165488711958 97 77 53
-0.01591882328109462 0.34507230088003776 -1.7566938412270439 102 85 57
-0.013672492302672257 0.3438322441116858 -1.7639748821813617 111 91 60
-0.012528067176643898 0.34332827308706493 -1.7704553776183016 117 94 61
-0.01464908894992989 0.3450033851074938 -1.774514207559792 121 98 61
-0.01827741881076489 0.3476837993791952 -1.777443337590033 127 105 70
-0.016059653757452164 0.346464976616475 -1.7847502811587486 99 79 50
-0.014607969431743528 0.3457578283250787 -1.7914990063383867 98 81 54
-0.013644782508648812 0.3453770420862145 -1.797893704718307 99 79 54
-0.0228605423117339 0.3517819000709602 -1.7965895292741123 99 81 56
-0.02542754719735102 0.35375391332520345 -1.8003022174599035 103 87 62
-0.0215724230764614 0.35144629442889963 -1.808906672063928 87 69 47
-0.021350954824551904 0.35156080918544724 -1.814758697184485 76 57 37
-0.018865344926341787 0.3501675165932711 -1.8223568042521383 102 82 56
-0.016995052110857556 0.3491849631976203 -1.8295013793388688 108 89 58
-0.01648198394452066 0.34910699287175534 -1.835615279626626 104 86 54
-0.03178321433361986 0.3595587196934784 -1.8294932354954148 104 84 53
