ply
format ascii 1.0
element vertex 670
property float x
property float y
property float z
property uchar diffuse_red
property uchar diffuse_green
property uchar diffuse_blue
end_header
-0.14101440347198335 -0.2971440713215723 -1.8469963494257338 113 95 73
-0.13780380154884997 -0.2978705268540192 -1.8549879531133229 111 93 71
-0.1443764789772295 -0.29695152804331126 -1.8568274491705161 111 93 71
-0.16188697077499303 -0.29419087981762143 -1.8517243327575914 110 92 69
-0.16062512011331864 -0.2945893062649405 -1.858481910978179 107 89 67
-0.16257109501839828 -0.2944478085969719 -1.8632095211779904 107 88 65
-0.15917991882259852 -0.2952057269195127 -1.8713496525982538 107 88 64
-0.17229326096863307 -0.2931820524441154 -1.8689288372440978 107 88 64
-0.1781034689676575 -0.2923885967571785 -1.8711614164044228 105 86 62
-0.18130506923404632 -0.29203476319309435 -1.8750625506528218 105 86 62
-0.12729284785330397 -0.30133678316945145 -1.916000091278886 105 87 63
-0.16595664566664492 -0.2949991187160858 -1.8969789321887838 105 87 64
-0.1759744835996757 -0.29349503109685693 -1.8964711394319742 103 85 63
-0.18726541649292505 -0.29177482875025557 -1.8950989592737542 103 85 61
-0.20280741902602994 -0.28933490389835587 -1.8909019330213739 104 86 62
-0.20935333003862944 -0.28841441912215643 -1.8925664630333885 104 86 62
-0.21754856515935916 -0.28721437287532403 -1.8931246180374826 104 86 62
-0.21459026256180846 -0.28790096112786856 -1.9010397924468483 103 85 61
-0.2130438107152025 -0.28834920496542943 -1.9080388059377835 101 83 59
-0.20767877049844763 -0.2894446116202303 -1.9175964553210831 101 83 59
-0.19295757710319628 -0.2921260802369369 -1.9334362859640275 101 84 58
-0.20286265263539816 -0.2906360560213803 -1.9328423800428691 98 81 56
-0.21418218455885085 -0.28890520707941136 -1.93126526456081 96 78 53
-0.2066536301984233 -0.29037002159431974 -1.942360401907907 97 78 52
-0.20903338976763342 -0.2901548882766383 -1.9467935396694076 99 79 52
-0.21686866294139284 -0.2890136930945146 -1.947523884496338 93 73 46
-0.2244113588768475 -0.2879214363004976 -1.9484295547615038 94 74 47
-0.2392904786921085 -0.28558220364330666 -1.9443034893026496 101 80 51
-0.2407245877911639 -0.28552614171816165 -1.9493319935359303 104 83 54
-0.24228098081727056 -0.2854493853430531 -1.9542795181895805 107 86 57
-0.24458293785987628 -0.2852459080547273 -1.958715788791722 106 85 56
-0.24684591098738273 -0.2850490436033488 -1.9631783714048763 102 81 50
-0.24910911137439573 -0.28485212577866403 -1.9676403258203738 102 81 50
-0.25677672614273794 -0.2837349802328627 -1.968343205753912 104 83 52
-0.25339865022992514 -0.2844985921849432 -1.9767280496306872 103 82 53
-0.25400453927194 -0.28458405751088556 -1.9823487537288589 103 82 53
-0.2507938671077168 -0.2853203387690382 -1.990654754111095 107 86 57
-0.265095255315587 -0.28307088300153294 -1.9866552113887115 109 88 59
-0.265956185774489 -0.2831127965382232 -1.9920945148256515 107 86 57
-0.2712460345399117 -0.28239899584758377 -1.9944024069198596 106 85 56
-0.2727636648556776 -0.282328834014061 -1.999376710167987 106 85 56
-0.27531155755751624 -0.282082782805376 -2.00361957257787 106 85 55
-0.28344264746032 -0.2808826651192462 -2.0038702027736237 106 85 55
-0.28047644062570176 -0.2815787070036516 -2.0120505769692816 102 81 52
-0.283823445160979 -0.2811958354031457 -2.0157134942572954 99 78 50
-0.29252716551340774 -0.279896404508028 -2.0155078668683886 105 84 53
-0.30060777451090037 -0.27870272679172875 -2.015724563217972 109 88 57
-0.30686314855366437 -0.2778207422380698 -2.017239779139194 109 88 57
-0.28847130392833087 -0.28115971700676545 -2.0366735186392213 109 88 57
-0.2902205220702029 -0.28105039815821464 -2.04149558717608 109 88 57
-0.29297641482275416 -0.28076857578033276 -2.0455824249984897 107 86 55
-0.2912778740449591 -0.28125052521131044 -2.0529373543280274 105 84 53
-0.294066653667589 -0.2809631993702039 -2.0570044019104796 106 86 53
-0.2955950071284188 -0.2808920987830639 -2.0619996619791023 106 86 53
-0.2986736595481946 -0.2805549171856579 -2.0658491304653395 104 84 51
-0.3045138239555374 -0.279743303123246 -2.0676426212045356 109 88 54
-0.3096751199322664 -0.2790478281727213 -2.069925789457302 111 90 56
-0.3139096203435885 -0.2785112482536131 -2.0728883966062526 102 83 52
-0.3235360339673108 -0.2770471760369657 -2.0717997482167374 87 72 42
-0.3306291102080655 -0.2760178835840574 -2.072582723485732 91 76 46
-0.3386064888475291 -0.2748357174613705 -2.072676927280741 110 92 61
-0.34327911227221786 -0.2742217199373693 -2.0752445651205926 126 104 70
-0.3502053496900146 -0.27321921008566424 -2.076091515963888 128 104 65
-0.3397528578567093 -0.27521053090926256 -2.0901377194170174 130 104 64
-0.3476993520058351 -0.27403202564461926 -2.09020222075127 130 104 64
-0.3448956549869492 -0.27470655292864526 -2.098466760697228 131 105 65
-0.3423752862474476 -0.27533288949713225 -2.1065359127558145 133 105 66
-0.33776684589546646 -0.2763202504545379 -2.116233014193693 132 104 64
-0.3366426012209214 -0.27670698461726007 -2.123270874430316 131 103 62
-0.3409092176531555 -0.276163028668667 -2.1261500424714095 132 105 62
-0.34762640884572915 -0.27519532190928475 -2.1271170308788077 136 109 65
-0.347357355016904 -0.2754346675231813 -2.1335032872885806 138 109 65
-0.35041870898967287 -0.27509839798492575 -2.137299655167946 141 113 67
-0.3446234242484627 -0.2762942732819297 -2.1480281189252173 147 119 72
-0.3500977472151712 -0.2755407344975842 -2.1499409723115486 146 117 71
-0.3530986540905928 -0.2752149967536378 -2.1537870485163304 145 117 71
-0.35639714367425024 -0.2748375899597448 -2.1573941512320896 145 116 73
-0.3589145537761592 -0.2745953738326458 -2.161614804195668 147 118 76
-0.35698923253380577 -0.27512330930078294 -2.1693635867536165 145 116 74
-0.3661897074673969 -0.2737222310084406 -2.168265877568488 149 120 79
-0.37287637850820365 -0.2727563050948727 -2.1691446779603187 149 121 80
-0.3716335497297366 -0.27316610743394193 -2.176357157054263 155 126 81
-0.3775530522680387 -0.2723326656678764 -2.177829010034234 167 135 89
-0.3844255137843259 -0.2713331339735901 -2.178515461303155 171 139 95
-0.39617847742653767 -0.26948473099045167 -2.1752354299486947 167 136 90
-0.3966933550187569 -0.26958884023432966 -2.181020243195729 166 135 89
-0.3989104864487235 -0.2693970984704748 -2.1854287734533036 172 141 96
-0.40186522036199634 -0.26907699489259995 -2.1892356043038457 166 137 90
-0.406978481526295 -0.2683810150528083 -2.191274025514523 161 133 85
-0.41092807161052625 -0.26788725892694726 -2.194252582748729 165 137 89
-0.4162940585947299 -0.2671464665747317 -2.196058201851963 166 138 90
-0.42003023306976994 -0.26668927529875613 -2.199192436250516 170 142 95
-0.42578632718272247 -0.2658796353939712 -2.200649111405237 171 143 96
-0.4306054542186698 -0.2652329128836889 -2.2028656656698913 168 140 93
-0.4351248225814073 -0.26463810854699404 -2.2053188188019632 166 137 94
-0.43886852015431954 -0.2641783760191334 -2.2084074523913064 158 129 87
-0.44429628554883926 -0.26342426203196817 -2.210080335981912 161 132 90
-0.4506781860531438 -0.26250294081478615 -2.210937625863599 159 130 87
-0.45265907933796684 -0.262350325757633 -2.215475291365374 159 131 88
-0.4422039084486442 -0.26437257268686054 -2.230499350372605 158 129 87
-0.447594813784262 -0.26362430806525766 -2.2321841973991767 155 126 82
-0.4502651425476272 -0.2633517408593759 -2.2361603323378323 148 121 81
-0.45653953805979985 -0.262448007303038 -2.23706941315689 139 116 75
-0.4601422642057724 -0.26201167316255003 -2.2402367120997027 131 111 71
-0.46923460868302014 -0.2606130548842927 -2.2387032591114577 124 106 66
-0.4781634382756666 -0.259242068049589 -2.2372767882743285 114 96 59
-0.4679601975246196 -0.2612258267432098 -2.2522668338224507 97 81 50
-0.4674785806120355 -0.26150552205091 -2.2589340576954493 90 77 49
-0.4660346491175673 -0.26195453604741076 -2.2664455858753048 98 88 65
-0.48568290431584776 -0.2586997979790443 -2.2556887178329763 116 109 95
-0.4814271796321162 -0.2596423231374734 -2.265628075286703 143 138 131
-0.4829235902003286 -0.259574728906325 -2.2705836475584045 167 165 164
-0.4909649563982432 -0.2583563066571622 -2.2698210061467483 183 181 184
-0.4999951214254248 -0.25696303856816965 -2.2681630444074723 192 190 193
-0.5054463285672327 -0.25619861809029654 -2.2696173456236606 197 195 198
-0.4909056422008994 -0.25895374407463734 -2.2886754656876134 200 200 202
-0.4886249825758503 -0.25955178342023233 -2.2969788818232106 203 203 205
-0.49022592223425576 -0.25946645002112445 -2.3018636492863545 205 205 207
-0.4831363883741492 -0.2609133318769115 -2.3144734692139375 206 206 207
-0.4791394735738308 -0.26181614282484295 -2.3243722810452003 207 207 207
-0.4414843361769286 -0.2686589730550986 -2.3643742995462085 208 208 208
-0.5289481978216777 -0.2534207248472931 -2.292471957763034 209 209 209
-0.3812127367559045 -0.2797069081395245 -2.431450404913262 210 210 210
-0.38221791257050153 -0.2797362344922751 -2.4371729191513283 210 210 210
-0.38933033563482355 -0.2786862380196208 -2.437384779703473 211 211 211
-0.8442836807369828 -0.2053798318303615 -2.2541901066397663 216 216 216
-0.8483324224204014 -0.20483493024783533 -2.256002222713387 216 216 216
-0.8526077926143169 -0.20424886142253765 -2.2575741148140582 215 215 215
-0.8565185102254793 -0.20372809990746682 -2.259502678287179 209 209 209
-0.8606966302500648 -0.20315880516623 -2.261149099202219 209 209 209
-0.8660161026818579 -0.20238330638654572 -2.2616216851312387 215 215 215
-0.871893490240027 -0.20150658223619208 -2.2615067412094865 216 216 216
-0.8738544403478874 -0.20133611511180496 -2.26537768140782 216 216 216
-1.845903295109693 -0.0331971332474203 -1.5051817060483172 216 216 216
-1.8499277773234772 -0.032562539458271526 -1.5040054233343167 216 216 216
-1.858776332317905 -0.031027389385476715 -1.496938599171367 215 215 215
-0.4839690222799459 -0.2166305167117885 -1.0328150155765632 192 191 196
-0.48044614152863757 -0.21732753524680365 -1.0386474117201852 192 192 196
-0.5077316135688917 -0.21311211721091775 -1.0321583880129388 192 193 195
-0.5091148799360586 -0.21302599677963135 -1.0360009478693677 192 193 195
-0.5180243294284951 -0.21173893475837874 -1.0368047061612742 193 194 196
-0.1262001493365374 -0.27488434063476536 -1.215366385028907 196 196 200
-0.13667892118586 -0.2733651438443353 -1.2161341802299133 196 197 199
-0.14066000647988175 -0.27288395983915104 -1.219564311834943 197 198 200
0.23642447016364299 -0.3403752146254383 -1.611168172957866 202 203 207
0.2144641135214549 -0.33700043690207765 -1.606532349879111 202 204 208
0.20385385296785907 -0.3354640470850743 -1.6073709215814613 201 205 208
0.18778688597030946 -0.33304154589964247 -1.6055029793831597 203 204 207
0.12888831017723357 -0.3236669792606527 -1.5824996809936798 203 204 206
0.15102458790343165 -0.32744059695878686 -1.5993292338114657 192 191 192
0.13098356988880488 -0.32436787616854945 -1.5953307520908613 137 128 120
0.11214971297407894 -0.321489257144196 -1.5918679676480911 126 110 92
0.09351857301348321 -0.3186417170272174 -1.588445563559593 126 108 84
0.08436777791693106 -0.3173334234872643 -1.5897168524578678 127 107 82
0.07294776061241337 -0.3156553468300786 -1.5898205830882666 131 110 85
0.06776356585696675 -0.3149906097906542 -1.5930404176189257 135 115 87
0.0481060409170484 -0.3119703559548901 -1.5889114552920716 137 115 87
0.03484967777132264 -0.30999012498776624 -1.5879751741705581 135 113 82
0.024000471106821908 -0.3084006214882354 -1.5882273028158007 142 118 85
0.012330621175610457 -0.3066764577446481 -1.58802673530209 144 120 85
0.0007311753178005365 -0.3049626902348416 -1.58782719383872 142 120 83
-0.010797776765594236 -0.303259343315816 -1.5876290430289104 132 109 77
-0.022340668727193536 -0.30155265845465484 -1.5873888541301047 125 103 76
-0.03176460050565377 -0.30019055759610375 -1.5882155973804823 127 104 76
-0.04254699072946189 -0.29860595363121584 -1.5883063003368414 137 113 84
-0.053113326780876324 -0.2970556319810248 -1.5884779238766455 131 107 79
-0.06294237380410161 -0.29562474301958797 -1.589005587702002 133 110 81
-0.0749593213326234 -0.29383557340423294 -1.5883503366352691 135 111 79
-0.08388702442334195 -0.2925500843884871 -1.589293389999725 131 108 76
-0.09355422287524995 -0.291142930701904 -1.589818046085149 131 108 76
-0.10163483206061119 -0.28999435735675716 -1.5911602189549945 133 112 80
-0.11036457382004206 -0.28873891027625126 -1.5921326389227142 127 106 75
-0.1180192182802845 -0.28765863056751917 -1.5936573649054973 121 100 70
-0.12681577679476608 -0.2863907803809891 -1.5945458742575618 123 102 73
-0.13725668603395536 -0.28485288200907105 -1.5945199479132037 134 114 81
-0.14692802723679121 -0.28344008408258303 -1.5948800003125756 141 118 83
-0.15458266053847325 -0.2823568919563321 -1.5963094477736295 140 116 78
-0.1613987449875679 -0.2814105185269898 -1.5981759757656127 135 111 74
-0.17073244708504853 -0.2800507312080904 -1.5986440414242085 137 110 76
-0.1783909173466185 -0.2789649181637896 -1.6000062642247626 139 113 77
-0.18370666823561932 -0.2782629109604193 -1.6026407549410582 132 110 75
-0.1878385760244537 -0.2777548723729258 -1.6059188308522163 123 103 71
-0.1970531229848787 -0.2764119016432212 -1.6063631797007127 119 98 69
-0.20194644616890395 -0.275777997165224 -1.6091910069551716 109 89 62
-0.2092357248268893 -0.2747500063099331 -1.6106666849097695 103 85 57
-0.21197783318172858 -0.2744689600322406 -1.6146767205984003 122 100 69
-0.20665937038418924 -0.27551347515480445 -1.6232278628401116 128 105 74
-0.215129578516349 -0.27429036774515997 -1.624008397677336 121 98 67
-0.21435855981417534 -0.2745874075045995 -1.6300091454487258 110 89 59
-0.21202602915205798 -0.27514186816971065 -1.6369102107790852 108 87 60
-0.2079405730389292 -0.2759855536896917 -1.644830089415815 108 89 64
-0.20931942953172528 -0.2759296936048097 -1.6496408188127056 109 92 68
-0.21224731430645544 -0.2756186138357185 -1.6535631117949237 118 102 82
-0.21038513521946972 -0.27609719704124847 -1.660247318785796 125 111 96
0.06529560566614523 -0.32192715532287186 -1.831718228280471 144 133 119
0.06966597572617439 -0.3228374280371728 -1.8404438151919211 146 133 120
0.06876806923634227 -0.3228786306774492 -1.846113063699204 143 130 118
-0.07280835046340839 -0.29968347959801495 -1.7692005759152334 138 126 113
-0.0767597365099505 -0.2992120183656198 -1.772805647053553 134 123 108
-0.08131707623285156 -0.29864018490845035 -1.7760456975626129 136 123 108
-0.08431074046600828 -0.29832662881879557 -1.7802036544558728 136 122 106
-0.0876831307555761 -0.29795032908813335 -1.7841331378905505 135 119 103
-0.10446778385204014 -0.2953544767430877 -1.7800518706720065 132 115 99
-0.10758398332575259 -0.2950194883686973 -1.784098899109001 125 109 93
-0.10946784721667113 -0.2948884584403736 -1.7888827226083115 125 108 92
-0.10515953693896041 -0.29578324919218857 -1.7974008344508658 131 114 97
-0.10842673155018234 -0.29542342451967235 -1.8013626283127104 128 112 92
-0.11228914439908377 -0.29496479304805007 -1.8049589097877679 111 96 75
-0.11214916234422345 -0.29516971822074917 -1.810985366929797 107 92 74
-0.11809787861784338 -0.2943647998288624 -1.8133018438123196 111 96 75
-0.12033854483360618 -0.29417482127239875 -1.817875746038224 115 99 77
-0.12499673298745206 -0.29358346776523875 -1.8209630011258162 116 100 76
-0.12372608987464051 -0.2939765063132732 -1.8276975919543905 111 95 71
-0.1262563830323744 -0.2937384535976526 -1.832093776734026 102 87 63
-0.13490243137653402 -0.2924838648031778 -1.8326914003100532 109 93 69
-0.1322285982962953 -0.2931106435252859 -1.8403141245716261 112 95 71
-0.14123054242736188 -0.29179596154259024 -1.8406600405492357 112 95 69
-0.14676969136195028 -0.2910566255531425 -1.8431493526302218 111 94 69
-0.14488335365849137 -0.29155289147676433 -1.8502954285163613 110 93 67
-0.15554046553297673 -0.28996094877315154 -1.849543154548714 109 91 67
-0.1578184467054986 -0.28976375110000296 -1.8540606354182652 107 89 65
-0.17843707115466334 -0.28651020955374945 -1.846930326945059 105 87 63
-0.17530336187950202 -0.28721399802669667 -1.8548573544391238 104 85 61
-0.17312819007407354 -0.2877585943579021 -1.8621933424485817 106 86 61
-0.19127799867923323 -0.28491292292647297 -1.8565151442145331 106 86 61
-0.19493303945245932 -0.2844843156449577 -1.8600949133900064 105 85 60
-0.20024331848212285 -0.2837791701456524 -1.8626004550984345 104 86 61
-0.20504222275722006 -0.28315903703403655 -1.8654240665762476 105 88 63
-0.19239942826755807 -0.28545273944674876 -1.8795630722807586 107 89 65
-0.2090263656708694 -0.28285605917850914 -1.8746955692162501 107 89 65
-0.21470201362580077 -0.28208868194638426 -1.8769250802128952 104 86 62
-0.2203028907920317 -0.28133336633748485 -1.879189049841087 103 85 61
-0.22578311761331804 -0.2805978026954176 -1.8815180809792555 103 85 61
-0.22730947528344547 -0.2805236792977416 -1.8864416688375205 102 84 60
-0.22122969603621967 -0.2817233549116893 -1.8964013563722093 102 84 60
-0.21809010231222015 -0.2824315258204319 -1.9044433477498894 102 84 60
-0.21468185121867445 -0.2831853928959082 -1.9126862426330948 102 84 60
-0.2107309838219421 -0.2840309383433854 -1.921314777755184 101 84 58
-0.2094740561192001 -0.2844254509758233 -1.9281635847069953 98 81 55
-0.21144280385936942 -0.28427920248564686 -1.932858409179432 97 78 51
-0.21339831560767852 -0.2841352005011397 -1.937562974145202 98 78 51
-0.22145035074132602 -0.28296758078880674 -1.9381448628705567 98 78 51
-0.22913712982362644 -0.2818605574232719 -1.9389498548176352 96 76 49
-0.24150452427271585 -0.2799663174986028 -1.936546089751728 99 79 51
-0.2475029229431005 -0.2791413851782765 -1.9384473351133789 103 80 50
-0.24599214549739246 -0.2795787262825656 -1.9454745596664322 105 83 52
-0.2476225494819848 -0.27948810432193516 -1.9503595361073165 106 85 55
-0.2496147205842798 -0.27933666643580246 -1.9549974359360136 103 83 54
-0.25260996360034516 -0.27901637393844864 -1.958942737788639 97 77 46
-0.2557029266088854 -0.2786795132834889 -1.9628167009377933 103 81 51
-0.25879366748506216 -0.27834290416833685 -1.9666881922128625 109 86 55
-0.25894720037070573 -0.27850124598277753 -1.9726043902600248 103 82 52
-0.2638472386618327 -0.27785950276191934 -1.9752082441136696 106 85 56
-0.2672081871423496 -0.2774770184494292 -1.9788804403431461 109 88 59
-0.2689888564609192 -0.27736104465825245 -1.9836598133727934 110 89 60
-0.26864343162051785 -0.27760403245812804 -1.9899418707321581 109 88 59
-0.27232718447988735 -0.27716690195947324 -1.9933811695031092 108 87 58
-0.2763161779360349 -0.2766780007307919 -1.9965970437028475 106 85 56
-0.28415146085404874 -0.27553879275779253 -1.997064547822168 107 86 57
-0.284970366015979 -0.27558514050691235 -2.002521747901183 108 87 58
-0.2842488615250237 -0.2758922113677219 -2.0090888110792524 107 86 57
-0.28813843615650314 -0.27541942597244023 -2.012353057382517 101 80 51
-0.29712531719738466 -0.27408356387895544 -2.0119339591756105 103 82 52
-0.3025081767442198 -0.27335710342867964 -2.0140919512640303 111 92 60
-0.28921000592042456 -0.2757949176241814 -2.0297881958724586 109 90 57
-0.2833122557734957 -0.2769806051052011 -2.040166724224255 110 89 58
-0.29519844178541166 -0.2751522663749203 -2.037601372531712 109 89 57
-0.2982484015655016 -0.27482131680845173 -2.0414616090161277 109 89 56
-0.2933452677229348 -0.27583967898645945 -2.051156840712217 108 88 54
-0.2965180508011529 -0.2754881710260055 -2.0549361081621678 108 88 55
-0.3017412694990803 -0.2747883459753699 -2.0571965422879805 109 87 55
-0.3041369150992692 -0.2745684420072174 -2.061537993780553 110 87 54
-0.3057160916090741 -0.2744872569328115 -2.0664849360456263 117 93 61
-0.31072384813626375 -0.2738232574081263 -2.068879597410997 120 97 60
-0.31695921972373264 -0.2729500833749578 -2.0703441963299247 117 96 57
-0.32640825711418064 -0.27152957021272867 -2.069381928838794 104 84 51
-0.3372795700851068 -0.26986598073136936 -2.06731814078782 93 77 47
-0.3471946504390869 -0.2683640350944295 -2.0659366478648584 105 90 57
-0.35676371129561035 -0.26691997688131586 -2.0647822821706323 118 99 65
-0.36202877236858544 -0.2662083745687904 -2.0668590539579306 134 109 73
-0.3402260952104653 -0.2701109421274058 -2.0895105588534104 130 104 64
-0.36076236516927773 -0.2667957992550631 -2.079969710716083 133 106 65
-0.3584085572085649 -0.26738364301294537 -2.087859855835038 137 108 66
-0.3498413497009618 -0.26903265106050045 -2.1005377203347004 137 108 68
-0.3420667868119537 -0.2705477732105767 -2.11265343506653 132 104 64
-0.3379819495415861 -0.27143395586796415 -2.121965784847724 136 109 66
-0.34058149036424 -0.27117867491007 -2.126131996890325 136 108 65
-0.3478114010317934 -0.2701317116351263 -2.1267015815893213 134 105 61
-0.3347693531309923 -0.2725511880524637 -2.1430311017104304 139 110 66
-0.3443444809538089 -0.27110295250226935 -2.1417693566182696 143 114 70
-0.3507326197186321 -0.2701992060609589 -2.1429697020382052 149 120 76
-0.36368149480850576 -0.26817142080534606 -2.138998482647311 147 118 74
-0.368347678058878 -0.26756102828337297 -2.141501719919277 142 113 69
-0.3775784285817625 -0.2661680205686131 -2.1403880485154403 144 115 71
-0.37671758937896616 -0.26650419716919704 -2.147236068096234 143 114 71
-0.37200478594870834 -0.26750146511918915 -2.1571577571745855 146 117 73
-0.3710757252545617 -0.26785044895489923 -2.1640961391213662 149 120 78
-0.4183455039791903 -0.2599262350868905 -2.1325384547855024 148 119 77
-0.4109612367060034 -0.26138123062643936 -2.1445669530344373 151 122 79
-0.4056321332461996 -0.26248448611065595 -2.154987459416828 156 127 82
-0.4015376162896075 -0.2633766015754932 -2.164447195839348 166 135 91
-0.3984870569040255 -0.2640900952301843 -2.1730917880766283 167 136 90
-0.40195057505715304 -0.2636838495053547 -2.1764807979217426 165 134 88
-0.40752445006888427 -0.262914269548541 -2.178148403317168 168 137 91
-0.4033077182040187 -0.26382963704893214 -2.1877801089452404 167 138 92
-0.41201052499574653 -0.26252091179047155 -2.1868808864494382 155 127 80
-0.41765252026810795 -0.2617386007232057 -2.18846013118684 157 129 82
-0.41863146270709684 -0.26175951676085585 -2.1938561533955623 166 138 91
-0.43021083588741915 -0.2599527427926892 -2.1905190397624184 163 134 90
-0.430645496174321 -0.2600671179695495 -2.1963509078442174 170 141 97
-0.43218617413665694 -0.2599908616424036 -2.2012736880022166 172 143 99
-0.43793768964143354 -0.2591877035304994 -2.2026984915127485 166 137 94
-0.44178524115569084 -0.2587128719789075 -2.2056935577385692 153 124 84
-0.447332456554863 -0.257944108062202 -2.2072595182027004 153 124 83
-0.4522051492497866 -0.25729144875177684 -2.209374829786233 156 128 82
-0.45584059710390407 -0.2568523512693559 -2.212517299189932 156 127 83
-0.45025901442266925 -0.25800762084869117 -2.2234231546127696 155 126 83
-0.4524141458113534 -0.2578249538229568 -2.2278243929839525 159 130 89
-0.454825963443406 -0.2575978348065236 -2.2320077844759605 154 127 87
-0.45917393073949353 -0.25703528946042314 -2.2345437042407714 139 116 75
-0.4644569675020274 -0.2563103776760183 -2.236271833825542 131 112 71
-0.47216150950117786 -0.2551651974148542 -2.2359147445499747 124 107 67
-0.48101190140865485 -0.25382046778833783 -2.2345487205336387 124 108 71
-0.4723896236710644 -0.25550646689330264 -2.248170968748482 99 85 49
-0.46993839739169085 -0.25612282904217365 -2.2565246311800715 88 76 45
-0.46750602731040325 -0.25673658147857165 -2.264883730572805 89 79 56
-0.492970843583121 -0.2525043982031995 -2.249082804809783 104 95 80
-0.4855336061460086 -0.253987301706776 -2.2617688133717757 132 126 118
-0.48651331402865233 -0.2540080866841537 -2.267164234885669 158 154 152
-0.49181401935329255 -0.2532773943750903 -2.2687884114167667 177 175 175
-0.49657313229501066 -0.2526404807571376 -2.270871829163359 187 187 188
-0.5040472086661295 -0.2515305037422181 -2.2705564017021826 195 194 198
-0.5138235452078386 -0.2500187422040803 -2.268186122074132 198 197 202
-0.5169051932838862 -0.24967236662057465 -2.2716945192582236 202 202 204
-0.5232420248385242 -0.24875839861240126 -2.2723136911679473 204 204 206
-0.47472466094563537 -0.2574100653944383 -2.321651014771923 205 205 207
-0.46890117956699473 -0.25862050522701835 -2.3331963428726854 207 207 207
-0.44875063657018766 -0.2623328195332457 -2.3575798639883225 208 208 208
-0.5143930345790274 -0.25106748043257743 -2.305217056019224 209 209 209
-0.4821597015457073 -0.2568908123638272 -2.3404620821459927 210 210 210
-0.3955228067265075 -0.27222724700011786 -2.4248767928896497 210 210 210
-0.5858223966205953 -0.23915677627561724 -2.259608907160207 210 210 210
-0.8381736764903157 -0.20201883648144822 -2.2600368706680674 216 216 216
-0.845434965944942 -0.20090677662089132 -2.258629090396511 216 216 216
-0.8495709602896253 -0.20035048236862515 -2.260349063028203 215 215 215
-0.8545091183776123 -0.19965089345782955 -2.261245076122061 214 214 214
-0.8590961292361768 -0.1990134101921047 -2.262481453610081 215 215 215
-0.8624512389723394 -0.19859519529045472 -2.2649572926566734 216 216 216
-0.869556737612677 -0.1975075722807482 -2.2635986025416526 216 216 216
-0.8713453315085 -0.19736821223465034 -2.267651480340866 216 216 216
-1.849825341655965 -0.02984560635517782 -1.5002315804733763 216 216 216
-1.8538275817633918 -0.029220892937620133 -1.4990706832592793 216 216 216
-1.8626027488633015 -0.027715282897862292 -1.4920823954759088 215 215 215
-0.4557704311869887 -0.21692915647982194 -1.0438662936977539 192 191 196
-0.4963120879557848 -0.21066474534811067 -1.0321745677081473 192 192 196
-0.4778490807370055 -0.21371172300157718 -1.0439803210560745 192 193 195
-0.4750662028956758 -0.2142844696834225 -1.0495489004136824 192 193 195
-0.49479674277887753 -0.21130108631180206 -1.0460404232496985 193 194 196
-0.6243531815325004 -0.19096031536909258 -0.9979271678372813 194 195 197
-0.11870265875100688 -0.271324399767673 -1.2182762223786117 196 196 200
-0.1482571177425679 -0.26680072645225594 -1.211189443912831 196 197 199
-0.15499222270986435 -0.2658861709937402 -1.2134587745820422 197 198 200
0.17377879334787516 -0.32466493462589346 -1.5746423405763528 203 204 208
0.24257433902158143 -0.3358776606295788 -1.6139340705887608 202 203 207
0.20862397275050437 -0.33061168640783456 -1.6034742312753594 202 204 207
0.1997748712282682 -0.3293713409753075 -1.6051626355987125 202 205 208
0.18328820846532112 -0.3269039356312826 -1.6030818413983658 203 204 208
0.16301068208838365 -0.3238260806032056 -1.5990833166237053 196 195 197
0.1450645695324242 -0.3211208598471278 -1.5961708051493737 143 139 131
0.12865054154163125 -0.31866017522721835 -1.5939606187678892 118 107 90
0.11201040984746224 -0.31616158177859494 -1.5915860024425816 127 110 86
0.09726508920672972 -0.31396617133485033 -1.5901050999546045 124 106 81
0.08269097110918622 -0.3117969300045452 -1.5886640629599307 126 106 81
0.0713307053535791 -0.3101436051882326 -1.5887949003208865 125 104 79
0.06381263402742476 -0.3091078949094928 -1.5908326728656659 132 111 84
0.042890058695007394 -0.30591262849829814 -1.5860558090546966 128 107 81
0.03273283318587372 -0.3044497867618288 -1.586686906087378 133 110 83
0.023055299796881146 -0.30306337713663717 -1.5875335059698292 141 117 88
0.012126142813114305 -0.3014743383505999 -1.5877109406384387 142 118 86
0.0002108606384809697 -0.2997252805914882 -1.5873487295361883 146 124 88
-0.011549518774406353 -0.29800013151590515 -1.5870303035835698 136 113 81
-0.022755412782551332 -0.29636340615376877 -1.5869634642524828 126 105 76
-0.03305640212639194 -0.294871771396779 -1.5873334369997525 124 101 73
-0.043376370660405894 -0.29337616172986136 -1.5876631354388477 134 110 82
-0.055197790150789516 -0.2916370566935387 -1.587176048234838 134 110 80
-0.06364985444349036 -0.29044142596742706 -1.5884235380385978 136 113 83
-0.07426402686333733 -0.2888955239558682 -1.5885070362371465 137 114 82
-0.0837465399251015 -0.28753169655963845 -1.5891577267773438 134 111 79
-0.0928876093094454 -0.28622228424490054 -1.5899621753822437 139 116 84
-0.10154688255074584 -0.2849900586218974 -1.590997073255401 135 112 80
-0.11069114706024064 -0.28367857401150265 -1.591747892728561 126 104 72
-0.11970567286391609 -0.2823873078363883 -1.592541852994084 128 106 75
-0.12895756811744352 -0.2810568029681265 -1.5931818538057638 120 98 69
-0.1388340000896756 -0.27962426789881817 -1.593457167430704 126 106 75
-0.14883967034087364 -0.27816989703679024 -1.5936329007256695 144 120 86
-0.15598086038777337 -0.27717920831843834 -1.5953381803115534 147 124 84
-0.1633181699941384 -0.2761561262006681 -1.5969171376169293 147 125 83
-0.17221995194684736 -0.27487853073896756 -1.597618395248736 134 109 70
-0.17832178749555577 -0.2740547515931894 -1.5998341209192584 149 123 86
-0.18376067331324403 -0.27333818678809163 -1.6024005244926036 128 105 73
-0.19017795219373074 -0.2724622756922446 -1.6044120807277384 126 105 72
-0.19840853695952654 -0.27129115017813493 -1.6053989898065204 141 118 85
-0.2091636587323324 -0.2697088586414984 -1.6049540147211165 119 98 65
-0.21196693211103595 -0.269418900139704 -1.6089268105880072 117 98 64
-0.20989174574323044 -0.2699225987546784 -1.6156369770966348 129 105 73
-0.216254577474914 -0.2690533969964039 -1.6176073495937986 133 108 77
-0.2163873253757031 -0.2691980744935737 -1.6230845866569874 131 107 74
-0.21857973769512895 -0.26900750564951076 -1.6274005161122054 118 96 65
-0.23153924846283852 -0.267062588162273 -1.6255849812055052 110 88 60
-0.22555987210028744 -0.26820331064100766 -1.6345481729011122 109 89 63
-0.22045886418981375 -0.26920175100289934 -1.643039072212083 110 90 66
-0.22091566646961158 -0.26929449665978444 -1.6483607641741387 111 90 68
-0.2242589742220258 -0.2689164471094389 -1.6520226924258243 118 99 79
-0.2075480130587633 -0.2718116330691073 -1.6672941633730047 127 111 92
-0.16819252589048606 -0.2784065256680709 -1.695797973693538 126 110 91
-0.08899202975777376 -0.2915146978016874 -1.7476962383469192 125 108 90
-0.09058902313465367 -0.291429938016125 -1.7526448549267448 129 112 94
-0.09528978865205917 -0.2908379017600759 -1.755773899320772 131 115 97
-0.10326283582104656 -0.28971048628425106 -1.7569658264740575 129 115 96
-0.10715948504427808 -0.2892491999849431 -1.760543784090469 127 113 95
-0.11178636022097754 -0.2886682181022918 -1.7636820171428198 124 109 91
-0.11511729956906191 -0.28829908714965186 -1.76758148474746 127 110 94
-0.1135893219970534 -0.2887254969248034 -1.7743764045787533 126 110 94
-0.12126201191985231 -0.2876451339571624 -1.775676384963148 122 105 89
-0.12436080197839972 -0.2873136654144459 -1.7797026078606715 116 99 83
-0.12148461641878339 -0.2879615905997006 -1.787326841927454 124 107 88
-0.12518930089902458 -0.2875308943669812 -1.790991147592446 124 108 86
-0.12988683793779876 -0.2869371346353558 -1.7940469214161388 112 97 76
-0.12838809987019661 -0.28735996495242916 -1.800864746843711 107 92 71
-0.12829134128728603 -0.28755306718165174 -1.8068409556770408 111 95 73
-0.13436918965060385 -0.2867323667362739 -1.8090426390193302 103 87 65
-0.13504655657230036 -0.2867984601287841 -1.8145487674006266 112 96 71
-0.1412641930302173 -0.28595417220279806 -1.816643769443323 112 93 69
-0.14746491091160163 -0.2851121792984442 -1.8187329927756932 109 90 66
-0.15186919965641899 -0.28456516609605054 -1.8219212299027512 106 88 64
-0.15929774936522023 -0.2835202890753554 -1.823216889893618 111 92 68
-0.15796241229775798 -0.28391726377821275 -1.8299673173656346 112 95 69
-0.1451987583153267 -0.28619639260895385 -1.843895838775227 110 93 67
-0.14804850550121196 -0.28590555951676916 -1.8480657984117144 109 92 66
-0.1650996164978965 -0.2832745946056351 -1.8432732290097966 108 90 65
-0.1683753282125856 -0.2829125195296708 -1.8471392818927541 107 89 65
-0.16723564221934528 -0.28327840022795236 -1.8538044907529716 105 87 63
-0.16641203151578343 -0.2835925445699051 -1.8602818168347737 102 83 59
-0.17241889190160054 -0.2827798883429118 -1.8624063194683118 102 82 57
-0.18967897926113975 -0.28010906391222057 -1.8573007642009507 105 85 60
-0.20072230430746207 -0.27846304285660395 -1.8561317063208564 105 85 60
-0.1877744842384953 -0.2807793654669808 -1.8704050534146832 104 85 61
-0.21479659644778937 -0.27649189259577517 -1.8588701824617062 104 86 62
-0.2140918677577024 -0.27678535626346107 -1.8652360530367067 106 88 64
-0.2122261798510523 -0.27727118033277 -1.8723698343958541 106 88 64
-0.21340761496294725 -0.2772533516586489 -1.8775291087748456 103 86 61
-0.21737535476241354 -0.27677447486200757 -1.8808660055345416 103 86 60
-0.22222553267684664 -0.2761492637631174 -1.8836151338305076 103 86 60
-0.23685812951587104 -0.27390339522910334 -1.879900425724814 103 85 60
-0.22066695840944028 -0.2767634197748246 -1.8965296935277636 103 85 61
-0.2106818441522461 -0.2785970050760634 -1.9091156994154574 102 84 60
-0.2066845341801915 -0.27943918789047495 -1.9177652190530916 104 86 62
-0.25360218112511856 -0.2718361064030469 -1.8924328415811384 101 84 58
-0.24780621667637537 -0.27297512830654586 -1.902232618976743 95 78 52
-0.23142877397604755 -0.27587177433781707 -1.9191773485547152 96 77 50
-0.24330362934423866 -0.27407880249936734 -1.91715197583444 98 78 51
-0.2476164789514015 -0.27354092783726713 -1.9201999567272707 100 80 53
-0.2500708346767603 -0.273311658899231 -1.92449960535288 98 78 51
-0.24997783824162423 -0.27350587649156216 -1.930531379857327 98 78 51
-0.25123279621286976 -0.27347617787683093 -1.9356524446179688 99 79 51
-0.25123947627427423 -0.2736542889851413 -1.9416319449350625 97 77 51
-0.25370473134838545 -0.2734234384996951 -1.9459318759348485 91 74 49
-0.2553041657800753 -0.2733367185483832 -1.9508269343549587 79 64 39
-0.2577376558659643 -0.27311113268277276 -1.9551479245542356 76 64 40
-0.26044185147787435 -0.2728403993514717 -1.9592800409308087 85 68 43
-0.26335412868897334 -0.2725349065069049 -1.9632650976389918 101 79 49
-0.26248424283251326 -0.2728600605384792 -1.9698846290229783 110 88 57
-0.26455116144125634 -0.2726956456852384 -1.974462558510855 108 87 56
-0.26941521333523555 -0.2720644103847125 -1.9770781220104294 107 86 57
-0.27138042564741827 -0.2719168172822044 -1.981722320981307 108 87 58
-0.27372461114063396 -0.27170594926421526 -1.9860997397711289 109 88 59
-0.2753879321745911 -0.271608819864689 -1.9909584165767005 111 90 61
-0.27779920175583406 -0.2713867305550411 -1.9952879214361645 109 88 59
-0.2834009878473517 -0.2706310981639786 -1.9973433527547946 110 89 59
-0.2853065204121854 -0.2704933343453898 -2.0020250530289077 110 89 59
-0.28618664768599233 -0.27052719835411326 -2.0074426815597155 112 91 61
-0.2899707206251133 -0.27007507370571215 -2.010778199360019 108 87 57
-0.2942054806746843 -0.2695472571402634 -2.0137816505373394 102 81 50
-0.2911026399441474 -0.27024851334634264 -2.02208256098685 107 87 56
-0.2939935487264097 -0.2699458660230857 -2.026058545225854 112 92 61
-0.2945264648353124 -0.270038487009262 -2.031746811267303 109 88 57
-0.2980631961204916 -0.26962747084357513 -2.035250146236919 109 88 56
-0.30319390124829937 -0.2689488024138727 -2.037580781769048 110 90 57
-0.303292072139532 -0.26911453615057745 -2.0435926485621936 111 91 56
-0.30644698958864125 -0.2687672123068649 -2.0473628642066553 109 89 56
-0.3058722822392611 -0.26904632271376155 -2.053882803331008 113 91 57
-0.30745225879389715 -0.2689636670259212 -2.0588187878930033 114 91 56
-0.30790916040574656 -0.26906990666499314 -2.0645915150994356 122 97 62
-0.3124150693742589 -0.2684953467399456 -2.067354966739305 122 98 61
-0.32057498420343855 -0.2673056494309704 -2.067377560496618 123 100 59
-0.3300191828648452 -0.2658989773029048 -2.0664110830780724 123 99 64
-0.3403375558108145 -0.26434413306101257 -2.064755222764311 106 86 53
-0.35037439432344064 -0.2628356304944352 -2.0632753641609862 103 85 52
-0.3602505468886966 -0.2613531570851965 -2.0618819224871787 118 97 64
-0.36740883652732614 -0.2603278625765843 -2.0625150361995113 134 109 74
-0.3737921828164381 -0.2594325971158827 -2.0637150888097446 133 108 69
-0.3676608628483181 -0.2606483051541362 -2.0744418881799738 135 107 67
-0.3640790691844479 -0.26143477345460925 -2.0832550573305673 140 111 69
-0.35613665398679417 -0.26295833518422107 -2.0954392850427954 140 112 71
-0.3483595566616542 -0.2644553187854369 -2.107541327467485 140 113 69
-0.3430471846667138 -0.26553710943765574 -2.1177856985506285 141 114 70
-0.33541328671027804 -0.26701237978989084 -2.129860254213037 139 111 67
-0.3423895280267657 -0.2660179831301206 -2.1306382936301924 138 109 65
-0.3449633659367176 -0.26576780141684636 -2.134821660440286 138 109 65
-0.35926703580607355 -0.2635321355595413 -2.1298454662718163 140 111 67
-0.369810362744157 -0.2619315653575217 -2.1277585692882024 143 114 70
-0.3725684565171662 -0.2616486610553447 -2.1317468365665393 145 116 72
-0.3786442633279582 -0.2608034307247041 -2.1331195460006382 138 109 65
-0.3979221347529296 -0.25771946226200904 -2.1240477606141375 141 112 68
-0.39059845764205536 -0.25914484063842913 -2.135967499694411 142 113 69
-0.40004572678909456 -0.2577259715813427 -2.1346087340303974 147 118 74
-0.3982841635504365 -0.2582086741786291 -2.1421454648205205 146 117 74
-0.4000793040006868 -0.2580879528717796 -2.146858498529532 143 114 72
-0.4022144288182271 -0.2579095201616888 -2.1513006050444736 143 115 71
-0.4024788854464164 -0.2580489938192431 -2.1572456202091863 149 121 75
-0.4011029941537805 -0.25846760206139147 -2.164520838970902 153 123 79
-0.3994620749389154 -0.25893176732276907 -2.1720262607469145 158 127 83
-0.4082921672234162 -0.2576148007856597 -2.171063767648814 160 129 85
-0.4132574616902235 -0.25695477276223694 -2.173211103411914 159 128 84
-0.416265020521981 -0.2566277313109444 -2.176940771910272 160 131 86
-0.41968826434119166 -0.2562297506878482 -2.1803265744734035 157 129 82
-0.42397511787544295 -0.25568440537348597 -2.1829984951132624 151 123 76
-0.4268784632308953 -0.25537464184827374 -2.186797452342045 162 133 87
-0.43416592504658114 -0.2543169839728646 -2.1869791579240974 156 127 83
-0.434938736303068 -0.2543702403082934 -2.1925215611230966 165 136 92
-0.4367500213476416 -0.2542464088584626 -2.1972093874771006 167 138 94
-0.44093119106139345 -0.25371789910527076 -2.1999286649166483 157 128 84
-0.4463167316922922 -0.2529833366966068 -2.2016343106057925 148 119 78
-0.4516154416480371 -0.25226315482352796 -2.2033971723583057 146 117 76
-0.45622849425060524 -0.2516597619733181 -2.205719796949413 150 121 77
-0.4521137773159698 -0.25254896047281755 -2.2153672581251427 152 123 81
-0.4552221668517839 -0.25220296355608884 -2.2189551495537327 151 122 81
-0.4569015213130554 -0.25210147256050786 -2.223746292684874 149 120 81
-0.4594335793401725 -0.2518539999339229 -2.2278166110950224 145 119 79
-0.46289976759134366 -0.2514464130455666 -2.2310908440395707 134 111 70
-0.46684193523380746 -0.2509570447915377 -2.233952883512717 129 109 69
-0.4747517436326016 -0.24978703799011598 -2.2334147015992243 126 109 71
-0.48299652169745527 -0.24855873929242833 -2.2325617846695582 123 108 71
-0.4875061855814893 -0.2479705988333424 -2.234890084523819 98 85 48
-0.4938592126922761 -0.24706561604272823 -2.2356180053545374 86 74 43
-0.46997734887647336 -0.25135337437843547 -2.2624579905814355 85 75 51
-0.46859034170468916 -0.2517793711025543 -2.2699257603900387 97 87 70
-0.4856028852798898 -0.24904279882574082 -2.2614192050991364 119 113 102
-0.48774610574551536 -0.24886134112207106 -2.265799742354095 148 144 140
-0.4952682003062219 -0.24775441984609095 -2.2654794429035876 169 168 165
-0.49970310422633196 -0.24717810235862883 -2.267838358412784 184 183 183
-0.5090857887272511 -0.2457494471868513 -2.2658382634037544 192 192 194
-0.5132574393907715 -0.24521744516711874 -2.268394571762378 197 197 199
-0.5137655088329809 -0.2453165334328111 -2.2741777505775747 201 201 203
-0.5069004270304038 -0.2466870963539503 -2.286500987927263 203 203 205
-0.4725431900725868 -0.25280103386478925 -2.323291732933051 205 205 206
-0.46056869627197616 -0.2550578876969753 -2.3403203697665083 206 206 206
-0.44361311906573475 -0.2581767008283674 -2.3618670617739146 208 208 208
-0.43399149259305636 -0.26003167717143266 -2.3769377778585548 209 209 209
-0.3886996770873763 -0.26805147462238754 -2.424103042080943 210 210 210
-0.39841621101116875 -0.26656984525915123 -2.421960308732128 210 210 210
-0.5843278986060565 -0.2346182548856215 -2.260668917456266 210 210 210
-0.5833191808694477 -0.23497693614115972 -2.2677316664008482 211 211 211
-0.8386670895244677 -0.19764937580651448 -2.265152972088172 216 216 216
-0.8427834259857081 -0.1971015129446905 -2.266910276306322 215 215 215
-0.8438963406687361 -0.19708250082163542 -2.2716962857986784 215 215 215
-0.8540759417118848 -0.19546535304919685 -2.267284236123388 215 215 215
-0.8592976970142918 -0.1947212472132819 -2.2678734669627376 216 216 216
-0.8552483802280242 -0.19561236826981546 -2.2779036728288484 216 216 216
-1.8537218089415115 -0.026515865564921477 -1.495313733728043 216 216 216
-1.857702159951166 -0.025900890570515776 -1.494167866171118 215 215 215
-1.8668716370355112 -0.024339246828127374 -1.4866889126268379 216 216 216
-0.43338698452591007 -0.2160983429173522 -1.0480994771556695 191 190 195
-0.4525748746776699 -0.21323367227761064 -1.0449879933709312 192 191 196
-0.44110213279815025 -0.2151573890922409 -1.0540420912791444 192 192 196
-0.4479765877186797 -0.21421512554803301 -1.0557949021736526 192 193 195
-0.4673035354724453 -0.21132565573126252 -1.0525231091885718 192 193 195
-0.47474773478817966 -0.21029265754193285 -1.0539899725046007 193 194 196
-0.4686572873892274 -0.21137631873609092 -1.060926135819641 195 195 197
-0.47796389463415745 -0.21005143351960137 -1.06161897265846 196 196 198
-0.4882073497779762 -0.20857914754073276 -1.061902914730543 196 196 199
-0.13959691734357 -0.2632956133677303 -1.2095257917338609 196 195 200
-0.15485148078402322 -0.2610547913503132 -1.2083012963158488 196 197 199
-0.1675850828313224 -0.259207621986866 -1.2080751803956993 196 197 199
0.312334430323569 -0.33457384949191066 -1.4126676819429034 198 199 201
0.27746572266976466 -0.32927901404391946 -1.4039745492826423 198 199 201
0.26413411417884347 -0.3273586140438807 -1.4041989298595134 199 200 202
0.25724589241814266 -0.33253529191778125 -1.6147483761042345 203 204 208
0.23684168395834637 -0.3294743219209159 -1.6109379312564331 202 203 207
0.2162490077574275 -0.32638149478850675 -1.606970038630506 202 204 208
0.1970290099788703 -0.3235047836648011 -1.6036061409857663 202 203 208
0.1788571329594293 -0.32079282736570236 -1.6006944758152948 201 199 202
0.1593451294745859 -0.3178661321695353 -1.5970652907493843 165 160 154
0.14191493995579274 -0.3152686463812138 -1.5944014653767131 122 112 95
0.12583721793706903 -0.3128846794967258 -1.5923526948465339 123 106 84
0.10837923382639503 -0.31027958540984973 -1.5895663800391016 125 106 81
0.09352649191208795 -0.30808756836563467 -1.5880254923705288 125 107 82
0.08233900658946125 -0.3064778415834706 -1.5882757058471104 127 107 82
0.0683719335863211 -0.30442438111788617 -1.5870943643120843 125 104 79
0.04792189070794428 -0.30133661255893096 -1.582595760803521 126 105 78
0.04111265620560656 -0.30042122468113275 -1.5849437758420273 120 99 75
0.030704237032335047 -0.29893143050444804 -1.5854438522550565 122 100 76
0.01996619037590852 -0.297388167191598 -1.5857452571732502 130 106 79
0.011029629399454843 -0.29613142742184656 -1.5869381134037432 136 112 82
0.001254774669791292 -0.29474014679055077 -1.587674819110569 138 116 80
-0.009053625054845305 -0.293262846599483 -1.5881079328720484 135 112 79
-0.021602647211143577 -0.29142677054972604 -1.5873501406341828 125 104 73
-0.033139032108797095 -0.2897513617414837 -1.5870801007172881 125 100 73
-0.04256980290130197 -0.2884114822896632 -1.587873656920471 136 111 83
-0.055847317202942226 -0.2864557434049694 -1.586625843734459 137 113 81
-0.06344746901386056 -0.2854068591350965 -1.5883197425947313 144 120 87
-0.0757502029864453 -0.28360495441325223 -1.5875132499282671 142 119 87
-0.08424590207246463 -0.2824112734198501 -1.5886834457199126 134 111 79
-0.09335597837165999 -0.281118522543138 -1.589503429830771 131 108 76
-0.10332749470067959 -0.27968702702306647 -1.5898379895363162 137 114 81
-0.10361500022752357 -0.2798062627495062 -1.595322923441009 132 108 75
-0.11368869291530392 -0.27835719130449976 -1.5955617260303343 139 115 84
-0.12348747858394649 -0.2769513153206454 -1.5959185504272544 125 101 71
-0.14074417227325164 -0.2743484186765437 -1.5922147111746072 124 103 73
-0.14793319230296653 -0.2733591438194002 -1.593914872630278 141 118 83
-0.15696857787946772 -0.2720729601346895 -1.5945906057847217 150 127 86
-0.16405369986517587 -0.2710991304322793 -1.5963053507744895 160 139 96
-0.17236718934805867 -0.26992745275583147 -1.597327718209269 132 110 69
-0.18004902452850152 -0.26885656617726994 -1.59867382474547 159 135 95
-0.1878762158578437 -0.26776169090904683 -1.5999183249925815 133 109 74
-0.19307617098965701 -0.26708857997097457 -1.6025961486000575 154 131 95
-0.2021892970635289 -0.2657857372882553 -1.6030869192016535 148 123 87
-0.2110312560567904 -0.2645257320338347 -1.6037019385844922 132 108 72
-0.21692225037776913 -0.26373992029680665 -1.6059425638581524 126 104 68
-0.22036550919601772 -0.26334777746392013 -1.6095431708406207 130 105 72
-0.215397253855659 -0.26431025873159814 -1.6178787407888338 134 108 75
-0.22145527578982716 -0.26349699350407046 -1.6200064222257116 132 107 73
-0.22601437871437036 -0.26292486611070987 -1.6229691984340329 127 102 70
-0.22658162345170324 -0.26299607404033515 -1.6281950959728655 126 103 73
-0.2442711350282013 -0.26030581155837756 -1.6236450951571504 116 95 67
-0.2238134555444698 -0.2637686835170769 -1.640901537624021 98 77 51
-0.2214206332380539 -0.26431839368401616 -1.6478551395126046 98 77 52
-0.23941846786818094 -0.2615763266871946 -1.6430582068971769 107 86 60
-0.22627503343781608 -0.2638623083841936 -1.6562323267468761 116 95 70
-0.19262948194652396 -0.26946266507953714 -1.6813782705541072 123 104 80
-0.17252948291702996 -0.27287772002370125 -1.6987671642682465 124 106 82
-0.12793584556445148 -0.2802557019439166 -1.7305706145517337 118 100 76
-0.13088735343866842 -0.27994875235528854 -1.7346526962073958 111 93 69
-0.11143493380941905 -0.28326678122355803 -1.7519248032525663 118 100 76
-0.11447697113420396 -0.28294628777576225 -1.7559912429467381 116 100 77
-0.11708379933666502 -0.28269616305482737 -1.7603122501116841 106 89 69
-0.12364625629301318 -0.28180526107155807 -1.7622787632734989 101 85 67
-0.12580558631281147 -0.28162731708722943 -1.7668555565227781 109 93 77
-0.13306629829185979 -0.2806224680229116 -1.7683779367122703 110 94 78
-0.13685348200166858 -0.2801802685912609 -1.771966775218753 104 88 72
-0.13947295188237852 -0.27992729600807287 -1.77625296748579 118 101 81
-0.13789994254013183 -0.28035458028264026 -1.783072562087337 120 105 80
-0.14173596220522056 -0.2799042662722676 -1.7866253876132363 115 100 77
-0.13887593521904973 -0.280541101321041 -1.7942473839300537 106 91 68
-0.13969700021767983 -0.28058055126276255 -1.7996414432195704 100 84 60
-0.1453854941893129 -0.27982918611543817 -1.802058658251347 94 77 56
-0.15185834816345334 -0.27894990035773487 -1.8039796261666223 107 90 63
-0.15659354515746504 -0.27835268709331584 -1.8069549256586417 107 89 63
-0.1594438547581155 -0.27806180368649513 -1.8110860867653866 104 87 61
-0.16435261309925653 -0.27743584964300483 -1.8139367458097866 107 90 64
-0.16534395498193177 -0.2774473175636282 -1.8192158529449398 114 96 70
-0.17012209297452974 -0.27684221748893856 -1.8221338433739216 115 98 72
-0.1721197765074962 -0.2766897881384534 -1.8267839745678345 112 95 69
-0.17494018401267852 -0.27640329382357354 -1.8309174205687189 107 90 64
-0.17972961479523508 -0.2757957010038389 -1.8338060589903913 107 88 64
-0.1693135537407896 -0.2776677270189194 -1.8463069601542785 107 88 64
-0.16873177827450192 -0.2779367475183008 -1.8526152576434738 107 88 64
-0.1700043395629114 -0.27790344249511645 -1.8577536559106265 103 83 59
-0.1734437315980265 -0.2775164580737734 -1.8615111605671382 103 83 58
-0.1781616480397784 -0.27692049544003616 -1.8644439178913963 105 85 60
