ply
format ascii 1.0
element vertex 675
property float x
property float y
property float z
property uchar diffuse_red
property uchar diffuse_green
property uchar diffuse_blue
end_header
-0.4669882425729781 0.26158416854990496 -2.235944039403257 173 142 100
-0.4679547587920463 0.26481487682031846 -2.239413851582942 158 130 89
-0.4679406510502326 0.26363156902068896 -2.246635726006423 132 110 69
-0.4686487210299072 0.2656982775123712 -2.251098714462497 129 107 68
-0.46973080632433417 0.2694503174120114 -2.2541191135046046 133 111 70
-0.4706921006043554 0.2726592626510771 -2.257597754466379 131 110 73
-0.4708166546692658 0.2720955241105344 -2.264318396111705 130 116 90
-0.47148561344872375 0.2739858050017512 -2.2689334578444993 148 142 127
-0.47220808931770886 0.27611748924101 -2.2733404847962713 172 168 163
-0.4728851830112316 0.27804428172442586 -2.277925096321268 185 185 185
-0.47421271365432965 0.28290944433924636 -2.279953140335598 193 193 194
-0.47486061331761054 0.28470529674146317 -2.2846464517846123 198 198 200
-0.47748118150832486 0.2954206417312738 -2.2815355571102747 201 201 203
-0.3195272424875877 -0.19961438697345818 -1.6372422825489708 214 214 217
-0.3330407514499941 -0.1454113210130933 -1.6258762387215233 157 152 145
-0.33733059804911814 -0.12823115943679197 -1.6224416810166788 119 112 104
-0.3402715651470589 -0.11674610153355958 -1.62200413265603 111 102 93
-0.3428972529779116 -0.10658891704811368 -1.6222457157378667 98 89 77
-0.34616185068391747 -0.0937229168738703 -1.620993981792807 102 92 79
-0.34894952882230434 -0.08286897733853116 -1.6207918093763847 98 88 76
-0.351545472014817 -0.07282139035643592 -1.6209948965183343 97 87 74
-0.355778771843987 -0.055833192036451096 -1.6173799385280305 94 84 72
-0.3578329181744757 -0.048068977309945526 -1.6187596821046146 95 85 73
-0.3617342717375921 -0.032471699196796155 -1.6158129827423386 97 87 75
-0.3641483892997378 -0.02317149860896439 -1.6162872661042498 97 87 75
-0.3665668949939822 -0.013848064384179959 -1.6167210111934036 102 92 80
-0.3689710236176629 -0.004580977603399261 -1.6171582176060395 101 91 77
-0.37103674099194417 0.0032545268363763924 -1.618365485248427 112 100 86
-0.3735665168379016 0.013063828100769337 -1.618446857645504 121 107 93
-0.37409603344855863 0.014383619328273756 -1.6232617568504937 136 121 105
-0.3759172881869256 0.021190333761212488 -1.6249902327465378 141 129 115
-0.37685678195022954 0.024253123526250697 -1.6288155001589124 138 127 117
-0.3783592801323399 0.029709801183237794 -1.631279777755758 138 131 122
-0.3787287125118362 0.030350659139442127 -1.6364702580978054 140 134 127
-0.3789751231839584 0.030467315811377127 -1.641965418042753 158 153 148
-0.3532358614982917 -0.11835867252466115 -1.9618178133474256 163 160 155
-0.3573825509238024 -0.10153335767076599 -1.9570686736614242 157 154 150
-0.3613490149936198 -0.08547511077844505 -1.9527601243552235 157 152 148
-0.36504884228631174 -0.07055753044019497 -1.9491414702106513 156 149 145
-0.36806090640224326 -0.05859934717300386 -1.9474145915924252 155 146 143
-0.3722601771728794 -0.04150859003584395 -1.9422644621617395 146 141 136
-0.37242362050542965 -0.04183792130125663 -1.9485699475876055 140 134 128
-0.37460045215031834 -0.03347019264501272 -1.9491176292783772 139 129 122
-0.3758587482009482 -0.029068010834789826 -1.952277890974127 136 127 118
-0.37768873638542455 -0.02219250445969001 -1.9537781618085523 129 121 111
-0.3785609290811306 -0.019456206011054245 -1.9580299340134082 127 119 109
-0.37988080799453655 -0.014782528826545627 -1.9609782273676122 125 115 105
-0.38150961687727314 -0.008769960440234259 -1.9630140561041058 124 114 104
-0.3855411593899564 0.007648519385630936 -1.9580018250473616 121 110 99
-0.3864276608752898 0.01045518806203416 -1.9621566690561294 119 107 93
-0.38703904576534187 0.012070296591245921 -1.9671189694549165 118 105 89
-0.38752743010863533 0.01315189034382025 -1.9724474128578418 120 103 88
-0.3886237224595786 0.01686856667047898 -1.9759774987593894 119 103 86
-0.3913759026846265 0.02776878853174769 -1.9745709924941761 118 102 85
-0.39016407749533644 0.021475241993126892 -1.9849637082336273 117 102 84
-0.3923668459175502 0.029997106381390637 -1.9851618193035576 119 103 85
-0.39519601137882415 0.04124354120842866 -1.98344575203535 121 104 86
-0.39657452927298076 0.04619528045309007 -1.9860643516750718 118 100 81
-0.39812719882535474 0.051905821589968926 -1.9881421763695168 115 99 76
-0.39903225857894925 0.054803838922168335 -1.992170785289768 113 97 72
-0.39988609914456696 0.05747968644394519 -1.9963519047166784 111 95 69
-0.3993990581658615 0.054322916408325206 -2.004632737106611 111 95 68
-0.40106564601102435 0.06053427884552709 -2.006327619975891 111 96 67
-0.4029294995630201 0.06760739807140181 -2.0073952752443787 111 94 66
-0.4029434031574216 0.0666277499455672 -2.0141569491915265 107 90 62
-0.40367991811679765 0.06879389206401909 -2.0186925891782446 100 83 53
-0.4058276975215477 0.07711055638432607 -2.0188364545667583 97 80 50
-0.40704704414912307 0.0813840561741519 -2.021849283913676 99 82 52
-0.40870006289729355 0.08755055523663291 -2.0234930236597384 98 81 51
-0.4093542265180873 0.08936205620085902 -2.028257071983489 95 78 47
-0.41038345075518057 0.09281032313694015 -2.031839625313935 94 75 43
-0.41124876653557985 0.09554391414653107 -2.035934450149789 103 83 48
-0.41226862178566204 0.09895297248669788 -2.0395355421521 111 91 56
-0.41377398208170113 0.10448441659062235 -2.0415834123541794 113 91 57
-0.4150871087999891 0.10917813737101634 -2.044229095770651 114 91 57
-0.4157026468039896 0.11082338158410698 -2.0490997379077216 116 93 59
-0.416613225784843 0.1137589115058103 -2.0530231274330792 117 95 58
-0.41697459940922144 0.11429168686311586 -2.0587159757565607 117 95 57
-0.4183465399898169 0.11924727143662428 -2.0611423710879064 117 95 57
-0.41851999201915335 0.11895634159714019 -2.0674508453244016 103 82 49
-0.4184458499688738 0.11757886148592755 -2.074578845673573 98 79 48
-0.4188748587544948 0.11840389999310741 -2.080077584462418 88 72 40
-0.4193638692117077 0.1194910246226738 -2.085385748512473 92 75 43
-0.4199855605734747 0.12115930939238095 -2.090261948315411 103 83 50
-0.42060753189740485 0.1228284769891228 -2.095139483364688 113 92 53
-0.42027754845927834 0.12031876149108989 -2.1031764040560255 122 100 61
-0.4226216337503778 0.1295476293971073 -2.102338657261987 126 103 65
-0.4228811626533875 0.12962491870975423 -2.1084245205603827 126 102 64
-0.4227530813664874 0.12799728473337857 -2.1158190111110633 127 101 64
-0.42402672187244983 0.13252899152241937 -2.118521676284736 128 102 65
-0.4296315240837962 0.15611052906616196 -2.10660830323102 128 102 65
-0.4307658752803719 0.16004053058011847 -2.109709493514954 127 102 62
-0.43135359530237266 0.16156606063536028 -2.1146567525695263 127 102 62
-0.43256336823394503 0.165830047596211 -2.117488660964613 129 103 63
-0.432871873706291 0.16612587958063296 -2.1233887837648355 133 107 68
-0.43341161559308466 0.1674392319768958 -2.1285055034261045 133 108 70
-0.4339319004787601 0.16866619602068278 -2.1336931835687554 136 108 68
-0.4340486236261992 0.16811280542977314 -2.1402778049433735 138 109 69
-0.43542337981926216 0.17310730460038914 -2.1425211434861113 141 112 71
-0.43690172011757844 0.178561230496308 -2.1443898648902904 139 110 68
-0.43928764525394465 0.18802488101826054 -2.143078883772431 136 108 64
-0.4390350278323152 0.1858402976625515 -2.1509538186308226 136 109 64
-0.43950463806477913 0.18684355983722756 -2.156317861522001 128 102 61
-0.4410740667528253 0.19270753594886136 -2.157817607727078 111 86 53
-0.44181715316657844 0.1949203279520162 -2.162214979243064 106 83 49
-0.44228672747587205 0.19592322991805078 -2.167580466137169 108 86 52
-0.44318418035749363 0.19881889162294808 -2.171431286944366 111 90 57
-0.4445279191235163 0.20369107692834698 -2.1736869899818063 112 90 56
-0.4455017048025081 0.20692689725900393 -2.1772512848752426 121 97 61
-0.44714826112052347 0.21314464608053374 -2.1783956330737944 129 100 67
-0.44785428660986537 0.21519658806604425 -2.182903968996391 127 102 68
-0.4503619503881082 0.225237895243512 -2.180906032822281 117 93 61
-0.45140817638581154 0.2288022313695759 -2.18416110513817 114 90 58
-0.4524791646502401 0.23247766083673493 -2.1873183467584507 113 89 57
-0.45249904353499576 0.23148755897605133 -2.19430016507757 119 96 62
-0.45314306673860527 0.23326722498378438 -2.199014923381962 124 100 67
-0.4548162334026524 0.23961965062556345 -2.199954102273651 127 104 72
-0.45336977553720603 0.23210782322268064 -2.2123572759265677 127 104 72
-0.4550116116035594 0.2383222222482474 -2.2134036533898938 120 99 67
-0.456337194398873 0.24313299982729175 -2.215599944752622 114 94 64
-0.45862027941715805 0.25220764291206865 -2.214221815356117 117 97 68
-0.45952237120937045 0.2551390071174504 -2.217956899691332 120 100 69
-0.46051686366772504 0.2584826662389482 -2.22134165364393 122 100 67
-0.46119268094849164 0.26040726351001064 -2.225915816688182 142 116 81
-0.4624349707984531 0.2648571373962054 -2.228357569215792 167 136 94
-0.46245582039734356 0.26386139292327915 -2.2354009537614816 175 142 95
-0.463328900547755 0.26666559658590583 -2.239231050600763 178 147 101
-0.4635517822360225 0.26656813077779795 -2.2455293484816923 142 119 78
-0.4644670644655874 0.26956078957490126 -2.249198470907476 131 112 72
-0.46531190334677985 0.2722395124693885 -2.2531321574651044 132 113 69
-0.4660936178135202 0.27463661758889446 -2.257304877921184 129 108 70
-0.46680302772800936 0.27671070636531125 -2.261754293420491 123 106 74
-0.46768488391268154 0.27955614681461394 -2.265537524093648 136 125 102
-0.4682406251391386 0.28094290191375115 -2.270580414320266 160 153 142
-0.46885364497067566 0.28258549862661975 -2.2754044195123857 177 176 173
-0.4682797967435447 0.2789121292044139 -2.2848599702261336 188 189 188
-0.468728217460351 0.2798142401442957 -2.290347545703234 195 196 196
-0.47050572850204353 0.28667296149942545 -2.2906248143803607 199 199 200
-0.30796218892542676 -0.22389184697649 -1.6392055857778602 214 214 216
-0.3125435771508239 -0.2056427161912332 -1.635477499014398 215 215 218
-0.3171130170628877 -0.18743387032513137 -1.6317102581722889 211 211 214
-0.32243455746458394 -0.16606141612026254 -1.626209204752294 189 186 183
-0.33004461843013466 -0.13507773279221913 -1.6155335572762848 131 123 115
-0.33375106589441594 -0.1204555407417891 -1.613465499553528 111 99 89
-0.33402146609564587 -0.12024742842843106 -1.6190564993641092 110 98 86
-0.33688026533305393 -0.10917314397166072 -1.618824762781915 115 101 88
-0.3400928981276178 -0.09660731894667451 -1.617756017940497 99 85 72
-0.34294660589365766 -0.08554291413582171 -1.6174588688005493 89 79 69
-0.34515790737747964 -0.0771726063006597 -1.6185885044536656 91 81 72
-0.34862011097100154 -0.0635400210902618 -1.6168309129795202 94 84 74
-0.3514103520955598 -0.05272587089068176 -1.616568335335673 98 88 77
-0.35408826681191774 -0.04237877572928134 -1.6165283867782547 94 84 72
-0.3567527295125783 -0.03208313601413826 -1.6164851528711326 84 74 62
-0.35918475447452164 -0.022760683084565803 -1.616947456998699 98 88 76
-0.3637590377814534 -0.004414278647230208 -1.61238540687643 100 92 79
-0.3659753348607381 0.004011522987410254 -1.613272947865949 93 85 70
-0.36877760849585695 0.01490996735770661 -1.6127573995197366 93 84 69
-0.3719140078261048 0.027222044247415145 -1.6114169035443038 107 93 78
-0.3725312515232847 0.028920996962896572 -1.615995069130485 115 100 83
-0.37324096713932897 0.031009670860991323 -1.6203550400740918 128 115 97
-0.3740643563761531 0.03357786803547974 -1.624443794017108 140 127 112
-0.3748503754435307 0.035988709812520114 -1.628619786299765 135 123 109
-0.3757858330316038 0.039030542681121605 -1.6324352409926255 134 123 110
-0.376485949048865 0.04107934513499767 -1.6368139449874557 135 124 114
-0.3773853169172229 0.04396970036952391 -1.6407103979336708 131 122 114
-0.3782896751898055 0.04688167751072442 -1.6445911305775676 139 133 126
-0.3789392863040258 0.048717581543568644 -1.6490893153920652 166 163 158
-0.3774295096394601 0.04142430952411358 -1.6588731703386181 199 198 195
-0.3440266156047256 -0.1315259023098454 -1.952846382449139 168 164 162
-0.34935308318520447 -0.10978824021295275 -1.9450303448197914 164 160 157
-0.35360106816320086 -0.0926481751403736 -1.9401091600327514 163 159 155
-0.3579103388829588 -0.07523583381652743 -1.9349498218961103 162 157 154
-0.3610965008221303 -0.06261804327079223 -1.9328500015893466 159 154 150
-0.3644382463398406 -0.049327270656890576 -1.9302675284115038 154 148 143
-0.36454173122590705 -0.04989244132903914 -1.9367192887148221 152 144 139
-0.36647185114181485 -0.04263666979498615 -1.9380409579165838 147 138 134
-0.3692721543132584 -0.03164944216850474 -1.9368808130574708 142 133 127
-0.37169434898265774 -0.02227656137225209 -1.9367520425662286 139 130 122
-0.3737463299809247 -0.014485839376080722 -1.9376432708447808 136 127 118
-0.37504270610763446 -0.009931675634829773 -1.940665647472485 136 127 117
-0.3767790344745434 -0.0034884412859305103 -1.9424165387063896 131 121 111
-0.37659216963457287 -0.005295662694377867 -1.9496762939092847 128 117 106
-0.37821220863990324 0.0006514300890297919 -1.9517419844258304 125 114 102
-0.3797150400944214 0.006097814152302816 -1.9541293048454416 123 111 99
-0.3812502785511874 0.011685716872015028 -1.956407123973779 119 106 92
-0.38181616140522373 0.013110205912299056 -1.961494366681943 117 104 88
-0.3826715137335252 0.015778621980803265 -1.9657383361183647 116 102 83
-0.3838332593121549 0.019765054223505607 -1.9690806144993813 115 99 78
-0.38512921217037954 0.024330142998250426 -1.9720190028572135 111 95 73
-0.38517728509358007 0.023526620484064953 -1.9786337386660204 111 94 71
-0.3849196726066928 0.021405020913116246 -1.986168851605091 111 96 74
-0.38620187995775246 0.025911776642010498 -1.9891423675687798 117 100 80
-0.38924942111853167 0.03802546181335886 -1.9868339259718055 119 102 81
-0.39059933546135306 0.042830050948765575 -1.9895642019574233 118 100 79
-0.3934962679757831 0.054305998771502106 -1.9876311947932241 112 96 70
-0.3945665638674006 0.05791084164550275 -1.9911636863244573 110 94 67
-0.39421300323735553 0.05537386464775751 -1.9989987941507878 109 93 65
-0.3959573244715937 0.06188756858642808 -2.000484844654024 110 95 65
-0.39746383158352133 0.0673776849805201 -2.002674636333477 111 96 67
-0.39687877064501265 0.06383697128765708 -2.011243783583689 110 94 65
-0.3982403980792552 0.06870272515947073 -2.013867511689301 109 92 64
-0.3999757903075477 0.07518585513949838 -2.015327438097663 110 92 62
-0.40132413493389774 0.07999870496858952 -2.0179619374649476 102 84 54
-0.4032554906196485 0.0873350844895523 -2.0187764761839766 95 77 47
-0.40502753333550834 0.09398594121050474 -2.0200612241805436 92 75 43
-0.40575902237751504 0.09613630845960464 -2.0245709057348753 93 77 44
-0.40681745501571137 0.09970230651760026 -2.028056809465105 96 77 45
-0.407785004575819 0.102875707945015 -2.0318211660512766 95 74 42
-0.40873441008573513 0.10597126213668129 -2.035637559754629 104 84 51
-0.41036065874369365 0.11200135101261444 -2.037308593286514 114 93 59
-0.41118805407639464 0.11457035891676215 -2.0414953772863833 117 94 60
-0.4123104592019895 0.11841937757725773 -2.0447406592298067 118 95 60
-0.4128122874392391 0.1195767817213007 -2.049959837459183 119 97 60
-0.4132431595253441 0.12042546746947302 -2.0554111410667084 121 99 61
-0.4150625660353805 0.12730298040127908 -2.0564032924823574 121 99 60
-0.4151604627430184 0.1267055359327962 -2.0629265678517728 119 96 60
-0.41548982464203077 0.1271119762123516 -2.068713906888982 109 88 55
-0.4156668814277406 0.12685502580215247 -2.0750044208244622 105 86 55
-0.41593939363904997 0.1270114470607886 -2.0809956290834943 90 73 43
-0.41632345100345747 0.12765169781261532 -2.0866318592020043 91 75 42
-0.41661550750112597 0.127890438981059 -2.0925772796928723 104 86 49
-0.41717781342261656 0.12930440075842486 -2.0976425513465213 116 94 56
-0.4179499466509715 0.1316317333859096 -2.1020184052303494 123 100 62
-0.41896136582766186 0.13500181881937734 -2.1056003635920586 127 103 65
-0.41945853769504776 0.13613136807322157 -2.110885569335147 127 101 64
-0.4198872747481332 0.13696176969385387 -2.116404008610449 128 102 64
-0.4201261263935254 0.1369629105941791 -2.1225643740827285 128 102 65
-0.42350201422344624 0.1506515079288393 -2.118203239306994 128 103 63
-0.4247440735192395 0.15503397368681882 -2.120971143356857 129 104 64
-0.42613769732442663 0.1600800459551348 -2.123215304256844 132 106 65
-0.42709756632691853 0.16323342258275797 -2.1269152316757505 133 107 68
-0.4284943647002746 0.16829712105254147 -2.1291235010739795 134 109 70
-0.4297407069038044 0.17270528325200651 -2.1318301674932076 138 111 70
-0.42989779311658377 0.17235116042114995 -2.1382547828090117 141 112 71
-0.43110464344818256 0.17658823632243204 -2.14108571909919 142 113 70
-0.4328031054366438 0.18297874792371072 -2.1422113344301152 143 114 70
-0.43477530307356926 0.19057116879645475 -2.1423683549264583 140 111 67
-0.4344884209665047 0.18827214962248617 -2.1503340645903424 137 108 64
-0.43499669270027647 0.189454172843881 -2.1555550037978772 137 109 67
-0.4367122627875897 0.19592802780707552 -2.1565650763383153 121 95 59
-0.43766309035653606 0.19905150472292477 -2.1602314675542234 108 85 53
-0.43848828777060883 0.20162461566028722 -2.1643340556759183 107 86 55
-0.43893079002203383 0.20251848644049542 -2.1697835295766326 111 90 58
-0.4407179737969056 0.2093153975934816 -2.1704825768357665 111 91 58
-0.4418396678813047 0.21319293248356508 -2.1735188031991752 114 92 59
-0.4461506639843155 0.23108582015542567 -2.1651905068293535 120 95 64
-0.445823973804569 0.22860488339472018 -2.1733447520290152 120 95 64
-0.44664838993280764 0.23118235457184388 -2.1773980067516594 115 92 60
-0.44747734919865906 0.23378020184361692 -2.181432322169999 113 90 57
-0.4480974659520711 0.23545934596399987 -2.1862171444475775 111 88 56
-0.448714954591813 0.2371266006153947 -2.191013606888723 111 88 57
-0.44909389639845954 0.23774285699187125 -2.1966781905955064 116 92 65
-0.4495302823072531 0.23861105948293504 -2.202141368087757 123 99 71
-0.4526788085039204 0.2514332979153474 -2.197702474002451 128 103 74
-0.4527003453829643 0.2504749616066353 -2.2046672273845322 124 99 71
-0.45348040428424735 0.25286040390706066 -2.208859158684211 124 97 69
-0.4546999099863812 0.2571854771273814 -2.211428444995395 129 101 70
-0.45550092153921007 0.2596646952275875 -2.215534349573509 147 118 83
-0.45639833466750657 0.262570021942807 -2.2192802067959754 163 134 93
-0.45783031102253263 0.2678380180719264 -2.2210307151031032 159 128 88
-0.4581531889322249 0.26820599003462997 -2.2269078602501327 165 135 91
-0.4591390866880467 0.271504545653775 -2.230309099989845 169 138 91
-0.4598001549214291 0.27336707155047957 -2.2349251222135966 180 148 102
-0.4602535363789786 0.274310262837164 -2.2403257192022097 153 127 85
-0.46055533070682053 0.27458137995744325 -2.246306100187766 134 113 72
-0.46145190949216924 0.2774855196963072 -2.2500383492807776 129 107 65
-0.46241600226176494 0.2806894987864679 -2.2535089600870517 128 106 68
-0.4632856466012917 0.2834757166238411 -2.2573342348228294 123 104 70
-0.46405661157738914 0.2858248985818732 -2.2615338092642063 126 110 82
-0.4644120325102944 0.28633071179564606 -2.267329557240042 147 136 118
-0.46443136888558467 0.2853435547157499 -2.274430216339218 171 167 158
-0.46360355411855514 0.280592320918594 -2.2848256011130794 183 183 179
-0.46495194121306294 0.2855022881826661 -2.286811752599021 193 193 193
-0.46419723615038033 0.2810686437529929 -2.296971302322172 197 197 198
-0.4760885585490296 0.331786237886522 -2.264888198072049 203 203 205
-0.3059358979762147 -0.21002337332715248 -1.6328320746683045 213 213 215
-0.3103206889105856 -0.19270354583841354 -1.6295650188555773 205 205 206
-0.3147148737810959 -0.1753355940470418 -1.6262156213294376 166 163 159
-0.3231933303010541 -0.1409547063626262 -1.613804742502208 125 115 104
-0.32688692796029417 -0.12648107842894957 -1.6118458845489165 113 100 84
-0.33058132147261465 -0.11199674226244438 -1.609834707933842 111 97 83
-0.333140867228615 -0.10223389883620287 -1.6103024401568935 112 97 83
-0.3362406998624821 -0.09021440863319169 -1.6095298019550697 114 97 83
-0.33935886897980666 -0.07811249864118264 -1.608675184095039 105 89 75
-0.34119304289866004 -0.07135980495858141 -1.6106745055497163 87 77 67
-0.34404749683239044 -0.060347663804283636 -1.6103452763167951 86 76 66
-0.3469964418955077 -0.04893578669324472 -1.6097644534207176 86 76 66
-0.34899735917270724 -0.04147585563736589 -1.6113071849720875 88 78 66
-0.35149121034877906 -0.0319542533963425 -1.6116990684561108 97 87 75
-0.35381725111824835 -0.02312908481524034 -1.6124456426863045 94 84 72
-0.3568209010851092 -0.011468497864365101 -1.6116009640506945 96 86 74
-0.35964064352440217 -0.0005707239366180561 -1.61114208913455 93 83 71
-0.3620690123411008 0.008696147696908851 -1.6115559360989176 106 95 81
-0.36555675493899364 0.022397962382210312 -1.6094679894596755 99 86 72
-0.3667753105889079 0.026613791969160194 -1.612645241744501 94 79 65
-0.3703853317218413 0.040838720998956524 -1.610191874649759 106 91 72
-0.3718439329118657 0.04606515189919108 -1.612763408336117 117 101 80
-0.37366990630337366 0.05283187204415468 -1.614451438884598 131 115 97
-0.3744621039264297 0.05527137975671381 -1.618576930414627 135 119 104
-0.3748895351040392 0.05618278120181591 -1.6235710580199452 136 122 107
-0.3745018908212201 0.05367729173912955 -1.6305220089814072 135 122 110
-0.3761408001529694 0.05966543280634812 -1.6326207451005494 134 122 111
-0.37667339584347315 0.061016299078266445 -1.6373719475576387 134 123 112
-0.3777814844627725 0.06478103282316394 -1.6407323895377597 133 124 114
-0.3783432983260624 0.06625441069942778 -1.6454132700784263 135 128 121
-0.3793871917555739 0.06975111163779996 -1.6489204402345201 159 155 149
-0.3378606986579556 -0.13265720546116433 -1.9422945304815005 166 163 158
-0.35206027852225885 -0.0754371515344433 -1.9239739827249933 161 154 148
-0.3563267748976091 -0.058321499114305286 -1.918996129828254 157 151 145
-0.35837907217116416 -0.05059331740150985 -1.920054062760892 151 144 138
-0.3609250047709116 -0.04076567458100322 -1.9197211688770215 146 140 132
-0.3615817457641636 -0.03895629111127119 -1.9245976845387118 142 134 126
-0.3638620088068083 -0.03024976744776131 -1.9249532174689272 140 131 124
-0.36627510857127143 -0.020974329419874316 -1.9249074594003501 141 130 123
-0.37000341061923997 -0.00610285532542032 -1.9211396789097919 137 127 118
-0.3701978561696136 -0.0062512129644506365 -1.9272610807102954 131 120 110
-0.371539310681709 -0.0015216068960283158 -1.930153055683804 130 118 107
-0.37327816472609476 0.004900894910374709 -1.9319066736692923 130 118 106
-0.3744610275758188 0.008959435355794465 -1.9352219999433675 127 115 102
-0.3751132736486646 0.01075967372644715 -1.9400429927710658 125 112 99
-0.3746448419261457 0.007785723820019963 -1.9480753804193371 121 107 92
-0.37521779051442794 0.009245957311088238 -1.953138584727122 118 104 89
-0.3753267088452017 0.008727662042593898 -1.9595432541367321 116 101 84
-0.3765900509145125 0.01313028078551659 -1.9626195529058497 116 100 80
-0.37875950524599655 0.018441635590047745 -1.9832803810226134 110 94 68
-0.37867532345624855 0.01709173418139387 -1.9902998138829826 108 93 68
-0.38134732797398885 0.02751668493941395 -1.9891938063221315 115 99 75
-0.38208409673962174 0.02967517251528695 -1.99378507193878 114 98 74
-0.3873960315802626 0.05139702327615647 -1.9847684104420793 112 95 71
-0.3882938558612036 0.05425122225360468 -1.9888325121707116 106 89 62
-0.38961635889310686 0.05892310461840955 -1.991621446698331 100 84 54
-0.3910099578488867 0.06390107729203232 -1.994184664475363 96 80 48
-0.39152729007379816 0.0651289124343084 -1.9993762505128911 99 84 52
-0.3926113548154827 0.0687836813170788 -2.0028576458954337 100 85 54
-0.39369209576874936 0.07242527567446255 -2.0063418298340405 109 92 62
-0.39546987446324955 0.07905574338372057 -2.0076957365588344 109 92 62
-0.3962843364805999 0.08155872347418114 -2.011971971102762 109 90 60
-0.3973615355980208 0.08518897007241855 -2.0154407256335554 110 90 60
-0.4004132248447929 0.09729276188595914 -2.012827199499155 107 87 58
-0.4012522289495345 0.09990568247285703 -2.016996257614983 94 76 45
-0.4017293173349403 0.10096488583442376 -2.0222839473015357 91 75 41
-0.4029613088317796 0.10526605081108664 -2.02523057223385 96 77 44
-0.40402661154413566 0.10885249756865589 -2.028686373182329 107 86 55
-0.4051048829982069 0.11249574007917096 -2.032094427901537 100 80 48
-0.40639851547730277 0.11706615334441439 -2.0348189291742376 105 86 53
-0.4079859052704291 0.12290196837130474 -2.036606125783875 116 96 61
-0.4085630382471909 0.12439311352711124 -2.0415678609129846 119 97 62
-0.4077669968719406 0.11997265066753049 -2.0508868566624123 119 97 60
-0.4081181347514592 0.12048758380858982 -2.0565881857694155 120 98 61
-0.40716780203511893 0.1153948340120583 -2.0664518284633333 121 99 60
-0.40784746755652435 0.11732119453908196 -2.0711305689681168 121 98 59
-0.40810003825781055 0.11740622833266456 -2.077182689798274 118 95 58
-0.4121921938311922 0.1340480653767625 -2.0708657853952372 113 91 57
-0.4126314732797962 0.13494163209746046 -2.0762930492393554 103 83 50
-0.41391323168841787 0.13947015937282015 -2.078992096937985 90 73 41
-0.41390976214511754 0.1384518319643787 -2.0858641248536696 95 79 44
-0.4142298966085672 0.13882880222892668 -2.091694541106204 106 88 51
-0.4148920230819312 0.14068203863848627 -2.096412643024342 118 97 59
-0.41495082039555875 0.13992751975499718 -2.10311618157362 127 102 65
-0.4158065155134208 0.1426163209173812 -2.107204757116875 131 105 67
-0.41700729113577184 0.146798064336239 -2.110148106704229 128 103 63
-0.417837672218901 0.14937873333711071 -2.1143112190031945 128 102 65
-0.4195817669551061 0.1559145997667878 -2.11542731121739 129 104 64
-0.4212460478536417 0.16210814966916964 -2.1167878599707 133 108 67
-0.42205756800304756 0.16461096464622627 -2.120987957721025 133 106 66
-0.4233138994081257 0.16904150414845687 -2.1236892095067406 129 103 63
-0.42423599180469274 0.1720249292341628 -2.1275070673659213 125 100 60
-0.42572282073964995 0.17745791573108016 -2.1294075875601304 133 106 65
-0.4262696868138409 0.17881584064505307 -2.134485324429808 142 113 70
-0.42646063278134594 0.1786286544541088 -2.1407803156332434 143 114 70
-0.4266825184864066 0.17857406901747508 -2.1469812125216836 143 115 69
-0.4284267356923214 0.1851291485365314 -2.1479691454094985 144 115 69
-0.4299037877990384 0.19052687760764064 -2.1498539694077534 143 113 68
-0.42934884681076846 0.18709576338245493 -2.158740273536918 141 112 68
-0.4316999458521676 0.19629530224515201 -2.1575851018178596 135 108 66
-0.43328581169562486 0.2021718857140543 -2.1590535053110678 126 102 64
-0.43447636670607975 0.20633130690936063 -2.1618810543271594 119 95 58
-0.43497714610421967 0.20748988906486487 -2.1671114339468933 119 95 58
-0.4372570902779457 0.21639493401763799 -2.1661011366283374 118 94 59
-0.4386177276252906 0.22130062906577186 -2.1682928664194687 116 94 60
-0.43981169130253295 0.22548216109815034 -2.1710587511356474 117 94 60
-0.4406546400135074 0.22813508894985424 -2.1750578481898653 121 96 62
-0.4411673273140252 0.22934816431966298 -2.180228363857152 121 96 63
-0.44197000928454866 0.23182573875856594 -2.184368924482699 119 95 62
-0.44275749275596 0.23423728298684676 -2.1885618122196036 118 94 63
-0.4435336799565144 0.23659975877323014 -2.1927935342348004 121 96 66
-0.44532628910640815 0.24340196218097043 -2.193362651006967 123 97 64
-0.44631990324996634 0.2467166307387051 -2.1967939828915055 140 114 78
-0.44711682827552424 0.24917249509273087 -2.2009317918899605 157 128 90
-0.44872095977576687 0.25515846423020805 -2.2021319673393256 167 137 95
-0.44996842850010615 0.25958722919854826 -2.2046125818616087 175 144 100
-0.45106983871555895 0.26337863754239643 -2.2076152244482845 175 143 97
-0.4515747841996903 0.2645600676101051 -2.2127987927818156 171 139 92
-0.45272326809391894 0.2685593134027734 -2.215616630183023 173 141 95
-0.4531706017058832 0.2694880271315364 -2.221015100824242 163 132 88
-0.4535529026646764 0.2701307921344699 -2.226660810397879 160 130 85
-0.4545264669224379 0.27336505256097354 -2.2301153654171806 164 135 88
-0.4555635911289354 0.2768790430875364 -2.233326524022677 172 140 93
-0.45662975855985366 0.2805216264116178 -2.23642118364969 177 147 104
-0.4567822197520236 0.28015419488631155 -2.2429378904571067 149 123 82
-0.45736261870998896 0.2816642606784995 -2.247856027822793 134 110 69
-0.45839356474540494 0.2851533986674798 -2.251074859200388 135 111 73
-0.4596307561177888 0.2895501864004367 -2.2535042022770333 125 103 64
-0.46021121048540514 0.2910610920841926 -2.258418051894712 123 101 68
-0.46052438867109063 0.2913958372458918 -2.2643544952679657 135 119 92
-0.46074987078372903 0.2913432702069715 -2.270636047462096 160 154 136
-0.4606363896298216 0.28979674090458696 -2.2782304646173954 178 177 169
-0.4602717231732518 0.287141028352629 -2.286812110218055 190 190 189
-0.29865433812073483 -0.21712760555810334 -1.6315957564626553 212 212 214
-0.30321798936175637 -0.1991830694076382 -1.62803811425634 197 197 198
-0.30762285070188927 -0.18188535914126724 -1.6247613047007206 143 140 136
-0.3172533081732154 -0.1429847717977183 -1.6100285826921419 115 106 95
-0.3212449661271131 -0.12737112721567106 -1.607488809740745 114 100 84
-0.3235047003400283 -0.11891073169158517 -1.6086996450790336 115 98 82
-0.3269437748884888 -0.10556889333554154 -1.607283151855368 109 94 79
-0.3296514157020377 -0.09524656911099888 -1.6074402965999757 103 87 73
-0.33261233384539196 -0.08387126003620582 -1.60700076036202 104 87 73
-0.33555669724968157 -0.0725590328018706 -1.6065600556078228 107 91 76
-0.3381476610812282 -0.0627047578088516 -1.6068729809049331 103 91 76
-0.3406281224761336 -0.053303615875332055 -1.6074023530399253 100 88 74
-0.34222204754762664 -0.047571344466535104 -1.6099024209377086 98 86 72
-0.3446594044300666 -0.03834128629934108 -1.6104765464257593 97 85 72
-0.3477632004215078 -0.026344091680132298 -1.6095054266294462 91 79 67
-0.3504805930684828 -0.015943416366498542 -1.609375171602589 90 80 67
-0.3533020160143722 -0.005106242301570085 -1.6089718679677683 91 80 68
-0.35645956270427376 0.007130896392555819 -1.6077588696295801 94 82 69
-0.3581207507197635 0.01316316471653367 -1.6099581145906519 101 87 74
-0.3616244498664123 0.026847829180728422 -1.6078707599651443 102 86 73
-0.3640814983881817 0.03619252185793098 -1.6081693229632266 103 87 72
-0.36740139234103386 0.04912624237816848 -1.606422561972906 106 90 71
-0.3689637815359914 0.0547628633475673 -1.6087489358425853 108 91 69
-0.37101607125788205 0.06243814653091867 -1.6099076768445664 123 104 83
-0.37317197158889326 0.07054767151578445 -1.6107979396111762 130 112 96
-0.3715946618338746 0.06313273012236942 -1.6205101585480348 136 121 107
-0.37218014507072705 0.06471084818507716 -1.6251175222269592 133 120 109
-0.3728120705587913 0.06648198260889615 -1.62961592597643 133 120 109
-0.3717608007418177 0.061245392689767864 -1.6381492150241188 128 115 101
-0.37476451396603216 0.07289143115478108 -1.6369597522165227 128 114 101
-0.3765957944585723 0.07965922474802845 -1.6385598272521713 132 119 106
-0.37751491306284124 0.08262887733010643 -1.6423499641186992 131 119 106
-0.3804008011675949 0.09379727236280067 -1.641352703201685 135 127 117
-0.3774660571186585 0.08070145515492155 -1.6545245762643337 177 171 168
-0.33074737494496437 -0.13682288099726536 -1.9275028316483753 172 171 166
-0.33468518534546743 -0.12124624329830569 -1.9237830400476252 164 161 155
-0.3386654438504691 -0.10548258397517762 -1.919889488739433 164 159 152
-0.3500209711211356 -0.06060183523346363 -1.9094273981974816 150 143 133
-0.35367363120706147 -0.04618287039315094 -1.9061847930819709 147 140 128
-0.3570969632478874 -0.03272158144195614 -1.9035122329711616 143 135 124
-0.35996659949723997 -0.021585113964376013 -1.9023040088484269 141 132 122
-0.36122274751802874 -0.017240996550716647 -1.9054869924888203 139 131 120
-0.36227117227174466 -0.013770947991133542 -1.9092325798788665 137 129 118
-0.36356660578226274 -0.00925862614738393 -1.9122889012075797 134 125 114
-0.36523992614341394 -0.003151030878723704 -1.914285505466808 134 123 113
-0.3698162874667935 0.015206680811224227 -1.9081778028086562 132 121 110
-0.3699436386607604 0.01479912357783375 -1.9144310904110042 128 116 104
-0.37149785153108084 0.02041357969430979 -1.9166940053376256 128 114 100
-0.37292884817133615 0.02550998201190846 -1.9192876918942017 126 111 97
-0.3729815471499377 0.024785834552807806 -1.9257604075755157 121 107 93
-0.37371986392801265 0.026957091477162742 -1.9303032592881728 119 105 90
-0.3741005187469929 0.02761645884804942 -1.9358630761964397 117 101 85
-0.3716586555565442 0.016339498277113784 -1.9494842364911165 113 97 80
-0.3711890312905197 0.013396235277393309 -1.9575202914623309 112 95 76
-0.3720815257028623 0.016213295067945666 -1.9616662228334445 113 96 74
-0.3746324821090766 0.02413122643922294 -1.9744525930879748 109 93 67
-0.37675083410088406 0.032143976995232526 -1.9750163662423827 108 92 66
-0.3752523160172918 0.024830482613481863 -1.9861244419008433 107 91 65
-0.3783611132338641 0.03704540814014878 -1.9837641838451565 108 92 66
-0.3808932979698525 0.04682149161054183 -1.983053355311744 108 92 65
-0.38265330573955697 0.05332653131345921 -1.984586638048563 104 86 59
-0.3849866486046398 0.062267907607617023 -1.9844004403882716 102 84 54
-0.3861104171141238 0.06607842316710844 -1.987778087859061 100 83 52
-0.3873220021791593 0.07026305056233362 -1.990885769623882 96 79 46
-0.38846329883016395 0.07415045279943844 -1.9941940467549824 93 77 45
-0.3899342827051072 0.07944023743894457 -1.9965037320298717 98 83 52
-0.3914323070950719 0.08484714782034652 -1.998716797882668 101 85 54
-0.3933416473519067 0.09200560866224339 -1.9996704141226918 106 90 59
-0.39432487078824785 0.09522745722420223 -2.003409653261437 110 90 61
-0.3956931418383124 0.10008877448305031 -2.005971420756082 110 90 60
-0.3970460833710088 0.10488672004606248 -2.008566785587953 108 87 58
-0.39798525843523747 0.10792437179764724 -2.012417268050499 106 86 56
-0.3988146005994929 0.11049474659514791 -2.016601007829567 95 77 46
-0.399809342563615 0.11377033094635336 -2.020272209659043 98 78 47
-0.40075659507563305 0.11684426593252617 -2.0240847673891444 110 91 57
-0.4020753897144118 0.12150338750183987 -2.0267386189558754 103 83 52
-0.40289836022882775 0.1240490074219407 -2.030925235979453 97 78 46
-0.4034834413813015 0.12557969938267177 -2.0358535460411584 106 86 52
-0.4007367893855558 0.11288626825991277 -2.05123712894329 112 92 57
-0.4034069972533236 0.12331604209470026 -2.049642558289811 118 96 59
-0.4036224042847544 0.12326434885346227 -2.055759896342532 120 97 60
-0.4041537252035667 0.12456124355171139 -2.0608868403698954 121 98 60
-0.4043664172200888 0.12449537210055606 -2.067030791664736 120 98 58
-0.40489334570616176 0.12577184938634645 -2.0721831632826397 120 97 58
-0.40890753299435567 0.1419668721780193 -2.0661793244672446 120 96 57
-0.4104198195136278 0.14746448132429368 -2.0681391507355458 121 98 60
-0.4113027952470041 0.15027028051809388 -2.072109492092134 107 87 53
-0.4106930146850901 0.14668349178631157 -2.0809012000108322 91 75 41
-0.41033737166694595 0.14418144358068508 -2.0888971184286342 88 74 37
-0.4108652055986597 0.14546250697416452 -2.0940416096139 108 90 52
-0.41087917957913644 0.14453989218249808 -2.1008676180129138 125 102 65
-0.4113523361441397 0.14558447517687678 -2.106205002236904 133 107 69
-0.4133461261831082 0.15315241878242414 -2.1065513121593904 132 106 65
-0.41395740756079746 0.1547906348686644 -2.1114277018729837 126 100 62
-0.41535007013079156 0.1597833632833986 -2.113722157396495 131 105 66
-0.41619617514371765 0.1624306862225079 -2.1178156478864723 135 109 70
-0.4173515604921707 0.1664072507194463 -2.12087679729282 134 107 67
-0.4188366516881462 0.17180229423776439 -2.1228272753841826 127 101 61
-0.4199878821079661 0.17576422121096957 -2.1258797750459277 124 98 58
-0.42080414004644245 0.17828669191393265 -2.1300489298433085 131 103 61
-0.4194736441891188 0.1715723313637353 -2.1414564164103664 140 111 67
-0.4191716093490959 0.1692784524473463 -2.1494288756559965 145 115 70
-0.4213021495483581 0.17745598450096745 -2.149165870414515 145 116 69
-0.4221934214271763 0.1802997358626266 -2.1530924585266966 146 117 70
-0.42077621345351895 0.1731964547564162 -2.1649029918143063 147 117 71
-0.4230383574775529 0.18194708942498372 -2.164148334146094 146 116 70
-0.42541933415751365 0.19121506071218186 -2.162950788978343 144 115 70
-0.4273595964927131 0.1985871171966923 -2.1632368089416825 144 117 71
-0.42968202119313725 0.2076122971526413 -2.162172762468255 145 118 73
-0.43033806251462753 0.20944865692760595 -2.166859380315563 136 108 65
-0.43148847711612026 0.2134198806842108 -2.1698250606599703 133 106 65
-0.43270785561516223 0.21769044773297042 -2.1725399398902177 125 100 61
-0.43428923890655347 0.22352719807308064 -2.17397417558704 127 102 63
-0.4335088269546857 0.21915542318705583 -2.1836965746102206 138 110 70
-0.43450411269344713 0.2224589922401392 -2.1871865860432083 150 121 78
-0.4352430762267377 0.22465441867100078 -2.1915776819073503 151 123 80
-0.43629048299702056 0.22818499168677242 -2.1948727701336823 146 118 77
-0.4378783581507961 0.23405689762958137 -2.196234599783457 147 118 79
-0.4386378103976294 0.23634319929707126 -2.2005375998850556 148 118 77
-0.440602601811463 0.24385275979252063 -2.200517371106752 171 140 93
-0.44252264363475474 0.2511724398328673 -2.200629399150129 182 150 99
-0.44376565870904794 0.25556010212303504 -2.203156916977295 186 153 101
-0.44578267163820645 0.26330731227044557 -2.2028699957885536 187 154 103
-0.44714167096847257 0.2682031304777853 -2.2049427234825485 180 149 99
-0.4475434673420545 0.2689453550548795 -2.210487965709087 173 142 95
-0.44879609295070977 0.2733818976029192 -2.2129304222910893 168 138 93
-0.4486244862020854 0.27163213526929075 -2.2205825363316656 163 133 91
-0.44898086411470106 0.2721743501561801 -2.226313004959809 161 131 87
-0.4502043826550024 0.2764859050259175 -2.228851846512523 165 134 89
-0.4513014799412605 0.2802492656057135 -2.2318466171588 168 134 88
-0.45318845128131297 0.28745112899185177 -2.2318989724115177 164 132 87
-0.4531736846418021 0.2863782047408099 -2.239008253850246 160 130 87
-0.4534848649041223 0.2867223271979734 -2.2449164400697086 141 113 73
-0.45447630126476335 0.2900287395982236 -2.2482837079285125 134 108 70
-0.455719771767363 0.2944345633826425 -2.2506963765827526 132 108 68
-0.4563741073479084 0.29627356047453657 -2.255318971058317 130 106 67
-0.45700011541340124 0.29798882140755656 -2.260050027712742 130 110 77
-0.4571166387641093 0.2974806961911637 -2.266717344746569 146 136 113
-0.456814391985518 0.2951425505209271 -2.2749937352256886 170 166 155
-0.45651904451363445 0.2928310666431495 -2.283268011117159 184 184 182
-0.45609625329347603 0.28995937718026343 -2.2920548994605063 193 193 195
-0.46002103735287814 0.3060840789478395 -2.2841539667844715 198 199 201
-0.2912411080955279 -0.2246732318151724 -1.6305678336402756 212 212 213
-0.2955809981463877 -0.20776378576371246 -1.6275893152184515 195 195 195
-0.3005344015388278 -0.18833012022138412 -1.6232323498086103 134 131 124
-0.3110371467568231 -0.14612359732495428 -1.6068305070592377 118 108 95
-0.3145273642557662 -0.13266745064999164 -1.6054564592062395 115 101 85
-0.3174007638907268 -0.12173645108362724 -1.605377634124879 118 102 83
-0.32004304860209154 -0.11174926403418861 -1.6057674242840507 121 101 81
-0.32308587387000887 -0.10011271924004167 -1.6052473546440695 118 101 82
-0.32550792371448023 -0.09102074782711217 -1.6060538924017798 114 97 78
-0.3289135338901533 -0.07788335373775779 -1.6046599050100938 108 93 74
-0.33146657052801953 -0.06824383569106257 -1.6051104686514734 109 94 75
-0.3340436292482202 -0.05850121980466638 -1.6054765613615152 107 92 72
-0.33719858397746105 -0.04637758837547473 -1.6045203412055413 115 100 80
-0.33907897527897424 -0.039491351345350034 -1.6063803926383458 110 95 75
-0.3417443403372391 -0.029372250574650982 -1.6064539104622761 112 97 80
-0.3447376520936857 -0.017898635550003483 -1.6057532363583027 105 90 75
-0.3475463325751823 -0.007179747920845636 -1.6054322343361207 94 81 65
-0.34989171643405825 0.001636086411926807 -1.6061298503958912 90 79 62
-0.35300416887318026 0.013615932406198183 -1.6050466985559713 93 81 66
-0.3560244357984126 0.025221678991383223 -1.60413356364211 102 88 73
-0.3585542634959532 0.034811372209326064 -1.60430951504525 105 89 74
-0.36118867062223636 0.04483669278404451 -1.6042122207574256 110 93 76
-0.36363246553546635 0.05408051321791485 -1.604523528008421 109 92 73
-0.3666709807916305 0.06578221687109403 -1.6034200090401978 117 98 75
-0.3702678582154597 0.07979393526772044 -1.6009710288713155 128 107 81
-0.3716268365744143 0.08457433555053007 -1.6037203260713944 131 108 85
-0.37034732870519926 0.07846108118523742 -1.6126693628571793 127 109 91
-0.372652857080635 0.08715133770938238 -1.6131817385797802 128 112 96
-0.3705874341574411 0.07778558034476762 -1.6240322405902965 132 115 99
-0.3731862852930102 0.08769070743263202 -1.6238280970083112 127 111 94
-0.3732358870589403 0.08706123156568496 -1.6296811656310142 124 108 93
-0.37426939017084654 0.09049910445561876 -1.633186090290932 125 110 96
-0.3755687028397353 0.09503740689352175 -1.636045196684582 125 108 95
-0.3771952406745753 0.10093126384641837 -1.6381030465111168 126 111 97
-0.37884142158443557 0.10690874850601129 -1.6400966632001601 122 112 101
-0.37642455940833686 0.09606576197674577 -1.6519605979129337 153 148 142
-0.37928729957845797 0.10708157467111867 -1.650985022885557 207 208 205
-0.32371971512002884 -0.14064359157200634 -1.9125027139953135 183 182 180
-0.3286477812009074 -0.12105235310842655 -1.906329222230623 167 164 161
-0.33219882893360064 -0.10719029006752945 -1.9037048286950524 158 154 151
-0.34580092658191464 -0.05418195310901863 -1.8942930139025673 149 143 131
-0.36004078908860204 -0.00023203000140648022 -1.8954867818712646 133 122 112
-0.3615789467974887 0.005281439940137633 -1.8978631217251363 129 119 108
-0.36242408547047367 0.007897299768559574 -1.9021276634415907 125 115 102
-0.3647729682691405 0.01680750035546319 -1.9022451897907393 128 116 102
-0.36798931625539993 0.029354034893467218 -1.8999323858097779 126 114 100
-0.3666142324530461 0.022677146442324214 -1.910315458623605 124 111 96
-0.3678211777904413 0.026812278799284495 -1.9135476530724742 123 109 93
-0.3684380823980913 0.028475868834146878 -1.9184196669802538 121 106 90
-0.3639740247105514 0.008838250480810439 -1.9375430793749782 115 102 85
-0.3640209202681592 0.00810394456828778 -1.9440726686488652 110 95 79
-0.3694183252566132 0.02795608775841496 -1.94879527600364 106 88 66
-0.3692290049094391 0.026229572475572782 -1.9560010706130548 107 89 65
-0.37274887183516325 0.039149840178907436 -1.9592677826132712 107 90 64
-0.37536242704270756 0.049202151497595104 -1.9584103175599226 108 91 65
-0.37710464373205277 0.055596035679038924 -1.9600359410656432 108 91 65
-0.3766754308071505 0.0528597767095228 -1.9679434260398083 108 91 65
-0.37705568299019165 0.05352601568226756 -1.973516566159096 108 91 64
-0.3799658219853147 0.06483888701321783 -1.9717043296331733 108 90 62
-0.3806435246390581 0.06675900590147266 -1.976394065976184 104 85 55
-0.3819771823501069 0.07144154657195134 -1.979155039288442 98 81 52
-0.38325631930745696 0.07589608997551156 -1.9820648342421432 93 76 46
-0.3846345545490748 0.0807698090757647 -1.9846700515399582 93 76 47
-0.3858870803897865 0.08511540445568133 -1.9876357733486645 93 77 47
-0.387568703256014 0.09127202635240417 -1.989311365902774 94 78 48
-0.38882426030031775 0.09563398115191535 -1.992242457042439 100 83 52
-0.39005950236241727 0.09991171001531818 -1.9952237903932102 109 93 60
-0.38844082236640953 0.09214354982471495 -2.006791213564088 111 92 61
-0.3888989859264803 0.09313873924811478 -2.0121292355812685 110 91 60
-0.3936975332633874 0.11246765429672512 -2.004310722667304 109 90 59
-0.39335230483328176 0.11007270263522251 -2.012059819767093 109 90 59
-0.39438246100554974 0.11348847648340155 -2.015631859010331 107 86 56
-0.39557330391824536 0.11758458605495392 -2.0187053987180383 96 76 46
-0.39690246742716945 0.12226711834104131 -2.021344218583417 99 80 47
-0.3984763160646638 0.12798673333928945 -2.0232160501024037 98 79 45
-0.39874998105884385 0.1282054660841575 -2.0290928370760457 101 81 48
-0.3994667016699637 0.13029889317876886 -2.0336035032222393 101 81 48
-0.39981912900098454 0.13084930373942472 -2.039248797056065 106 86 53
-0.4002352443457664 0.13166850312209277 -2.0447026755965756 113 93 57
-0.39906971486989246 0.1257829881926501 -2.055121601686032 117 93 57
-0.4011545269488296 0.13367335510186917 -2.055355527183235 116 92 54
-0.4024415371527172 0.13818387071261684 -2.0580789143610625 112 90 49
-0.4011389566923653 0.13170869108550232 -2.0689902836140974 121 99 58
-0.4037968742824687 0.14203734602604867 -2.0673618117602346 121 99 58
-0.40722993527103224 0.1556627967968387 -2.063222017145374 120 98 57
-0.4077921592396363 0.15615388368208716 -2.0749969234446892 105 86 51
-0.4077146061632606 0.15487308443377434 -2.0820527459095226 89 72 38
-0.4075275517651211 0.15312436231221271 -2.0894790609769163 93 76 41
-0.40728837806432405 0.15115127955925367 -2.0970934797633567 110 89 53
-0.40745166708645364 0.1508876988896879 -2.1034199460881733 126 100 63
-0.40904007903100403 0.15668803098193118 -2.1051102343071944 134 107 68
-0.41013946722078964 0.16040884960326962 -2.108382189844418 135 107 68
-0.41068000437965607 0.16175056265361987 -2.113480692551744 133 105 66
-0.41254535559242916 0.16873632499572921 -2.1142195960577532 137 109 70
-0.41345962346074383 0.17167185217279501 -2.118076626021323 139 110 71
-0.41432901927159016 0.17441664728725115 -2.1220782087753305 138 109 69
-0.4150043009194108 0.17633396416681157 -2.126722159095295 138 110 68
-0.4155320085745336 0.17762149600510135 -2.1318594757271363 140 111 69
-0.4154707465419172 0.1763946001920227 -2.138972603564115 143 113 69
-0.41442061747905823 0.17094313440789488 -2.1494238381589157 146 115 69
-0.4159433522475244 0.17647563619874473 -2.151244590526918 147 116 69
-0.4150080841378127 0.17150807054147132 -2.161356754727163 148 118 71
-0.4185390736062857 0.18465381187162277 -2.163312550323844 149 118 72
-0.4226827336161869 0.20140381755099057 -2.15613871146433 146 115 69
-0.42374875655810595 0.20499539336571893 -2.1594281443188335 149 118 73
-0.4256233429906783 0.2120490795308696 -2.159932157103934 154 123 78
-0.42574739938339273 0.21161055186948607 -2.1664435822655816 150 119 75
-0.4268568908952054 0.21539136979841134 -2.1695609578156523 144 115 73
-0.42781819269463783 0.21853840149312986 -2.173183586620348 139 111 71
-0.4285410837694046 0.22066420954057597 -2.177630347618657 153 124 82
-0.4289901241534476 0.22161570413741782 -2.183032936470138 151 120 76
-0.4296351508553106 0.22340711040916095 -2.187755100776381 160 129 85
-0.430541397150773 0.22631928882756647 -2.191561067672968 151 120 75
-0.4318260577611741 0.2308565824837282 -2.1940289504985637 146 115 71
-0.43333920170846085 0.23637690033984804 -2.195676076343346 141 109 67
-0.4347975352227094 0.24166427100639454 -2.1974995656185055 155 122 77
-0.4364119614329878 0.24762483950711567 -2.1987507020651837 170 135 85
-0.4379177451345061 0.25312118676650885 -2.20036919826015 183 152 98
-0.43947858315598165 0.2588568430182705 -2.2017724412575475 183 152 98
-0.4410508809055569 0.26464451623575336 -2.2031151075081303 183 152 99
-0.442253357403858 0.2688432131323716 -2.2057709417085762 178 147 95
-0.4436494557762417 0.2738771636768911 -2.207715384221275 178 146 95
-0.4431138520647977 0.270592957777967 -2.2166505610906313 171 141 94
-0.4436198126567894 0.2717927280407064 -2.2218244758208012 160 130 88
-0.4445229676391513 0.274703948586984 -2.225553232910608 158 129 87
