ply
format ascii 1.0
element vertex 681
property float x
property float y
property float z
property uchar diffuse_red
property uchar diffuse_green
property uchar diffuse_blue
end_header
-0.05374432105375315 0.2183244930735928 -1.3929336434703354 156 132 90
-0.05354361835823605 0.217667740665679 -1.3984344397962933 180 154 113
-0.05374412973666115 0.21867928366534173 -1.4031054184311385 179 152 109
-0.053814479118886344 0.21914987228211946 -1.408053459832999 203 175 128
-0.054526136426461994 0.2222864027534755 -1.4116553086526065 227 200 150
-0.05552734100145981 0.22662628022313974 -1.414640428214274 167 141 93
-0.056770262537522945 0.231970479244615 -1.4171036997984876 138 107 60
-0.057956461111609126 0.23707851074883202 -1.4196755149819602 170 139 91
-0.05858012172286026 0.2398484273105742 -1.4234389615331957 118 89 40
-0.05949018157645053 0.24380834387589823 -1.426584834540503 125 97 51
-0.06059256036470649 0.24856711385230879 -1.4293091592756846 133 106 61
-0.0611794813336841 0.2511838782501793 -1.433137597585918 153 127 82
-0.06184202657511051 0.25411474921679744 -1.4367996683688482 99 75 36
-0.063083343953623 0.2594498938977645 -1.4391980627004637 117 93 58
-0.06302914080170613 0.259402969466736 -1.4444148983136667 117 93 59
-0.06297489984931072 0.25935615558126635 -1.4496394702433777 92 68 35
-0.06308059388173398 0.2599738978682782 -1.4545197427698628 92 71 32
-0.06425912433953192 0.2650475427218274 -1.4570358571161053 100 77 39
-0.06522319306967647 0.26923013682698693 -1.460015741531004 82 59 22
-0.06584551810243665 0.27199329513669146 -1.4637474888230837 85 60 21
-0.0657468786512676 0.2717626225461733 -1.4690854990149622 93 68 27
-0.0665313501632668 0.27519902869484203 -1.472453956596598 76 49 18
-0.06615290200209313 0.2738069792672675 -1.4784307770457394 85 59 26
-0.06572665704531576 0.27221694648800415 -1.4845282323101456 91 65 24
-0.0656331313329163 0.27200860633177215 -1.4898862414907363 198 169 113
-0.06465679552976711 0.26813599459615334 -1.4972576924403376 206 176 114
-0.06423122715064158 0.2665502601787964 -1.5033962281803104 188 157 101
-0.06289261909173437 0.261175459187723 -1.5116365641606135 225 198 150
-0.06731924471107768 0.27972848487425517 -1.506674394768568 134 110 71
-0.06798083373404427 0.2826547117726543 -1.5103193354535227 74 49 17
-0.06849146473172786 0.2849543941130473 -1.5143095845649306 70 47 17
-0.06894875223701186 0.2870326955013861 -1.5184223928759313 69 45 19
-0.06708615279479688 0.2794855786868973 -1.5279324725913934 73 49 20
-0.06983480344589024 0.2910709289416832 -1.5267137547966116 70 46 16
-0.06748107073412646 0.2814876125323584 -1.5374109824985218 76 52 19
-0.0665984785669023 0.2780085125093889 -1.5446948017907796 75 49 13
-0.06505937287594919 0.2718069545453333 -1.5535482160982028 135 104 56
-0.06912878024055823 0.28886887669511274 -1.549160452357401 203 172 110
-0.0697587502549955 0.29166401215408067 -1.5528817772969594 196 163 106
-0.07124310436635439 0.2980022824798521 -1.5545644105614609 123 96 58
-0.07217829728006557 0.3020626786320796 -1.5575431215086737 69 44 23
-0.07344405186093668 0.3074934921862603 -1.5597209507879164 69 45 20
-0.07114910856389113 0.2981601738479006 -1.5704551915172948 85 61 29
-0.07272004817722766 0.30485635833838254 -1.5718981424938625 133 105 67
-0.07165846961155992 0.3006382216390122 -1.579701179184023 117 90 61
-0.07231906444512756 0.3035600961311864 -1.5833419274682359 62 39 20
-0.07295081845731348 0.3063622968962337 -1.5870494718898303 95 77 52
-0.07369207948471637 0.30961828201405045 -1.5904859400314049 85 67 44
-0.07406666077320974 0.31135436105320574 -1.5948178581479764 91 73 50
-0.07524402481420508 0.31641745161030144 -1.5971732189635888 104 85 59
-0.07614005423002801 0.3203142673986586 -1.6002119369122263 110 89 59
-0.07760091884896202 0.326551348688202 -1.6018425517182255 155 130 93
-0.0792626577078398 0.33362015846370424 -1.602956722995492 149 125 83
-0.08061514421657734 0.33940698727731167 -1.604822833763021 155 130 82
-0.08235484339775222 0.34679746568443837 -1.6057042630372598 168 141 89
-0.08349709743224988 0.35171222937679125 -1.6080654399525303 166 140 91
-0.08501448444682971 0.35818050114397704 -1.6094694156000198 173 148 105
-0.08602728555774258 0.3625581507055091 -1.6121316995397335 159 134 92
-0.08807755133501684 0.37123235989859144 -1.6121522062099602 168 141 99
-0.08907234216111803 0.3755344567337305 -1.6148327513963383 167 142 102
-0.09046849507900555 0.3814983291432339 -1.6164790704808327 191 168 126
-0.09099050091071133 0.3838419269295563 -1.6203490398240108 167 142 99
-0.09220257216903963 0.38904273598341843 -1.6224438782412198 130 106 68
-0.09076300327389897 0.3832645671655221 -1.6313632648561596 78 53 24
-0.09105955329775861 0.3846749959312974 -1.635822616606325 88 65 33
-0.09087496322944437 0.38409373084372345 -1.6415329150706541 90 67 34
-0.09084096170330672 0.38413617318067755 -1.6468614611004155 83 58 27
-0.08906798368316135 0.3769810676096482 -1.6567398152980817 84 60 30
-0.08687534601201279 0.36809035510097265 -1.6677546585408958 88 64 35
-0.08070133221871498 0.34272413886577646 -1.6892788957116722 99 79 47
-0.08013479912917584 0.3405668756826982 -1.6961271571993075 102 83 49
-0.08001291548116606 0.34025013862846026 -1.7018160974060477 103 86 51
-0.07980512925985275 0.3395782989549015 -1.7077425021318042 90 72 39
-0.07997401492936566 0.3404652681354096 -1.7126771093992454 87 67 34
-0.07984385222784307 0.3401152182595141 -1.7184149942706375 81 61 29
-0.0800445496519917 0.3411341983769665 -1.7232761950131992 76 55 26
-0.08029150159382947 0.3423446532944958 -1.7280172168095649 102 82 49
-0.07980618187957886 0.3405264215744562 -1.7347357424075354 87 67 40
-0.08059122702738285 0.3439628166060019 -1.7380344666985625 67 47 19
-0.07973902507426261 0.34062803985646767 -1.7457690879436587 93 72 40
-0.0788354861583006 0.3370817409021355 -1.7536654645596303 108 85 48
-0.07856461884166274 0.33615233465156275 -1.7598576960176724 118 95 51
-0.07739292103345144 0.3314987008310788 -1.7685289921721046 113 88 49
-0.08006126044262611 0.3427222542014969 -1.7666796491611165 59 37 11
-0.08041656658869752 0.3443821856204239 -1.7711658714413554 58 40 16
-0.08031601979933012 0.3441577697581272 -1.7769136582407723 78 57 29
-0.08123488504981671 0.34814741740524324 -1.7798444400749969 92 68 35
-0.08081636389279137 0.3466091030513833 -1.7864866255052716 92 70 33
-0.08074611234001502 0.3465106708478056 -1.7921721110707456 88 65 30
-0.08089157562748514 0.3473040126136375 -1.7972628756482039 104 81 47
-0.08093059004064097 0.34765765907208146 -1.802657663639131 93 74 43
-0.08101283517755196 0.34819018182330774 -1.8079378054116668 69 51 28
-0.08068466355349756 0.347027211366417 -1.8143833952247144 75 57 31
-0.08071189427278123 0.34733301618659934 -1.8198356318954008 72 52 23
-0.08125566267075797 0.3497729381965625 -1.823827438136361 88 64 31
-0.08170454970877407 0.35182086942368423 -1.8280880567763957 89 65 33
-0.0808061800892794 0.34830398741665985 -1.836200358659414 95 72 40
-0.08153114140696727 0.3514925649781665 -1.839681081375954 93 69 38
-0.08181889505752263 0.3528753652808403 -1.8444145768133566 91 68 36
-0.08250130599283001 0.35588802797823776 -1.8480123284100525 88 65 33
-0.08303609979972974 0.35829100011816567 -1.8520332097398542 98 75 43
-0.08343187297155547 0.36011991135066257 -1.8564561347788033 93 70 38
-0.08399720712740977 0.36264891390524323 -1.8603863914214964 93 70 38
-0.08290399176322807 0.3583307893236847 -1.869157668254802 92 69 37
-0.08290090077999908 0.358513683027318 -1.8747632974570183 95 72 39
-0.08229845560285075 0.35622288696987514 -1.8821376097289888 98 75 41
-0.08321964597164022 0.36022142113251876 -1.8850412252733677 97 74 40
-0.08412180989539184 0.36414114237335415 -1.8879928105333454 95 72 38
-0.08389606884612313 0.36340594726535064 -1.8942796637069161 94 71 37
-0.08378902638036821 0.36316098039825734 -1.9002256358589884 92 69 35
-0.08332137318993252 0.3614284152077462 -1.9072567992488902 88 67 34
-0.0838471309527463 0.3637951070929087 -1.9113333460964055 84 63 30
-0.08429106061717438 0.3658241676547447 -1.9156540664308968 91 68 37
-0.08480052418781397 0.3681235782001545 -1.919777810546723 90 67 36
-0.08530703363141313 0.37041076860640443 -1.923909480094242 93 70 39
-0.08558350438371558 0.3717491026632555 -1.9287363748321824 89 67 36
-0.08609285256940348 0.37404800717128167 -1.9328596066352821 85 63 32
-0.08785745288984916 0.38152353780456166 -1.933160645788112 83 60 29
-0.08860533833474227 0.3848056328555704 -1.9365423603241607 82 59 28
-0.08792000174813637 0.38217783295109153 -1.9443074653289476 81 57 29
-0.0884238317663869 0.3844537529215048 -1.9484409846700292 85 62 31
-0.0881317795062863 0.3834484218381857 -1.9550249967907227 93 70 39
-0.08811174923379239 0.38356495223472187 -1.9607821459420016 96 73 41
-0.08762045736419279 0.38173918787150346 -1.9680078902809743 91 68 37
-0.0875695370987577 0.38172914413908204 -1.9738824216066986 82 59 29
-0.08860030069127357 0.38617756084885196 -1.9763953396439686 85 61 33
-0.08903923465028299 0.3881865856104666 -1.9807474720265823 89 65 38
-0.08865751658049695 0.3868138390384773 -1.987672131380703 85 61 32
-0.08830872688080356 0.38557730680549834 -1.9945084997178546 82 59 28
-0.08786183428897679 0.38393708216589706 -2.0016687963014643 83 60 28
-0.0882375293495017 0.3856864059115581 -2.0062447964158077 84 60 31
-0.09087303780563595 0.39674524790669385 -2.0036568112633604 83 59 31
-0.09134066075457332 0.3988726273990382 -2.007922791239538 82 59 28
-0.0904997298675591 0.39561015332495675 -2.016361693416511 82 59 28
-0.09134017178729445 0.3992734337159172 -2.019446843579799 80 57 26
-0.09241563409063577 0.40390434993011065 -2.0217711155757154 81 57 28
-0.0903290940384091 0.39551383737490137 -2.0342551485209754 84 62 32
-0.09177336833620413 0.40166361230186565 -2.0353959882791903 101 81 46
-0.09423790408375995 0.41201349912842283 -2.033217957074667 117 96 51
-0.09398635740064006 0.41117997124950795 -2.0398147687086063 179 149 101
-0.09615382655031524 0.4203052122138162 -2.0385541316473064 126 101 61
-0.09905778755590385 0.4324610063376799 -2.034858698201362 84 67 33
-0.10067185639700996 0.4393059757272448 -2.035338534266216 79 57 26
-0.0866921565581633 0.38197082646633324 -2.0869668753293933 80 58 28
-0.09344232609736533 0.40995636691788045 -2.070646991457423 80 59 28
-0.09552409949524072 0.4187271049572945 -2.069615945568213 81 60 29
-0.09661620208538325 0.4234245567805186 -2.0718298083245497 80 59 28
-0.09642321389274393 0.42283421380044184 -2.0782966892800467 80 59 28
-0.09728764824732718 0.42659461076246435 -2.081256506153769 79 58 30
-0.09601368975335271 0.4215579341088541 -2.091345534094355 77 57 33
-0.09518986227464059 0.41837397053879605 -2.0999605214392054 60 45 21
-0.09540030613923518 0.41944490030209214 -2.105128307887169 93 73 44
-0.09641530889898528 0.42382495160342415 -2.107592872429974 146 121 78
-0.09807555850264683 0.4308581693190509 -2.1078691627842883 168 142 97
-0.09772736637360735 0.4296316786627014 -2.1149204542315 110 89 51
-0.09839562870913933 0.43258514796436437 -2.118537118342415 82 62 29
-0.09714693643714957 0.4276570360816117 -2.1286741434100196 79 57 26
-0.10092818248652516 0.4434086730344051 -2.1216764771426906 80 57 27
-0.10102962624080135 0.4440312629540303 -2.127209737354284 81 58 26
-0.10208553111358279 0.448577347070488 -2.1294740574788054 81 58 27
-0.10121821387119034 0.4452183783856283 -2.1383457705811773 82 59 27
-0.10207553078470617 0.4489481532638052 -2.1412909334973103 83 60 27
-0.10291241989590101 0.4525937142194267 -2.1442991502751263 85 62 28
-0.10365326372618167 0.45584436081101565 -2.1476333970461616 86 64 27
-0.10341497375615738 0.45507177921399444 -2.1543693632974725 87 65 28
-0.10347012824153655 0.45550526214397263 -2.1600947378183983 85 65 28
-0.10392790067304661 0.4575930105183906 -2.164419092274612 87 67 30
-0.10438567290556715 0.4596807579852566 -2.1687434448503136 82 61 24
-0.10468046831726327 0.46109908992254023 -2.1736411876940323 82 60 23
-0.10579414826551563 0.465880764062191 -2.175653129703839 85 63 26
-0.10593734607293392 0.4666764655743039 -2.1810855379990572 87 65 28
-0.10635544335931214 0.4686012305759252 -2.1855488902107867 84 62 25
-0.10671133170142305 0.4702705877693074 -2.190234281331413 79 57 20
-0.1078208661733029 0.47503428489558 -2.1922336403962777 83 61 24
-0.1091575343355586 0.4807300119937295 -2.1934079956259307 85 63 26
-0.1095975483008683 0.48274432623700225 -2.1977807403800074 83 62 25
-0.10995334875261677 0.48441297942347034 -2.202456629257247 82 62 25
-0.11014028556441825 0.48538862234853564 -2.2077433519094654 83 63 26
-0.11090057032086174 0.4887174863449838 -2.2109624383854025 85 65 28
-0.11170872490352546 0.4922425850969241 -2.214002034858981 86 66 29
-0.11258187071456109 0.4960341238462091 -2.21679848082031 86 66 29
-0.11324654794225035 0.4989700295582936 -2.2203465779602327 86 66 29
-0.11400747610536452 0.5023006760100658 -2.223538792544691 88 70 27
-0.11496163464080073 0.5064238031246406 -2.226016876815933 92 75 29
-0.11568850810857263 0.5096142704969262 -2.229320268691488 96 79 38
-0.11637095840691328 0.5126223430597577 -2.2327819582781068 99 82 42
-0.11664162476082005 0.5139414195336522 -2.237760385019442 95 80 37
-0.11654907726913208 0.5137711103720997 -2.244087879694117 97 83 36
-0.11716885968995522 0.5165221468633184 -2.2477805676649196 99 85 42
-0.11834362496565345 0.5215486271917927 -2.2494031843858724 94 79 39
-0.11834646739639648 0.5217698594364122 -2.2553874716367845 98 82 47
-0.11873311221875846 0.5235648180461854 -2.2599438128641562 96 84 51
-0.12345466198309928 0.5431294013655377 -2.2482282140761165 120 114 98
-0.12662909284463075 0.5563496136133683 -2.242250598973095 170 168 167
-0.13000254208774428 0.5703835912441124 -2.2354672901299706 191 191 195
-0.09775554902666864 0.438438188874388 -2.3634163165148845 199 200 204
-0.09344914444601271 0.4210102124795221 -2.3860121415438007 203 204 206
-0.09282517890817701 0.4186741368229938 -2.3946954160917557 206 206 208
-0.09211672280949249 0.4159926725447851 -2.4037231529554526 208 208 210
-0.10146709881074678 0.45452030562562307 -2.374305773937614 209 209 211
-0.09708279391783242 0.43677932162152266 -2.3973748238078083 209 209 211
-0.09765743238004265 0.4393536897790771 -2.4014768349532924 210 210 212
-0.09887754558268524 0.4445716330553332 -2.4030886396465463 211 211 213
-0.5108083518334512 2.1412409892788102 -1.0880701604909104 215 215 215
-0.5114302031222167 2.14384886261185 -1.0874173789715922 215 215 215
-0.5096001057470902 2.136527942995005 -1.0994646731353215 215 215 215
-0.05042103951429862 0.1751965238916144 -0.08275053950882869 176 176 178
-0.04513569372126042 0.15312204579909583 -0.0868544049067641 176 176 178
-0.053648400961418916 0.21708159375282826 -0.8362484477026816 176 177 181
-0.006386514451255057 0.020691321112789596 -0.8995881880680561 176 177 181
-0.010644441649729414 0.038573411970418414 -0.8989081529482301 175 178 179
-0.01459172225582156 0.05516185323905404 -0.898569911929896 167 163 157
-0.020407526931383452 0.07951804135216256 -0.8958167096557189 113 99 76
-0.02298384040830033 0.09040230366852647 -0.8971211759359288 105 87 62
-0.023898805141859852 0.09437830061748592 -0.900525500517413 119 96 68
-0.02500178833330524 0.09913571326136167 -0.9036813274973002 170 147 109
-0.02579002630182721 0.10258436543927235 -0.9072355522407369 139 112 78
-0.026803406662821994 0.10696872058843088 -0.9104921616548833 122 98 65
-0.027527284377080533 0.1101494377989154 -0.9141194729366218 100 78 48
-0.02823086746759869 0.11324565513104967 -0.9177695020258875 81 59 34
-0.028730687419061457 0.11549487350722754 -0.9216849137362746 81 60 34
-0.028265123522011187 0.11373206064437136 -0.9268805102608829 89 68 41
-0.029160913329188173 0.11762693887842235 -0.9302722096156157 81 60 33
-0.029118794296070588 0.11762423822365653 -0.9349148234546403 85 63 38
-0.029404379007223647 0.11898341444207644 -0.939122219005117 70 49 25
-0.028942712509494595 0.11723793999331689 -0.9443430206798571 75 53 31
-0.027822343139010747 0.11275625961527697 -0.9504717126591209 66 45 23
-0.02861525072317979 0.11622378446946469 -0.9540055398412082 62 44 22
-0.02855215710261888 0.1161352083106405 -0.9587103701388967 67 47 24
-0.028630078590985375 0.11663263416740893 -0.9632270952259443 77 56 33
-0.02786380847213729 0.1136238012257515 -0.9689194642915296 75 54 30
-0.026983383153770024 0.11014144328846492 -0.9747869456399484 73 54 30
-0.02390503649730248 0.09753156690793358 -0.9837501975511102 99 89 74
-0.01940748428989264 0.07902972334108999 -0.9947577403839373 148 147 144
-0.01437833768812305 0.058322878252290156 -1.00658326899534 180 181 184
-0.01187376382825113 0.048101677401905296 -1.0148957673205512 179 181 185
-0.00968910582706263 0.03921028553459455 -1.0227912984985241 178 182 185
-0.0053794361775475474 0.021497537980556092 -1.0337699621641296 180 182 186
-0.00819636389819528 0.03815668898314328 -1.1618368774823309 189 190 192
-0.014785016715704535 0.06565107239450624 -1.1560979086777317 189 190 192
-0.02007777073634473 0.0877715915535967 -1.1523901754742965 190 189 188
-0.014015588538102378 0.06283394152620159 -1.167245796722828 128 121 110
-0.015413246886185505 0.06881183358074094 -1.169900174828391 115 102 82
-0.01706117622089419 0.07582623069826183 -1.172127014346076 81 65 41
-0.017762846326085144 0.07891938047918307 -1.1759095277924678 100 85 57
-0.018617896718043675 0.08264785043873951 -1.1794324420777433 91 77 47
-0.02011799781653928 0.08904838306234103 -1.1818684551572363 114 103 75
-0.02083557989679935 0.09220678697603957 -1.185606598413596 83 70 42
-0.021797596845915715 0.0963775467771879 -1.1889277394893345 93 79 48
-0.022888960507733647 0.10108377798093354 -1.1920220081851525 82 67 36
-0.02401452162585732 0.10593129885485714 -1.195048804210543 63 47 19
-0.025757684913773976 0.11333620129454952 -1.1970089183559625 83 67 27
-0.02659807547670691 0.11700189522788224 -1.2005020001920756 97 79 28
-0.0271782975608275 0.11959004998551553 -1.2044383750222771 102 84 32
-0.028386964261083142 0.1247802748961015 -1.2072838039813711 121 103 51
-0.029800838174314212 0.13081971640670503 -1.209761232662269 132 107 54
-0.031608082958964126 0.13848721976061407 -1.2115374998524726 146 121 66
-0.032681516268167926 0.1431161518946671 -1.21458149246949 134 113 60
-0.03415758093945233 0.14941144948708612 -1.2169071999151422 127 104 59
-0.03516426174630684 0.15376328348197021 -1.2200481774360743 152 130 75
-0.03742114321082765 0.1632893859554283 -1.220960912515609 118 98 35
-0.03861885517349439 0.16843089350645923 -1.223735951280347 106 87 39
-0.03842275242116615 0.16780375022604738 -1.2289952071969084 94 75 43
-0.0392143106750676 0.17126407261571236 -1.2324883792945207 121 94 63
-0.04060652344411042 0.17720965834977082 -1.2348924825633745 169 142 111
-0.04064528783897539 0.17755464190347953 -1.2397350048021165 124 101 66
-0.038883963073052044 0.1704522093799088 -1.2478577964485524 105 82 42
-0.037860067347168555 0.16640178912584946 -1.2546656645379253 93 72 39
-0.03875724962471734 0.17029932676636922 -1.2579722795785861 60 40 16
-0.03850701879794545 0.16945028202440265 -1.2633844608803093 59 42 17
-0.03801209688153234 0.16758950390378952 -1.2692588914822465 65 48 22
-0.037630471089753856 0.16619783033280078 -1.274936720853824 90 71 39
-0.03570495534962492 0.1584214968781017 -1.2835023769561034 97 79 46
-0.035760113865977355 0.1588374501728294 -1.2883986784342318 81 63 37
-0.035959413273193505 0.15984966438460585 -1.2930300321877568 58 40 18
-0.036158872364246294 0.1608626724099465 -1.2976646389710587 57 39 17
-0.035973738148243034 0.16028566365423408 -1.3030304575087053 65 46 22
-0.03628829313461522 0.16177489250284188 -1.307456405293555 79 60 32
-0.035871562104640264 0.16024099988907686 -1.3132785829978202 73 56 28
-0.03667487216471921 0.16375098828832807 -1.3167781751045409 54 38 16
-0.036878487355507944 0.16478192486276977 -1.3214247361152855 49 32 14
-0.036247706299451954 0.16236422990146931 -1.3276842347653879 60 38 15
-0.013527165882040754 0.06865087331851549 -1.3767301431773649 122 92 43
-0.022234858103906352 0.10483352569069398 -1.3650345112233975 164 131 64
-0.021255306763740697 0.10097991258959449 -1.3721166978317836 201 172 110
-0.02568701089024851 0.11948712123444749 -1.3686224856361953 196 170 115
-0.029663447332138368 0.13611100993491676 -1.3659641690537099 198 168 114
-0.039410242502790224 0.17657358851791838 -1.3518666419502234 175 143 95
-0.04063592355824197 0.18182773914503592 -1.354508953561122 133 107 69
-0.04186343046249677 0.18708899392821077 -1.3571359659122282 123 103 71
-0.04230264415469026 0.189093579974572 -1.361324454958061 113 90 50
-0.04239789464879953 0.18967744456995989 -1.3662020129115864 152 128 89
-0.04309957427704775 0.19276616008155367 -1.3698654451438121 111 90 56
-0.04377242818632397 0.19573568267905178 -1.3735831690716995 117 91 54
-0.044825252605744936 0.20027420392774747 -1.3765277383765506 143 119 82
-0.04574844356608569 0.2042770817880103 -1.3797266990155017 147 124 88
-0.04667631593829234 0.20829901717945315 -1.382908861508813 159 133 94
-0.047578323367138325 0.21221388709113975 -1.3861366725808852 128 100 58
-0.04870728194249624 0.21706545764831908 -1.3888909623719456 186 162 121
-0.04940637601395714 0.2201420751554034 -1.3925218217840407 142 117 78
-0.048880598230912245 0.21816239017135408 -1.3986853967086876 184 158 116
-0.04915994178013573 0.21950649111302079 -1.4031901623635392 232 212 169
-0.04931049890923282 0.22031913947917925 -1.4079660439730053 231 212 164
-0.05006068871407322 0.2236066680617833 -1.4114908934408832 205 175 118
-0.050562978425621616 0.22587099479352662 -1.4155319579793437 200 175 120
-0.05161858779804537 0.23041854812744517 -1.4184051836777207 193 161 112
-0.05291648303103565 0.2359654671518665 -1.4207562252587451 160 127 82
-0.05417879300827701 0.24136507282318315 -1.4231697629047813 126 97 50
-0.05490186584117908 0.24453951987843658 -1.4267202903786886 131 102 58
-0.05611475981214756 0.24973447745870386 -1.4292185072308479 138 110 68
-0.05690994188868316 0.25320591045518226 -1.4326017574572552 139 112 67
-0.058011064287288 0.25793906614467643 -1.4353202841902917 104 81 39
-0.05850504903918574 0.26016772169474706 -1.4393415779532086 110 87 46
-0.058592252644185855 0.260718708458115 -1.4442448218765225 107 84 45
-0.059140151130100155 0.2631697513497865 -1.4481501133113643 92 67 34
-0.05923867155438731 0.26376767759078107 -1.4530359015041336 99 74 37
-0.060501418422267625 0.26916626157540385 -1.4553733453290576 86 61 24
-0.06093040875739321 0.27112677649024425 -1.4595332353275547 83 57 22
-0.06191808883684466 0.2753906195574272 -1.462459189490741 86 60 20
-0.0628066802291488 0.2792456558268517 -1.465596256959208 92 67 26
-0.06289533881291343 0.2798029945071177 -1.4705056936759444 76 49 19
-0.06249317969903834 0.2783374617973048 -1.4765161555207278 84 57 27
-0.062116158182826064 0.2769760267673832 -1.4824833963161672 92 66 28
-0.0597848704032521 0.2675610287219296 -1.4928561226376025 191 161 108
-0.05966107227652337 0.26724464952608695 -1.4982929282811817 190 159 101
-0.05973137681337487 0.2677284357880449 -1.503299228852655 186 155 100
-0.059795878284453874 0.26818852941234383 -1.508324516704469 219 192 141
-0.06156187326676667 0.2756591418005407 -1.5094778501963435 138 114 73
-0.06270719335807969 0.28057192271371906 -1.5120298289854142 74 49 17
-0.06358830647042665 0.28439588813619193 -1.5151770283260806 68 45 15
-0.06409089175546807 0.286660361585136 -1.5191889133603527 70 46 19
-0.06731764642573518 0.3001453831514625 -1.516905412313624 73 49 20
-0.0622415478990129 0.2794325800558949 -1.5338278202243039 72 48 18
-0.06476061408600162 0.2900022785540409 -1.5331682035494787 75 50 18
-0.06389020364276478 0.28661284168792767 -1.5403877301113715 75 49 14
-0.06254555457088103 0.2812714074562206 -1.548738811962964 137 106 58
-0.06539147591861223 0.29318535186383976 -1.5472697241525137 218 185 127
-0.06500780435509688 0.2918012539906018 -1.5533781643415634 182 149 94
-0.06495544957297736 0.2917816195364913 -1.5587158091300666 131 102 64
-0.06730395749769366 0.30164547212338727 -1.5583615681454375 69 43 20
-0.06846816757531553 0.3066333542274359 -1.560797913628166 67 42 19
-0.06816767490645184 0.3055922073848835 -1.5667233542846395 87 63 30
-0.06733530131552935 0.30236248829332707 -1.5739361072017544 134 104 66
-0.06792496532163361 0.30498566775773217 -1.5777477842131165 102 74 45
-0.0685995368782433 0.30795815333688126 -1.5813521054075066 82 60 39
-0.06961458330200446 0.31233145361526116 -1.584128009800826 96 79 53
-0.06972489956693712 0.31298197700444835 -1.5890932995137506 66 49 28
-0.07031799224812751 0.31561889368084683 -1.5928868034492296 89 71 50
-0.07146686112853702 0.32054207166616083 -1.5953182687867489 126 107 81
-0.07232099793666177 0.3242524394689456 -1.598461665368474 117 95 65
-0.0734871261450564 0.3292458371034284 -1.6008301019703715 144 122 79
-0.07511992575988001 0.3361581611097978 -1.6020338380461343 135 112 68
-0.07644608806465447 0.34180868522740576 -1.6039782587292564 173 148 104
-0.07792663523635515 0.3480935413893738 -1.6055243364807499 160 131 80
-0.07916272565113412 0.3533725600989036 -1.6076633504255293 164 133 83
-0.08004903170421888 0.35721289227066594 -1.6106648814397238 149 123 77
-0.08102069689307857 0.3614038911893862 -1.613444721919956 145 120 73
-0.08205107660828201 0.36583594022610794 -1.616067893220221 178 150 106
-0.0832562857936527 0.3709863038775016 -1.618239448369607 170 145 103
-0.08428632849344649 0.37541618242294633 -1.620842576405404 175 152 112
-0.0853144427898866 0.3798377682806022 -1.623440850871093 162 136 97
-0.08613134945166846 0.38339096172694476 -1.6265684159198022 121 97 58
-0.08650060902937873 0.3851043064094533 -1.6308358414430546 79 55 25
-0.08665303021814813 0.3859266577157105 -1.63566131174734 87 63 34
-0.0872160490673004 0.38843628641315936 -1.6394333668028882 88 64 33
-0.08755351909738517 0.3900191486784354 -1.643786369882567 84 60 29
-0.08517461237842107 0.38044244994329884 -1.6551856430928975 91 66 38
-0.08314835585315829 0.37231617584627413 -1.6657140215169097 90 66 38
-0.07727337182589043 0.34838220417079313 -1.6863283420292792 96 75 44
-0.07638521694522751 0.3449347730268003 -1.693990567381682 107 87 56
-0.07493595402824062 0.3391836871818131 -1.703148723232022 101 84 53
-0.07530981275760057 0.3409208253561436 -1.7075346028018 90 73 44
-0.07548678297074361 0.3418495045276741 -1.7124420875295072 77 58 31
-0.0755988419212528 0.3425118202302114 -1.7175261589951316 91 72 45
-0.07574001759671399 0.3432938915815122 -1.7225383425560254 55 35 14
-0.07583354772661695 0.3438805472107356 -1.7276827468332767 78 56 32
-0.07621192099815277 0.34563674634250563 -1.7320705975922015 47 27 6
-0.07644811518270675 0.34680936701333703 -1.7368413419482207 65 45 20
-0.07511590630202787 0.3415445903329873 -1.7458401539460464 89 67 36
-0.07515510115863298 0.3419094479454599 -1.7511634290190523 109 86 50
-0.07436757461737409 0.33888179913023475 -1.7587343107070916 126 103 59
-0.07552887798310894 0.3438520776521321 -1.7610275036058167 112 87 49
-0.07702444858304153 0.3501934830198007 -1.7623969923355067 58 38 11
-0.08099258537268127 0.36667897786330134 -1.756984411857786 60 42 18
-0.07520948474282117 0.3431567290241426 -1.778271733917818 77 56 29
-0.07783313376085504 0.3541253659411799 -1.7765233898318695 92 69 36
-0.07714134056516156 0.3514927716920581 -1.7838927231468364 90 68 32
-0.07726279564524022 0.3521965651982975 -1.7890289675488669 88 65 30
-0.07534294304730821 0.3445284936122042 -1.799842054977438 111 88 54
-0.07590411097007188 0.34703662650142125 -1.803781478921516 103 84 52
-0.0761336276889206 0.3481846900406684 -1.8086460763978944 66 48 25
-0.07596487254956155 0.3476998351125621 -1.814631159251636 61 44 18
-0.07598020443527362 0.34797014342312993 -1.820109107213646 67 47 20
-0.07575061416190586 0.3472366198974973 -1.8262854632192655 91 67 34
-0.07737009630660971 0.354083618657253 -1.8272412673248013 92 67 36
-0.07643933169333074 0.35047621117087496 -1.8354152387773088 92 69 38
-0.07679901843359424 0.35215893598810394 -1.8399392478897991 91 67 36
-0.0773290852123233 0.354540010083778 -1.8439783122124118 87 64 32
-0.07763051470351667 0.3559840542855348 -1.8486708691129432 84 61 29
-0.07808990216781266 0.3580754722332656 -1.8529122328992447 93 70 38
-0.07861056042217553 0.3604179388832356 -1.8569769044295532 92 69 37
-0.07879407053985206 0.36137902266751876 -1.8620147893564174 94 71 39
-0.07846748907245776 0.36025053971309834 -1.8685360199187937 91 68 36
-0.07862247712079425 0.36109530075540813 -1.873670596085075 96 73 40
-0.07839204640481227 0.36036152629986035 -1.8799343466201917 98 75 41
-0.07831388317594384 0.3602518590368296 -1.8857646299427302 86 63 30
-0.07912426769782584 0.36378157508332837 -1.8889973984785107 96 73 39
-0.07918394763076884 0.36423680311144524 -1.894432878540359 98 75 41
-0.0792436677845773 0.36469245484587076 -1.8998751332543546 94 71 37
-0.07710158977688035 0.35613310955663857 -1.9118417876264329 89 67 35
-0.07891134383748447 0.36375493921425944 -1.9121216086573756 86 65 32
-0.07953487357539372 0.36651966465776653 -1.9159097652618342 88 66 35
-0.08006285590671124 0.36889315413894314 -1.9199802873439045 90 68 36
-0.08066663551015071 0.371576845921577 -1.923822466879089 94 72 40
-0.08121036402804428 0.3740146586675965 -1.9278424014356121 89 67 36
-0.08175923555007449 0.3764734594357354 -1.931845249450123 81 59 28
-0.08264626381247586 0.380315993338075 -1.9348245394133718 82 59 28
-0.08434319716968257 0.3874722409796233 -1.93534149657452 82 59 28
-0.08468102083290714 0.3890668509917637 -1.9399675754555685 81 57 29
-0.08441637774323774 0.38819674259415604 -1.9464323619716568 86 63 32
-0.08427843107335256 0.38784540938352047 -1.9525225708854128 95 71 40
-0.08410510197475153 0.387349741063764 -1.9587318370010538 94 71 40
-0.08232769949694985 0.3802935687039649 -1.96988543266775 91 68 37
-0.08250991514703067 0.3812534011207147 -1.9750349062756618 87 64 34
-0.08315299779813136 0.3840981296833783 -1.9787636882104438 87 63 35
-0.08364780242494213 0.3863364001386978 -1.9829491059211732 90 66 39
-0.08397104530153154 0.38787315969312924 -1.98766759582956 88 64 35
-0.08357689900232698 0.3864769791959997 -1.9946269283204723 84 61 30
-0.0837371238555793 0.38734772113901866 -1.999866800892507 81 58 27
-0.08366900617036774 0.38728524567677525 -2.0058286410071053 83 59 30
-0.08669983127937034 0.39988992985274785 -2.0020464090273427 83 59 31
-0.08684112688172468 0.40068301069994694 -2.0073381796390852 82 59 28
-0.08695094126420863 0.4013476487825043 -2.012735299964656 80 57 26
-0.09023150022966812 0.4149695695916722 -2.008072834662411 78 55 24
-0.08794387669295685 0.40583743758075985 -2.0210864123314467 79 56 27
-0.09407760401508419 0.4311147364238213 -2.0072621026141544 81 58 28
-0.09191274265011855 0.4224850089334751 -2.0199057780938543 99 80 47
-0.08997061764498065 0.41476697103585564 -2.0318820506872566 105 83 42
-0.08918441018964168 0.4117721826792691 -2.0401798440754186 164 134 88
-0.08399797851498533 0.3908060715039984 -2.06271048632307 131 105 65
-0.08026040902092063 0.375761053043013 -2.0806524534868998 83 65 31
-0.10089173040863146 0.460233868043991 -2.0195269515621423 81 59 27
-0.0884136910513062 0.4094959023431384 -2.0658666275457467 80 58 28
-0.09087541805313393 0.4197658857792176 -2.0636484042377696 80 59 28
-0.09042153216350635 0.4181310570042725 -2.07094306738518 81 60 29
-0.09099809613719262 0.42070346707315875 -2.0748698688464855 80 59 28
-0.09173837959740871 0.4239440892348873 -2.0782551758279157 81 60 28
-0.09035885264579605 0.41853228611763527 -2.088637403705123 79 58 30
-0.09040624567551032 0.41894538966425937 -2.0943270715276423 66 48 25
-0.09052077983650356 0.419632776894956 -2.0998013492830676 58 43 23
-0.09266953859070898 0.42862117275416395 -2.0985058116535202 77 62 39
-0.09350599978151751 0.4322539398401808 -2.1015623908431795 106 87 59
-0.09424399179713178 0.4354847009249962 -2.104941738696127 121 101 70
-0.09482468662992101 0.43807357019362314 -2.108844213828738 90 71 42
-0.09566087963764103 0.44170456808868575 -2.1118837255322136 78 59 28
-0.09656186358709841 0.4455995677697774 -2.1146972636217263 78 57 25
-0.09644641063484173 0.4453487707408442 -2.120945400652657 79 57 24
-0.09588124331048357 0.44326440117958604 -2.12873183287644 80 57 27
-0.09788628297414208 0.451661386757291 -2.1277831263915545 80 57 28
-0.09843568239098476 0.454122070929885 -2.131777011421282 82 58 29
-0.09772895523027803 0.4514614248887501 -2.1400713605590482 82 59 27
-0.09831013461133117 0.4540519798668462 -2.1439644630688015 84 61 27
-0.09925752860163753 0.45813525324978904 -2.1465939932611637 84 62 26
-0.09888714199808478 0.45684695546466003 -2.153765073001061 84 62 25
-0.10214999282894138 0.47036688213351074 -2.148370214505811 84 63 27
-0.10289727386327968 0.47363323742580116 -2.151657136290157 85 65 28
-0.10020395863749224 0.46287934202027037 -2.1669186050061584 83 62 26
-0.10004251620497921 0.4624438930937381 -2.1734000675519054 84 61 25
-0.10031216464985773 0.4637652258780856 -2.178384070682124 85 63 27
-0.10064972749125649 0.4653633643027972 -2.1831332504802305 87 65 28
-0.10132320442648443 0.46832991830623427 -2.1867022302815062 85 63 26
-0.10236557357943768 0.4727988471876002 -2.1889649271921803 82 60 23
-0.10307877421184308 0.4759267401285961 -2.1923814667588157 84 62 25
-0.10465132060069914 0.48255401704745043 -2.1927431510375066 85 63 26
-0.10530369291008453 0.4854335345638758 -2.1963580039976405 84 62 25
-0.10569973516683637 0.48726922630025815 -2.200883765895101 83 63 26
-0.10612174614896447 0.4892106876071373 -2.2053177728244235 84 63 26
-0.10621895110081482 0.48982991730157327 -2.2109177831215803 84 65 27
-0.1071133921256799 0.49369459547115324 -2.213656699477099 86 67 28
-0.10786534007837287 0.49697898112483463 -2.2169011079367964 87 68 29
-0.10845140039980408 0.4995880183574181 -2.220739767943744 84 64 28
-0.10927576138039449 0.503166712756366 -2.22371164393626 84 66 26
-0.11009908392603981 0.5067409113270238 -2.226680100955259 92 75 33
-0.110921413518647 0.5103107996608728 -2.2296449874956257 94 77 34
-0.11116224207783985 0.5115146698466249 -2.234728680639918 96 78 36
-0.11226947030617959 0.5162431932890019 -2.236640482057664 90 75 32
-0.11278850856301231 0.5185787083014517 -2.2407014705778234 90 75 30
-0.11252732680621705 0.5177408337188867 -2.247636703943393 91 76 33
-0.11361730467283847 0.5223984794470781 -2.2495930164954965 88 73 33
-0.11346317606895727 0.521996496650406 -2.2561465035624306 95 79 44
-0.11449310296214958 0.5264094870304847 -2.2583131262820335 92 80 47
-0.11646289476687391 0.5346433114652391 -2.2569673712763234 118 112 96
-0.12742473736489962 0.5794321439633572 -2.222007020450141 169 167 166
-0.12743523632028678 0.5796958091667442 -2.227849128447478 190 190 194
-0.1286729056159317 0.5849478017198702 -2.2290921301944864 198 199 203
-0.12295345676932497 0.5619236432230685 -2.2565111064416286 202 203 205
-0.0784205537621194 0.38117055388143994 -2.430562556929411 206 206 208
-0.1177844100584604 0.541366817132992 -2.2879886693999083 208 208 210
-0.08727435856890983 0.41762656365866846 -2.4097874077486674 209 209 211
-0.0884313924215063 0.42256542196063773 -2.4117222687814 210 210 212
-0.08593303197272856 0.4126541520981515 -2.4275879015310604 211 211 213
-0.08341101849517293 0.40264905017104713 -2.443603796633873 211 211 213
-0.5095779657949722 2.1439450406255194 -1.085149690732536 215 215 215
-0.5101871573976431 2.146485523473963 -1.084574676257087 215 215 215
-0.5106325455392005 2.1483683324628187 -1.084831024163837 215 215 215
-0.027923320104457194 0.0977587938408346 -0.0847764384602642 176 176 178
-0.0280839424741082 0.09857384980138682 -0.0883484274289102 176 176 178
-0.05060369449986418 0.22271330391202576 -0.8348270517758898 176 177 181
-2.2864659762436568e-05 0.013914188554220885 -0.9019035914422364 176 177 182
-0.004774518690898066 0.03373187606144312 -0.9006503009969501 174 178 180
-0.00909737313164967 0.051775961904495404 -0.8998783833608461 164 158 153
-0.018429557430018964 0.09051000543235671 -0.8927448561466114 117 103 78
-0.018335392835252 0.09030453282212869 -0.8974326123850646 115 96 70
-0.01969916808316223 0.09612086740371223 -0.9002713645471339 127 102 73
-0.020551832525525213 0.09982587176270197 -0.9037518033966756 180 155 120
-0.02150954646874864 0.10396446900595335 -0.9070915771403634 131 104 76
-0.02237743130852593 0.1077318482296093 -0.9105404926464014 126 101 69
-0.023768498164340596 0.11365927395941017 -0.9133039734197639 95 73 40
-0.024258424663789316 0.11586551496241054 -0.9172313159383856 80 58 33
-0.023411589477421127 0.11255278194759855 -0.9229118635533604 78 56 31
-0.023436348527277412 0.11283894462523264 -0.9274597180900299 90 69 42
-0.0242884153713 0.11654049574854153 -0.9309163888445315 75 53 28
-0.024796305257489187 0.11882112888108926 -0.9348258548523612 84 62 38
-0.02531260033925653 0.12113641094728977 -0.9387229804004145 75 54 29
-0.022757753865685765 0.11077622867111914 -0.9467499988966745 73 53 29
-0.02315508834891554 0.11260127969938039 -0.9508258408173493 65 48 24
-0.02415193853558864 0.11690038812179765 -0.9540877095719102 73 56 32
-0.024484446026740936 0.11845780464891581 -0.9582488523984483 72 54 28
-0.024035596103102824 0.11679123403235481 -0.9634829933900454 82 61 33
-0.022911011063167022 0.1123370928426583 -0.9696601413747139 75 54 26
-0.021570708463289845 0.10699380277502218 -0.9761567100661543 76 56 32
-0.018812097660625943 0.0958003729228517 -0.9846505985487173 110 100 85
-0.015655131640950268 0.08296538454204039 -0.9937440530604087 155 153 149
-0.011424329168415195 0.06570289444705257 -1.004394170557209 180 181 183
-0.008778416762557348 0.05497993790193323 -1.0128693638687407 180 181 184
-0.006400210463674727 0.045362746446038715 -1.0210061443370833 180 181 186
-0.005757686876630613 0.042905123434235304 -1.0267072358460392 181 182 187
-0.008166552976542826 0.05810637030514304 -1.1544263200876324 189 190 192
-0.005928944822548632 0.04909403359619291 -1.1629857653687627 189 190 192
-0.013930172154356574 0.08222724260499137 -1.1549626670368653 190 189 190
-0.009551288616631057 0.06440194430158208 -1.1670162224197165 128 119 107
-0.011246330289241185 0.0715768168045322 -1.1691930750317265 119 104 81
-0.012751918366992368 0.07797133909902071 -1.1716639880729187 83 69 43
-0.01323136489615201 0.08014271747410762 -1.1758143708921924 99 84 56
-0.014107267238953641 0.08394537183855927 -1.179306904774354 70 53 25
-0.015121090291392206 0.08831524685117415 -1.1825637486527254 83 69 44
-0.016083795823263372 0.09247449703523664 -1.1858980862088921 69 57 31
-0.017179251885145463 0.09717957083212736 -1.1890022358170056 68 54 26
-0.01827325559734709 0.10187830244462842 -1.192099674707898 87 71 41
-0.019426656120232658 0.10682098240658244 -1.1950873844716583 81 63 32
-0.021459743198181058 0.11538141365146332 -1.1965693680258354 80 65 28
-0.022030113325088488 0.11792519895308895 -1.2005262575922833 82 70 22
-0.023292148353370942 0.12331333866846683 -1.2032955353020198 102 86 36
-0.025684722615517214 0.13334996063089544 -1.2041069977239556 136 117 67
-0.0258763711160966 0.13433555852055762 -1.2086952638189254 138 114 63
-0.028063422451792136 0.14352556011546597 -1.209823702791453 148 124 68
-0.029721274331270794 0.1505388691118999 -1.2118495963098284 140 118 67
-0.030872380773826313 0.155468245819115 -1.2147448974881951 130 107 64
-0.030678139145471045 0.15486685894403113 -1.2199938285183218 154 129 77
-0.03384922086743426 0.16809878902756287 -1.2193148899391995 117 97 36
-0.03411528945592052 0.16938910687131115 -1.2237425046446444 111 92 43
-0.03323319409421134 0.16596072408728096 -1.2302144796933243 92 74 41
-0.0361648376318834 0.17820595417756252 -1.2298955894059282 122 96 66
-0.03712955537036704 0.18236708107610222 -1.233067152302539 201 174 146
-0.03784046070132993 0.1854849876786766 -1.2366879689783632 130 106 75
-0.034176998117235124 0.1706297145756987 -1.2482098018258316 111 89 54
-0.03499491852018265 0.174188230260597 -1.2516600121721964 94 75 45
-0.03497764413858939 0.17431543370142694 -1.2566260653889063 61 42 18
-0.03559694832427647 0.17705786669242474 -1.2604345568229949 57 39 16
-0.03488942423410575 0.17435017486430116 -1.2666764164775541 62 45 18
-0.03387607587669829 0.1703870473023329 -1.273498532603598 79 63 30
-0.031015504616884834 0.15883826880167629 -1.2837598148539073 82 66 35
-0.031061639112880554 0.15922832916725815 -1.288669252126702 70 52 26
-0.03154769426236041 0.1614251063025257 -1.2927640121936395 55 37 16
-0.03173937288957124 0.16241311861718588 -1.2974092629641119 55 36 16
-0.03161113622918642 0.1620877669633945 -1.3026594304333448 71 51 28
-0.032021297299470286 0.16397314851243078 -1.3069020812951004 82 65 38
-0.03176160359725097 0.16310864724555296 -1.3124139502496892 68 51 25
-0.03258371097532148 0.16668527296349755 -1.3158791782828132 57 41 18
-0.0329807833504976 0.16851706293934454 -1.3201501162927973 51 33 15
-0.033538058334764156 0.17100640565547431 -1.3241147733243814 56 32 9
-0.016254061962642924 0.10027430277490212 -1.3623926563901994 116 86 38
-0.01578933132422511 0.09857471700928971 -1.368458155351757 155 122 61
-0.019250136765007433 0.11298393305972748 -1.3669293135291725 184 154 94
-0.021201003429808796 0.12119585255474313 -1.368293645506147 208 177 117
-0.025508871061706295 0.13907733655340532 -1.3650331868499872 194 165 105
-0.03366322694097125 0.1727370074029475 -1.3541760599137669 172 141 98
-0.035601200267297434 0.18089082717980964 -1.3554360819915523 138 112 71
-0.03676362211245583 0.18586246834919629 -1.3582056719316449 103 82 40
-0.037194893787352606 0.18783474137949563 -1.3624140101234508 135 117 80
-0.03788579615410774 0.19087186457945016 -1.3661059111177694 120 97 61
-0.038593380274059175 0.1939772529396639 -1.3697608093450402 104 81 45
-0.03927510581515831 0.1969764426993466 -1.373463604017775 118 95 59
-0.04022271899874391 0.20106575638485136 -1.3766278411085713 137 112 81
-0.040933157059193176 0.20418230651701036 -1.3802635316162444 148 123 91
-0.04153649747478931 0.20685960807907045 -1.384112303761604 134 109 72
-0.04301056668984776 0.21310643539948487 -1.3861871519492306 155 126 85
-0.04301939605587092 0.21334621388771108 -1.391238561652335 211 184 139
-0.04398205615061812 0.217495984427113 -1.3943415781847952 177 152 109
-0.04400967789944581 0.21781302042677775 -1.3993601487471714 186 161 119
-0.044120432099800544 0.21847101404226915 -1.404213306577879 208 186 141
-0.04439750719645874 0.21981080267199488 -1.4087268155261792 219 193 136
-0.04467474663704599 0.22115136431615973 -1.4132424621103916 216 189 128
-0.04544708946081594 0.22452069540491654 -1.4167272409361245 185 158 106
-0.04629125002350175 0.22818407484952113 -1.4200565867066801 182 151 99
-0.04776614263195067 0.23443123023103973 -1.4220538739900357 155 123 73
-0.04914426458422963 0.24028133021985348 -1.4242396681209546 129 99 52
-0.05046814908947113 0.2459086887182083 -1.4265260798943515 127 98 54
-0.05155393479810204 0.25056026817010985 -1.4293050274134602 126 97 55
-0.05244881935949659 0.254429590308744 -1.4324812627052188 138 109 65
-0.05354871630133165 0.25913822772881934 -1.43521177504803 112 87 45
-0.05396201590725702 0.2610348248848234 -1.4394069273051062 101 80 40
-0.05404681253569378 0.26158630925891113 -1.4443105532812996 105 83 46
-0.05465286596205418 0.26427225188296977 -1.4480920230166103 98 73 36
-0.05489639182699482 0.26547386500398945 -1.4526579081219928 95 71 34
-0.05580007009988401 0.26937812912859027 -1.4557886487941238 96 72 33
-0.05659407850953954 0.27283317389181433 -1.459152003040202 88 63 27
-0.057266233676610004 0.27578923151747464 -1.4627772145528513 87 61 23
-0.05762644347644713 0.27746839176851956 -1.4670855836159342 93 66 32
-0.05824980688340868 0.28022457274327683 -1.4708137751651036 75 48 17
-0.05813709979206169 0.279968452101074 -1.4761709533553473 79 52 23
-0.0580232689776692 0.2797080749369045 -1.481539139844322 98 70 32
-0.05564622622667345 0.27018781104123124 -1.491968359303681 203 173 122
-0.055669111011925204 0.27048817233058536 -1.497064916630366 202 173 115
-0.05579198545640371 0.27119785237506816 -1.5019431804836931 205 176 118
-0.05591488221543889 0.27190782198755153 -1.5068263315025296 200 177 120
-0.06049993937258134 0.2908699419337057 -1.5016143284944894 142 115 73
-0.05981908286903094 0.2882915048659671 -1.5082981790832453 73 48 16
-0.06025288190136735 0.2902724407857061 -1.5124590882080677 68 45 15
-0.06055785025371585 0.29172653404889404 -1.5169147022377265 68 44 17
-0.05989419799580989 0.28921989537448967 -1.523595130024793 75 52 23
-0.05974434209761581 0.2888147692008516 -1.529109786804929 72 48 18
-0.059893139486511884 0.2896310587767475 -1.5339436851658201 76 51 18
-0.05957901069351844 0.2885550039568115 -1.5398553398908585 73 49 14
-0.06018475353674088 0.2912397413431698 -1.5436391353429268 138 104 58
-0.059538843075017944 0.28880817432957373 -1.5503416790964224 205 171 116
-0.05957116225246176 0.28914938087959247 -1.5554730324738018 196 166 114
-0.059603583219364695 0.2894912629413022 -1.5606106086144742 126 98 61
-0.06059855325174397 0.29376696049000117 -1.5634852827322991 69 43 19
-0.06158358103655334 0.2980016796762247 -1.5663747232381475 69 47 22
-0.061630453416444714 0.2984027815346155 -1.571482276935021 85 62 29
-0.0625660396984671 0.30243510673771773 -1.5744796633909781 142 113 75
-0.06433024424396165 0.3098522943781411 -1.5754892972765229 103 75 44
-0.06450271665844325 0.3107663965918194 -1.5802938278456562 70 48 24
-0.06534357565844777 0.31441082150400407 -1.5834949399063638 83 66 41
-0.06568906441352843 0.3160317153470571 -1.5878851451375713 74 55 36
-0.06628855273624756 0.3186900163371495 -1.591661857151021 79 63 37
-0.0677380396218242 0.32481937636363867 -1.5933711206886612 151 130 93
-0.06874145617368654 0.3291266014160715 -1.5961514253266498 125 101 67
-0.06963743217497441 0.3329947745587392 -1.5991854112216382 133 110 71
-0.070691353256979 0.33750750473996277 -1.6018245601945624 150 123 78
-0.07214256737071216 0.3436417610530416 -1.6034759105211496 173 151 107
-0.07356549013848014 0.34965987364762946 -1.6051808091563649 159 133 85
-0.0746923094309391 0.3544687161153426 -1.607603422495048 157 129 84
-0.07555790468796164 0.35821093451584973 -1.6106641968196462 134 110 68
-0.07618419135651455 0.3609762225009738 -1.6143147976419017 138 114 72
-0.07745099359145903 0.3663552120974299 -1.6163598778323354 179 150 109
-0.07861745654860287 0.3713242273767157 -1.6186433289249993 160 135 88
-0.07965584562657523 0.37577020373446457 -1.6212374049570693 174 150 103
-0.08069234177700615 0.38020806326451745 -1.6238264520347534 175 149 106
-0.08175177307207487 0.38473909336123036 -1.6263475742889963 126 102 65
-0.08240712276589916 0.38762139192575074 -1.6298858668649203 72 50 21
-0.0823587860712408 0.3876333116375817 -1.6352153899755206 83 62 32
-0.08296241735608981 0.3903046157623403 -1.6388845357636699 90 66 35
-0.08324624514203818 0.39167158699664023 -1.6433718411721918 77 52 24
-0.08376811676174749 0.3940093682346418 -1.6472485997296242 82 56 29
-0.07933168819591305 0.37612943797196835 -1.6639332322545195 88 62 33
-0.07717652511782715 0.3675539157281639 -1.6747857562363042 96 75 42
-0.07236707443119261 0.34815890525195076 -1.6925817539275894 99 80 47
-0.07199922899727404 0.346873775453891 -1.6988801097766157 94 76 47
-0.07075733615654603 0.3420263790322142 -1.7074786748583857 62 45 21
-0.0710451523048254 0.34341501461509744 -1.7120901827985961 50 32 13
-0.07107263072262211 0.3437427350786248 -1.717389729615908 70 52 31
-0.07121525322004206 0.3445399702964285 -1.7223920732518805 59 39 17
-0.07142031984639577 0.3455918595484 -1.7272339889808515 87 65 42
-0.07162948155575147 0.3466605946508736 -1.7320690107003625 72 50 25
-0.07177562429796329 0.34747273475602336 -1.7370759794681783 76 55 28
-0.07069354577024209 0.3432814487759831 -1.7453727775561683 84 63 32
-0.07022392185550984 0.3415860484251131 -1.7520519744515015 98 74 39
-0.06983937765672055 0.3402378106863599 -1.7585175237787332 121 96 55
-0.06883280369133385 0.3363566836963941 -1.7666761943417313 107 83 45
