ply
format ascii 1.0
element vertex 686
property float x
property float y
property float z
property uchar diffuse_red
property uchar diffuse_green
property uchar diffuse_blue
end_header
0.09850794335113755 -0.2616343164365479 -1.5914664379932952 144 117 77
0.10573839882303043 -0.265803537195994 -1.5920036409303115 137 110 71
0.11280688694578273 -0.26988403328109034 -1.5926231579581396 133 109 69
0.12093728507575713 -0.2745369807270316 -1.5925159496851924 127 103 64
0.13075264642462808 -0.280098535527769 -1.5912613297223508 126 102 64
0.138195193229127 -0.284377052530857 -1.5915515921122918 141 117 78
0.14370475162388407 -0.2876107422294031 -1.5931081757607746 134 108 69
0.14947578531230132 -0.2909847102916234 -1.5944721366643184 134 108 72
0.1565403343442051 -0.2950558128069032 -1.5949474354332538 140 115 78
0.16420997903799933 -0.2994521961930341 -1.594990196332659 144 121 85
0.17073280009012387 -0.30322861398897527 -1.5957826473359573 128 107 74
0.17766584238266758 -0.3072251932138863 -1.5962745680411412 129 109 78
0.18107005093795236 -0.30931778526095594 -1.5991476470568078 120 96 63
0.18370957774714225 -0.31099772037315687 -1.6025352604005338 104 81 41
0.18287494547717503 -0.3108048344705985 -1.6083008132042889 84 61 27
0.18371409917849796 -0.31151445208539136 -1.6129250184432102 66 43 16
0.1848546759771067 -0.3123866200200117 -1.6173441558805086 78 57 32
0.18549303923324978 -0.3129883412032172 -1.62211274715751 73 56 28
0.19137990938205923 -0.3164169191247861 -1.6232391065781 96 80 49
0.19133255987239312 -0.31664922600030176 -1.62848177422281 95 77 47
0.19050995356063066 -0.3164645193515059 -1.634273376498024 86 66 36
0.1689599272019146 -0.30512406987986207 -1.6546123499755705 110 91 62
0.1601565705581025 -0.3006480134996096 -1.6660856970373066 109 90 59
0.1473498511627454 -0.2940203552617877 -1.6804305144379785 104 84 52
0.13706459084343298 -0.28875216737621523 -1.6930539882463198 88 71 41
0.122248944221661 -0.28105016493115853 -1.7089478708231247 76 60 28
0.12150423054545895 -0.2809175217930756 -1.7148897293697898 82 66 34
0.12024631300836658 -0.2805095047756718 -1.7212087205415676 90 74 39
0.12375683554401246 -0.28266498238710597 -1.7241216848628553 85 70 39
0.12358420453365898 -0.28284087389626794 -1.7296748231878825 80 65 36
0.12390083530868395 -0.28328000513842566 -1.7348828240372938 79 62 32
0.12535007792064568 -0.28432777744206716 -1.739276833412059 81 61 31
0.13890421693760424 -0.2918761539705216 -1.7348842397106747 91 70 38
0.139988412739599 -0.29272663619792544 -1.7395179329388821 98 76 44
0.13986688177181028 -0.2929299950444373 -1.7450344935617614 98 75 41
0.1380934513651253 -0.29224718034606323 -1.751768994913998 97 76 40
0.1377705453014043 -0.29234342659250545 -1.7574525503290126 92 72 37
0.13558179284738997 -0.29143914157935935 -1.7645201892735745 88 68 34
0.12583735201367457 -0.2864832091792742 -1.7771920992088523 87 67 34
0.1444306970517602 -0.2967255980510706 -1.7688960454704252 83 63 32
0.14605355614904103 -0.2978658608380693 -1.773148966248198 76 55 30
0.14791230801129707 -0.2991325531514364 -1.7772256021773412 76 56 31
0.14812698101515054 -0.2995181192301125 -1.7825316279790657 92 72 41
0.1487924695163929 -0.30014553220935153 -1.7875053421049234 84 63 33
0.14991073906401198 -0.30101569270112 -1.7921421869451164 76 55 26
0.15217039107017793 -0.30249723502398707 -1.7959188793196028 75 54 27
0.14576462152511604 -0.29933874663649646 -1.8062583126215426 74 52 27
0.1464109756983123 -0.2999573075902856 -1.811274682757504 74 52 28
0.14895499980207533 -0.30159175074535394 -1.8148487274201779 73 51 27
0.15167996317806576 -0.3033227955513743 -1.8182799785361123 74 52 28
0.1464520658114002 -0.3007988598091532 -1.8278050161863342 69 49 25
0.14190855939802627 -0.2986425422006853 -1.8368349843815928 62 42 19
0.15641983655317637 -0.3066774344473901 -1.831192129818595 67 46 25
0.1586848283227194 -0.3081618985120026 -1.8349660408268016 65 45 24
0.1524275046687542 -0.3050907287976899 -1.8453512992865664 65 47 25
0.15793999647904616 -0.3083113840841796 -1.8466105205759362 67 49 27
0.17320056647469378 -0.31673958769517074 -1.8402403697077307 68 50 27
0.17009603519837335 -0.31535418227391687 -1.8481884389130745 67 50 24
0.1692172990953158 -0.3151585953307992 -1.854410044152849 65 48 22
0.16614304624253445 -0.31379125525625934 -1.8623726134646554 63 46 20
0.15079717220521516 -0.3058738498064939 -1.8800526183101385 64 46 20
0.16117314912140568 -0.3116888542014341 -1.8774288864259923 67 47 22
0.16618051849175586 -0.3146370640040316 -1.8790308504677464 68 48 23
0.1700632315540333 -0.31698447857811696 -1.8815132452019352 67 47 22
0.17269106387097533 -0.3186620286637829 -1.8849880610183052 64 46 22
0.17825029199840142 -0.3219025456216877 -1.8861075327107801 65 46 22
0.18057058234742096 -0.32341530047304745 -1.8898128955298596 67 46 22
0.1849302520692948 -0.3260149362941334 -1.8918699603590357 68 47 23
0.18868158816879915 -0.3282897316934188 -1.8944059528146164 68 48 24
0.19049409176664883 -0.32953101064579116 -1.8985044991909106 69 48 26
0.19001032110735955 -0.3295490499768318 -1.904470143721403 67 46 25
0.1890767711826527 -0.329328034222708 -1.9108125193808863 67 45 22
0.18319436378008513 -0.32647260121701094 -1.9212165946956843 65 44 21
0.1812695405167758 -0.3257256594333764 -1.9284080461999702 66 44 21
0.18073425497781193 -0.3257190705908214 -1.934472445206332 80 57 33
0.18219730163295927 -0.32677628143809145 -1.9388973650626318 73 52 25
0.18427724811979468 -0.32816169658934247 -1.9428121548409656 76 55 28
0.1847025987327901 -0.3286669837735282 -1.9480982736768044 77 56 29
0.1851742269559476 -0.3291971522263617 -1.9533513897850152 70 50 24
0.18559969157054418 -0.32970304231020575 -1.958648372096046 78 57 31
0.18710811154035356 -0.3307848011318227 -1.963044023968775 83 62 33
0.18768411294297688 -0.3313711054374062 -1.9682230979340978 83 62 33
0.1952462507092872 -0.33566914220991795 -1.9675231891019023 82 61 34
0.19274841865410258 -0.3346224394750649 -1.9752913822601441 82 61 34
0.1963268236643564 -0.336803356173011 -1.977932474694183 78 57 30
0.1985285674088651 -0.338252916539246 -1.9817333390984289 72 51 24
0.19944384343991362 -0.3390194869491592 -1.9866270998351088 72 51 24
0.20078158553753417 -0.3400104064814681 -1.9911631842920012 77 56 29
0.20968908650336027 -0.34501751055233193 -1.9892154566247393 82 62 35
0.21030787528126482 -0.34562628567456133 -1.9943532274883191 80 60 33
0.21058182471145387 -0.3460524200830607 -1.9997927539335336 79 59 32
0.208334271268585 -0.34514199746829455 -2.0074171632874993 79 59 32
0.21621330417405182 -0.3496002732763769 -2.0062863446557557 81 61 33
0.21147162589129725 -0.34736872125574525 -2.0160904146029526 101 80 51
0.20825084191211718 -0.3459445060104437 -2.024600191448369 112 89 60
0.20590164811272477 -0.3449831388294865 -2.0323719077154 86 65 35
0.21249501443520769 -0.3487585620498747 -2.032327485855385 80 59 30
0.21654278741775168 -0.3511849739984544 -2.0344951915105725 81 58 27
0.21965847627519886 -0.3531173969052809 -2.0374720613653197 83 60 29
0.22460461755315142 -0.3560181581101261 -2.0388240848319956 81 60 30
0.2250269445585676 -0.356524559714637 -2.044167731244873 78 57 28
0.2312452983639246 -0.3600972013458181 -2.044367403969293 77 53 25
0.23225553783720054 -0.360914379834529 -2.0491843635022278 76 52 24
0.23166350726931956 -0.36088452670788124 -2.0554356332129116 77 55 26
0.22141690934329794 -0.3557517156985084 -2.070347167122995 78 57 27
0.22516164736188055 -0.3580160329547446 -2.0727478101169825 73 51 26
0.22918606136947872 -0.3604275907621638 -2.0748857941542806 86 64 37
0.2311656297415814 -0.3617583787190903 -2.07885885808784 99 79 47
0.23311498396319863 -0.36307311263004627 -2.0828573220977598 103 83 49
0.23420833510233469 -0.3639357919754097 -2.0876314938470766 86 65 33
0.24007763061754273 -0.3673196719559166 -2.088058077340881 78 55 25
0.24214387472464322 -0.36869544412653954 -2.091936648316251 76 53 22
0.2445863257224581 -0.3702695914549289 -2.0954682511215132 76 53 22
0.24750244019721046 -0.3720933819830077 -2.0985605554095583 74 52 21
0.25110302485749353 -0.3742778129500757 -2.1010158677314017 73 52 20
0.2524087800102603 -0.3752517914774002 -2.10557995405646 74 54 21
0.25530984677281715 -0.3770667677113192 -2.108668361911231 73 52 21
0.2566962663362007 -0.3780831931212567 -2.1131562801558954 73 52 22
0.2598828291943105 -0.38004811896482216 -2.1159693883645607 78 57 28
0.2599700320467285 -0.38038005047376655 -2.1216674193864735 81 60 31
0.25877977907181965 -0.38003961321273705 -2.1285686397363457 77 55 24
0.26312397160114764 -0.38261375930172326 -2.1302898036457716 73 50 19
0.2655145419825792 -0.38415887286269573 -2.1338353672548123 72 49 18
0.26503514540412326 -0.3841934633530344 -2.1400848341905983 73 50 19
0.26764826195115393 -0.3858556154334185 -2.143418866796668 74 52 22
0.27246730131646935 -0.38867781629968373 -2.1446549324170783 78 55 24
0.2750932051988791 -0.3903458917680781 -2.1479606127512865 80 55 25
0.27839160006959424 -0.3923672601375736 -2.1506195175511595 80 55 24
0.28328215736845025 -0.39522506150987047 -2.151746961695494 74 50 17
0.2898059329726719 -0.3989402639680018 -2.1512913221803127 82 56 21
0.2938762033118357 -0.4013652243046507 -2.1531692188549787 87 61 24
0.29854071595379683 -0.40410166650800117 -2.15446138797589 89 64 26
0.23257355844611938 -0.3697479184946919 -2.2240103413048162 93 67 30
0.31899388207660256 -0.4154121624918362 -2.146216583698959 92 67 28
0.31344507045087816 -0.4127842989747526 -2.157357001770143 94 69 29
0.2983335707471004 -0.4051404490952572 -2.1778514232463766 96 71 31
0.27963699794519825 -0.3956201404447076 -2.2019344370946223 99 74 34
0.304147972923665 -0.408766128700758 -2.1837998463311665 100 75 35
0.3059519428367288 -0.40999998166760665 -2.187847131661428 100 77 35
0.3062291128572567 -0.41043340358676006 -2.1933966359639245 102 79 38
0.3008278243617173 -0.40789116089655914 -2.2045592528821367 105 81 42
0.29921619762910806 -0.4073363319990132 -2.2120067234750156 101 77 39
0.3009222353376577 -0.40852020798985694 -2.216177935712233 99 75 37
0.3037744391776884 -0.4103042946799862 -2.2192078639502117 98 74 36
0.32616935642136846 -0.42232000013075816 -2.2027322910331444 98 75 35
0.31621727066825234 -0.41739862746278256 -2.2185067004174037 98 75 34
0.3233730167400864 -0.421432927004886 -2.2171824041368295 98 75 34
0.3219492914116367 -0.4209771733102806 -2.2244564589900326 98 75 34
0.3268055482333941 -0.4238069348490047 -2.225414406149357 97 75 34
0.3289171376361664 -0.4252006006400848 -2.22912956245461 92 71 31
0.3314001345263243 -0.4267882903412573 -2.2324653882210863 79 60 23
0.33138002892883617 -0.4270674744839772 -2.2383399204920207 72 56 21
0.3342828090048981 -0.4288743573915117 -2.241244941743006 72 56 22
0.3309410628649753 -0.42741877803027445 -2.25052141518835 70 54 20
0.3392378606805397 -0.43204287803153074 -2.247904679400117 64 48 14
0.3435211682757363 -0.4345696342651684 -2.2493731167071536 64 48 16
0.3438943151897535 -0.43505456630979444 -2.2548523145944155 71 56 26
0.34605543471390937 -0.4364728982329876 -2.2584924630585808 72 60 37
0.3466571342236418 -0.4370774640925007 -2.263743033074604 99 90 74
0.3335114592890173 -0.43051158748659757 -2.2832607665747804 137 132 122
0.3327396475747855 -0.4304022320482499 -2.289986964238617 171 170 166
0.3258375745078929 -0.4270975487551639 -2.3031183046219486 190 188 192
0.3271539992911371 -0.4280786538007786 -2.307702870343127 199 199 201
0.3709794233141854 -0.4512101611424285 -2.2677324487414268 203 203 205
0.3763695080773097 -0.45430788022764335 -2.267924608125192 207 207 209
0.384255327831578 -0.45870437185009727 -2.2654666772629617 208 208 210
0.32052224341542584 -0.4258090745692987 -2.33862184159398 209 209 210
0.32665183029731437 -0.42929756324527457 -2.338148697712617 210 210 210
0.571346427786174 -0.5572005650700044 -2.0897320348363873 211 211 211
1.4011345749668118 -1.0009345783262904 -1.4493997135523153 214 214 214
1.4002765317176888 -1.0006688877077323 -1.4539650824326995 214 214 214
0.0788572605052773 -0.22635657140542897 -1.0044564024012654 187 188 190
0.01768240009128727 -0.19362524777266304 -1.0485404401380356 190 191 193
0.018094386758873704 -0.19408890894600167 -1.0530952419828206 190 191 193
0.027642546381234173 -0.19957710665243164 -1.0537844707629362 191 192 194
0.025411501883644938 -0.19858706159517087 -1.0594547069744085 191 192 194
0.033656243405253694 -0.2033567853933647 -1.0606626053110257 192 193 195
0.04141905909072113 -0.20786034484597735 -1.0620519881522423 192 193 195
0.03776097167505216 -0.20608622742359364 -1.0683408803681396 193 194 196
0.03720528977103871 -0.20601775300950767 -1.0733059895422834 195 195 197
0.0327192923342535 -0.20379045571373372 -1.0799878252002693 195 195 197
0.1639923501925425 -0.2768118719736726 -1.0409292538661938 196 197 199
0.15094549575621086 -0.26987702143377273 -1.0512448537486192 196 197 199
-0.28725531426165835 -0.04068040746820861 -1.471957238911847 202 203 207
-0.336134601528634 -0.014334384338905104 -1.5033232871489082 202 203 207
-0.2821356565531623 -0.04403640426305416 -1.4805701312436397 202 203 207
-0.25491853572481127 -0.05914254149443399 -1.4718028647720078 202 203 207
-0.22837596878604044 -0.07387626775447281 -1.463292426203856 201 202 206
-0.20200643293753073 -0.08851080609805118 -1.4547748596964787 202 203 206
-0.1768682435192966 -0.10247015900541812 -1.4468183126683505 184 183 181
-0.15686888723410397 -0.11362823992208382 -1.4415324092793063 135 131 125
-0.13890300925214227 -0.12367621233975601 -1.4372709422924952 116 106 96
-0.1323280640980869 -0.12752425900643194 -1.4391184267253039 110 96 82
-0.11893228149948004 -0.13508113495498725 -1.4372349467998178 112 97 77
-0.10507576424939458 -0.14288617728561925 -1.4350524121558785 111 95 72
-0.09066645341471746 -0.15098929330174465 -1.4325174804172307 108 92 67
-0.09442345134572533 -0.14921476138440076 -1.43992500662639 109 93 67
-0.045753963206670745 -0.17593459882049528 -1.4184056854426206 111 94 68
-0.07006764207895799 -0.16298666227765118 -1.4371431347536745 112 92 67
-0.06271301366157805 -0.1672489683240984 -1.438370785103447 112 92 67
-0.05407685811527729 -0.17220620947001897 -1.4388596455002898 112 92 65
-0.03620437286466616 -0.18217810376941906 -1.4341446891291105 107 87 60
-0.023009166667201153 -0.1896070026932214 -1.4319936541173175 111 91 64
-0.017106465782661284 -0.19307458851862958 -1.4339110822682755 111 90 62
-0.01809272771031739 -0.19280213221622405 -1.4397130359539088 115 94 64
-0.013570621160823526 -0.19551944503088908 -1.4423941186491904 118 97 66
-0.007720562031492295 -0.19895666232482584 -1.4443055424233577 119 98 67
-0.0023310294340118665 -0.20214318229756206 -1.4464631652642606 115 95 62
0.003417478534548879 -0.20552361390792281 -1.4483988750459242 110 90 57
0.005858769279129206 -0.20710981213195576 -1.452224709746957 112 92 59
0.013148922804293028 -0.21132468006797542 -1.453240686346116 115 95 63
0.019037606522730455 -0.21477869475978087 -1.4550471113969783 111 90 59
0.02411778775578116 -0.217793648262848 -1.4573069916970343 105 84 53
0.03145418746110745 -0.22203039998785803 -1.4582325936622738 119 98 67
0.013458048973236547 -0.21254222613250578 -1.474005096563293 97 76 46
0.016067962352616483 -0.21421916455349113 -1.4777197791454442 111 90 60
0.02004269984415219 -0.21663498906513984 -1.4806233453109094 101 80 50
0.025341051904188006 -0.2197669605987013 -1.482731726338467 101 79 49
0.029371487767407778 -0.2222117992156845 -1.4855794557346178 102 79 47
0.03360528856704997 -0.22476619082751345 -1.4882954668373585 102 79 46
0.037217404492216666 -0.22698362161387184 -1.4913730837202823 107 84 50
0.04256987254251249 -0.23014217854145358 -1.4933952108989448 99 77 40
0.04358075113791582 -0.23095154153704403 -1.4980224465436187 99 77 40
0.04353800082327186 -0.23119121584423052 -1.5032902783670754 99 77 40
0.045864865357952256 -0.2327124753586963 -1.507124458388593 100 78 41
0.047458432128602734 -0.2338371601582508 -1.511402750859761 95 72 36
0.049841599482591925 -0.2353886093072952 -1.515197655774447 111 88 56
0.051651887347808956 -0.23663031312932647 -1.5193409857726758 70 46 21
0.05453199401404718 -0.2384499640028812 -1.522823994957704 78 55 30
0.05700424252071046 -0.2400490246467591 -1.5265536894047478 85 64 36
0.059652031490161794 -0.2417426971549068 -1.530170643863207 82 61 34
0.05952113744970072 -0.2419357664571358 -1.5355130823161978 82 61 35
0.060855635925509244 -0.24292029230964018 -1.5399472341758145 77 56 30
0.06274238402124321 -0.244202942604613 -1.5440361988561775 94 73 42
0.06537652048915515 -0.24588884577608852 -1.5476537236875436 99 78 42
0.06678273489226855 -0.24691201692911816 -1.5520416613969754 99 76 38
0.06612407456191866 -0.246821374090044 -1.5577378263264359 105 81 40
0.06584086393894317 -0.24693369442914392 -1.5632049343052992 114 88 45
0.06869617103753467 -0.24873874017658426 -1.5666791608647601 114 86 44
0.0711922367624433 -0.25034984161303336 -1.5703776793558553 117 93 53
0.07566288099047869 -0.2530250392571758 -1.5728050105998053 107 84 43
0.07865246506583085 -0.2549014835885549 -1.5761735839483881 111 85 44
0.0793008730309595 -0.2555162346812363 -1.5810485864930806 122 93 50
0.07842626530173352 -0.2553107713747568 -1.5869147535344599 135 108 62
0.0837364560872258 -0.2584367703041621 -1.5887691190065614 149 122 78
0.0835758978544014 -0.2586161804401982 -1.5941770672263318 156 128 88
0.10052410353607505 -0.26800650526738534 -1.5883920257638238 139 111 74
0.10467814761089705 -0.27050712039896685 -1.590944040118235 138 110 74
0.11204168901596873 -0.2747343181073963 -1.5913698392615312 133 107 72
0.11997110542001993 -0.2792647120507519 -1.5913963820852963 125 100 63
0.12861140819936223 -0.28417611976660073 -1.5909237553444289 139 115 79
0.135463434290714 -0.28812423203391463 -1.5916104197807188 133 109 72
0.1416152335995992 -0.2916946755890545 -1.592741531237228 127 103 69
0.1468217418590479 -0.2947559326511685 -1.5944857640781966 127 103 67
0.15281643779590537 -0.2982400259202192 -1.5956843523451574 132 106 73
0.16048678068744265 -0.30262359252639004 -1.5957337999628607 159 130 97
0.16695572848141216 -0.30636034906357085 -1.596569029177704 164 136 100
0.1733979569537843 -0.3100816702891912 -1.5974007881362295 142 118 84
0.176639186614364 -0.3120828326927483 -1.6003900717589221 113 89 54
0.1778169902539936 -0.31297569177767537 -1.6047809983336583 96 73 39
0.17875521225705915 -0.3137400128754503 -1.609337572660098 78 56 25
0.17848685591131436 -0.3138568738927895 -1.6147260163744144 69 48 23
0.18001420307294214 -0.31493771215656996 -1.6188841538652565 68 48 22
0.18095343604468972 -0.31570302954174523 -1.6234490829726018 70 50 25
0.18486994259798922 -0.3180654361801576 -1.6259505590847774 87 70 44
0.18541719248202815 -0.3186204722056837 -1.6307869369570671 96 80 48
0.18499139181524715 -0.31865401152779105 -1.6363071531119437 103 87 54
0.15999138797477352 -0.3055149597725717 -1.6590518372589709 109 91 59
0.1496612905875805 -0.3002439897071099 -1.6716043680386017 114 95 63
0.1403666299860703 -0.2955304781672777 -1.6834796137239203 105 86 54
0.1282754858012442 -0.2893212591638554 -1.6973808030526538 105 86 55
0.11875158264947894 -0.28449011356389786 -1.7095214018539533 99 80 49
0.11810089557104692 -0.2844129968951612 -1.7153965321978706 85 66 35
0.12008641342632265 -0.2857477535282772 -1.7193995611136226 89 70 39
0.11909729152220988 -0.28549018259454095 -1.725531016622236 82 64 36
0.1174404682494582 -0.2848758606093331 -1.7321535958938128 78 63 32
0.11815259713996862 -0.28552976111687806 -1.7370835280525196 78 62 27
0.12927878713390245 -0.29175468018476075 -1.7344893707143556 83 65 31
0.1323473715932041 -0.29366807731860345 -1.737694976864443 95 72 40
0.14069125314919906 -0.2984018780592025 -1.7370568029438485 99 76 44
0.11783920666142605 -0.2864569707164988 -1.759149034319105 96 73 39
0.13482382324437775 -0.2958095501645953 -1.7521962529920747 97 75 39
0.1408652321590858 -0.2993109371593675 -1.7532075905715834 96 73 39
0.13216231435644116 -0.2949340778677716 -1.7650562097294409 93 70 36
0.12302751295385655 -0.2903288624527568 -1.7772703336005744 92 69 37
0.14290063215299742 -0.30121712479743934 -1.7680406103269612 81 59 29
0.1427894666818223 -0.30143132941789486 -1.7735798634394682 78 58 34
0.14205897668961953 -0.3013153212613838 -1.7795884334633008 80 61 36
0.14197508979077755 -0.30154492126245 -1.7851239887064272 94 72 42
0.14284538128372992 -0.30228402248343667 -1.7899514456209809 73 52 24
0.14336554593345413 -0.30283650657677114 -1.7950455062494481 73 52 26
0.14520933067156316 -0.3040951757025413 -1.7991456075517163 76 55 27
0.14301923395708593 -0.30320280229015795 -1.8062975710604519 78 56 30
0.1436659178937177 -0.30382361994080614 -1.811313225037284 76 54 30
0.1461446132941639 -0.30542111119998994 -1.8149381646477587 73 51 27
0.14344861934952463 -0.30426088765158293 -1.8225110958669979 69 47 24
0.1412254089926181 -0.30335353323892733 -1.8297415026719617 69 47 26
0.1393859032878339 -0.3026514380373766 -1.8366946015914027 68 46 25
0.10710017532572919 -0.2857363831567228 -1.867126858444562 69 47 26
0.15520220909087246 -0.3116293501244128 -1.8355790842220339 66 46 24
0.1507652917564027 -0.3095447558810521 -1.844548233685398 66 48 26
0.15254628923290975 -0.3107706672307641 -1.8487102617017246 69 51 26
0.15779734942113532 -0.313842860270538 -1.8501650473234859 71 54 28
0.15345959488653632 -0.3118133602062922 -1.8591033813690487 67 50 24
0.15155544691332373 -0.3110795292181344 -1.866159926937232 64 47 21
0.14983817416411904 -0.31044587736013346 -1.8730856439024592 63 46 20
0.14591709598453956 -0.3086414376442299 -1.8817659909318936 64 47 21
0.1527804649621305 -0.3125701147544596 -1.8819357521198605 67 50 24
0.16936790572121924 -0.3216646672420795 -1.8743612020758718 69 52 26
0.17292585312997932 -0.32383370617369744 -1.8770906988784177 71 54 28
0.17009261550466265 -0.3226076753662237 -1.8849146132722057 67 48 22
0.17397432257146117 -0.32494845694119373 -1.8873812109561063 69 49 24
0.17478701234656202 -0.3256593449504115 -1.8923021651233782 69 49 24
0.17990112137643877 -0.32865354281702 -1.893761489465101 70 51 25
0.18080804458809185 -0.32941428985911475 -1.8986033639718023 68 51 25
0.1844577453766379 -0.3316303725008045 -1.9012258796602446 69 49 24
0.18201603956930867 -0.330614895176295 -1.9087889147007062 69 47 23
0.18189641211855767 -0.3308317958024996 -1.9144783534687373 69 47 24
0.1762267991071968 -0.3281065329195644 -1.924712399368465 66 44 21
0.1756670022674386 -0.3280915760941192 -1.930791903234228 71 49 26
0.1756692649013668 -0.3283749954876193 -1.936419477001092 76 54 31
0.17868966470801217 -0.33025791067501087 -1.9395660360731692 77 55 31
0.17721521875580937 -0.3297594863423541 -1.9464225685807508 78 56 32
0.18179343280292953 -0.33246726715492547 -1.9482742760230944 75 53 29
0.1811005280195413 -0.3323833902897235 -1.9544955535302981 75 54 28
0.18048780373827772 -0.33234250297336043 -1.960660833254945 84 63 36
0.1833546285444453 -0.3341436533768407 -1.9639261366663034 84 63 36
0.18285066025235686 -0.33416094833784316 -1.9700129025099404 84 63 36
0.18992708777148104 -0.3381887591213364 -1.9697326710702436 83 62 35
0.18543274672553584 -0.3360957292420613 -1.9791877920374452 83 62 33
0.18813222469306473 -0.3378079461629454 -1.9825857506759947 78 57 28
0.19129599146806348 -0.339765334231505 -1.985584415790517 74 53 25
0.1919838442936176 -0.34041378282061663 -1.9906821795512109 77 56 29
0.1928112755228677 -0.3411362011630612 -1.9956651771576863 79 58 32
0.20186294189421905 -0.34620344308100665 -1.993614242050942 81 59 35
0.20107761703351384 -0.3460734517862837 -1.9999686327663664 79 59 34
0.20649726750665237 -0.3492204478172391 -2.000994736200054 79 59 34
0.20133865923685512 -0.3467821617837935 -2.0111311433527774 79 59 33
0.21338827150450818 -0.3534277790529535 -2.006407947303267 90 70 43
0.2080394494320666 -0.3508903129047747 -2.0167331472815135 108 87 56
0.20339461797142588 -0.3487259246986438 -2.026479446524754 106 86 53
0.20563579556161365 -0.3501948758892074 -2.030246478894391 85 65 34
0.2097674342739569 -0.35266050084364975 -2.0323558135150157 82 61 32
0.216260096137382 -0.3563701712545432 -2.0323805792947125 82 61 31
0.22523032713295338 -0.36138444100411293 -2.030200816122601 84 63 32
0.22894802104753142 -0.36362918250323206 -2.032620333003286 83 62 31
0.2294410584045849 -0.36417463136642986 -2.0378831274479072 79 58 27
0.23125491939448195 -0.3654160005800928 -2.041979073900215 77 56 25
0.22935068954620602 -0.3646995207852013 -2.0493826556560166 77 56 25
0.22909510348252926 -0.36485180456442085 -2.0553321817240793 78 57 28
0.2248981963057839 -0.3629301850024085 -2.0648177082264008 77 56 27
0.22732612906511834 -0.36449589794947845 -2.068387113616509 73 52 24
0.22328526081001326 -0.36265841105842056 -2.0777730560898826 92 70 41
0.2303277737038581 -0.3666514892078079 -2.077186408821151 104 83 53
0.23100286537936887 -0.36729513549801773 -2.0823337710094743 92 72 40
0.2314521134844172 -0.36782028492078034 -2.0876905508681447 78 56 24
0.2320222589968809 -0.3684092568890771 -2.0929429940433644 77 53 23
0.2372463086949495 -0.37144382113925506 -2.0939549345525137 75 52 21
0.23843443280130422 -0.37235735000250714 -2.0986405775682844 75 52 21
0.24341596458203346 -0.37526322760167863 -2.099848653913176 75 52 21
0.24543638536064116 -0.37661348501178865 -2.1037632219547877 74 51 20
0.2476889803352243 -0.378085508222728 -2.107461451836377 76 53 22
0.2491896490682156 -0.37916274349790335 -2.1118516719180334 76 53 22
0.25181895449215846 -0.38083217608920567 -2.115195699708422 75 51 21
0.25987600070704736 -0.38534850598253223 -2.113487602620158 71 50 20
0.2595039166698356 -0.3854426990676476 -2.1196056749309915 72 52 23
0.2588298921495046 -0.38537907643540303 -2.126015857010864 72 51 22
0.2596977754788741 -0.38612425798555977 -2.1309920345016975 76 53 22
0.26195304351982635 -0.3875966794525705 -2.1346677537426095 76 53 21
0.26648046708971274 -0.3902593639924715 -2.1361985914210173 76 53 21
0.26891973067588476 -0.3918275270756083 -2.1396877757911335 76 53 22
0.27117521825737595 -0.39329923201126615 -2.1433467011601204 77 54 23
0.27386785909414335 -0.39499963055439613 -2.146586815642604 78 55 24
0.2742094005667399 -0.3954691472029418 -2.15206100871849 82 59 27
0.2833308834182269 -0.400533389576094 -2.1491548125198134 78 54 21
0.29208482093006793 -0.40540341235374966 -2.146562025460011 84 60 24
0.278860900213824 -0.39877655051178174 -2.1650384022069478 86 61 24
0.267530693113785 -0.393143714135616 -2.1817671995990136 91 65 30
0.2570174072413097 -0.3879412639246409 -2.197773585531195 94 68 31
0.37054704983855935 -0.4475719581772123 -2.0937642742841853 94 69 29
0.3319538838007452 -0.42768764144115656 -2.1368303757231835 93 68 28
0.31760117391914344 -0.42047650930231206 -2.156512801775917 94 69 29
0.3031155301034495 -0.4132000684267515 -2.176407053432908 98 73 33
0.2916328064361291 -0.4074956844827506 -2.19344633857222 100 76 36
0.2927927904003449 -0.4083941109369682 -2.1981513393368073 99 76 35
0.2885422992081017 -0.4064691108774187 -2.2081799257167316 99 76 35
0.2953985441155389 -0.41034039040829395 -2.2072859458655345 102 79 38
0.29617523860154693 -0.4110391772164462 -2.21237561755795 102 79 38
0.29695137984521425 -0.41173788363712777 -2.2174699889361027 100 77 36
0.2973613540542641 -0.4122459003783271 -2.2229324772791728 99 76 35
0.3134863253464742 -0.4209450574211039 -2.2127399763014295 99 76 35
0.3132553581050646 -0.42111764213958913 -2.218813958349873 98 75 34
0.3171087648933153 -0.42341844886254154 -2.220805608879818 98 75 34
0.3188400341208991 -0.4246134079161241 -2.224916794193959 99 76 35
0.32149602797764165 -0.4262898140721117 -2.228095858124968 98 74 35
0.32476862986559557 -0.4282869101126177 -2.230646601855414 93 71 34
0.3276859483230619 -0.4300986576476713 -2.233548004191999 79 62 27
0.32673185089904005 -0.4298957897336976 -2.2403715790632104 75 57 21
0.33008624336876397 -0.43193467986926326 -2.242824135483281 74 57 22
0.32825867303345796 -0.43127834746624266 -2.2505540812244185 68 52 17
0.3354811084163365 -0.435327938191401 -2.2490448043263886 63 47 14
0.33769065149651456 -0.4367705297148494 -2.2526464583301293 68 53 19
0.33926618056749047 -0.43788349858418424 -2.256896559873502 75 60 30
0.34111511062757593 -0.4391384930649618 -2.2608647418157863 76 66 45
0.34134173661258194 -0.4395508529199193 -2.266508080107945 106 100 86
0.3453935743867552 -0.4419497144125154 -2.2681948710453153 145 143 136
0.32804425583817015 -0.43323876342294454 -2.2921012853282017 177 176 175
0.32556753529496546 -0.4322511200793603 -2.3006184513603514 192 192 194
0.3257208146149936 -0.4326290675134869 -2.3064110160712863 200 200 202
0.3673365587758872 -0.45451347775167367 -2.2688040057361327 204 204 206
0.3940759653367114 -0.46867292844746544 -2.2465958991045354 207 207 208
0.3727225511212777 -0.4578933826167412 -2.274859401835401 209 209 209
0.31868044659402445 -0.43017801837621195 -2.337732001079394 210 210 210
0.3235212826013264 -0.43298777047375014 -2.338625634345571 210 210 210
0.5583012112889788 -0.5549079672925923 -2.0956797111040006 211 211 211
0.07954256638778243 -0.23146719385730596 -0.9985377863574862 187 188 190
0.08564781738117735 -0.23504844716198103 -1.0006034544653826 187 188 190
-0.20771679828826484 -0.07492252695444851 -1.1368262810234135 189 190 192
-0.16898501031955823 -0.09641268440649431 -1.1257211699984193 190 191 193
0.017216631011328976 -0.19871141456978403 -1.0523570156567468 190 191 193
0.057180590554528926 -0.2208486203886057 -1.0401775308708474 191 192 194
0.016551464508885477 -0.19882765033694358 -1.062104747759892 191 192 194
0.03132475414709182 -0.20716022028820258 -1.0605408615396406 192 193 195
0.04082620882824656 -0.21260322501471388 -1.0611873827654215 192 193 195
0.04666076513397846 -0.21603693330610452 -1.06338282501643 193 194 196
0.048410411789424235 -0.2172335554801606 -1.0673286078144146 195 195 197
0.05338753409417299 -0.22019667807197355 -1.0698714621945427 195 195 197
0.15400516824757257 -0.2761874700078033 -1.0442433869646424 196 197 199
0.1533979744174973 -0.2760855928556456 -1.0490457589752136 196 197 199
0.1454333975723377 -0.2719612995662276 -1.05713516099128 197 198 200
-0.35305610189034475 -0.011145965992902462 -1.5106061301569325 202 203 207
-0.28400334975123737 -0.04890925140992575 -1.4799699596663582 202 203 207
-0.30469945870223797 -0.03796838090279053 -1.496582869793807 202 203 207
-0.2740823461901496 -0.05486527868338131 -1.4860149082553848 202 203 207
-0.24407872309911838 -0.07142360032459588 -1.475658601754232 202 203 207
-0.2087301244473384 -0.09087428839104422 -1.4623269053340255 200 202 204
-0.18246745758443178 -0.10539252181859188 -1.4537435694797827 193 193 191
-0.16192426445567504 -0.11680572528575056 -1.4481469973156833 144 140 135
-0.14567567891583233 -0.12588778956113233 -1.444799982180479 120 113 105
-0.13174124429755663 -0.1337130489321196 -1.4426519538878506 118 107 94
-0.11664664109087747 -0.14216426037854513 -1.4398214928003499 112 99 82
-0.09966323727396859 -0.15163569017887146 -1.435902522449726 109 94 72
-0.08333554178320851 -0.1607489039736415 -1.4322818520592489 108 93 67
-0.06757192023475928 -0.16955370861682406 -1.428912805066526 110 93 67
-0.07874926519213882 -0.16377265527682722 -1.4404013318441393 112 94 67
-0.07192941343332859 -0.1677341332283362 -1.441941738234101 113 93 66
-0.026353515845428888 -0.19266490649131351 -1.4218476893713046 109 89 62
-0.0340516881812396 -0.18876622708474206 -1.4313928338543944 107 87 60
-0.03896983056918901 -0.1863731307934095 -1.439414144120636 110 90 63
-0.04118133191883083 -0.18544507042312675 -1.4459360554199407 115 94 66
-0.022460235617837 -0.1958354771386473 -1.440629247577769 118 97 68
-0.018660349187485048 -0.19815639267864238 -1.4437258059902125 119 98 67
-0.013468518834271359 -0.201229145403791 -1.4460200229893792 118 97 66
-0.007102119343757096 -0.20493583907069057 -1.4476276544029423 111 91 58
-0.0018859333696756853 -0.20802012668321726 -1.4498759213084613 112 92 59
0.004538630503639729 -0.2117563641048354 -1.4514131437972753 115 95 62
0.00658903112026743 -0.21312933414364751 -1.4554593035480656 117 97 65
0.009418166813548512 -0.21492267810722554 -1.4590517046250813 112 91 60
0.014082030011959568 -0.2177062160729603 -1.461570664304323 108 87 56
0.020788737269764324 -0.22159169777413942 -1.4628831987776865 99 78 47
0.02305162215266854 -0.22307809016346247 -1.466780337154764 117 96 65
0.02524908428720407 -0.22452904050209055 -1.4707131194892107 103 82 51
0.027445580625209964 -0.2259793384079564 -1.4746438832230604 97 76 44
0.021872878952872543 -0.22323947950489229 -1.4831761605074365 103 81 50
0.022923346737569628 -0.22407238741545873 -1.4877994137563697 106 83 51
0.02679809858384702 -0.22642798168506578 -1.4907394128057023 104 81 48
0.033143350912711866 -0.23011467846106193 -1.4921903747760394 100 77 43
0.03298369910129961 -0.23029493975998802 -1.497530480459544 97 75 39
0.040869062442488724 -0.23481009015292573 -1.4980264678684643 100 78 41
0.04044206189589011 -0.23484621799728356 -1.5035260123718561 103 81 44
0.0328863982392803 -0.23104347894745825 -1.513362518975495 102 80 42
0.03807151466270836 -0.2341031417909989 -1.5154742422558005 102 80 41
0.04339744300787102 -0.2372378426568503 -1.5174847243806402 98 75 40
0.046540670896694836 -0.2391969014969251 -1.5208185416252686 80 57 27
0.04908663000784225 -0.24083420770495922 -1.5245134323907976 76 54 29
0.050753730565884336 -0.24199844650254562 -1.5287471025991035 64 44 20
0.05289438137875385 -0.2434174016357881 -1.5326868451990199 70 50 26
0.052695977910822756 -0.24357823709206097 -1.5380789313198573 71 50 26
0.05124517967515052 -0.24306602007546957 -1.544260060996755 77 56 27
0.05578257194579256 -0.24577375296078147 -1.5467043464985657 96 75 42
0.05899587244476312 -0.2477691475773436 -1.549967979691643 103 81 44
0.060512977405905444 -0.24885266507532036 -1.5542939494958423 110 86 46
0.06027116151349804 -0.24899115266031424 -1.559732735091069 111 86 46
0.060923493648150584 -0.24961034736599053 -1.5646117447542696 120 94 55
0.06372111189740881 -0.2513819065042105 -1.5681285515492402 114 88 50
0.06558736858098219 -0.2526530960126929 -1.5722352066885295 107 83 43
0.06762531617298556 -0.25401639403703913 -1.576230534860896 113 89 43
0.07065114044508564 -0.25590982653541805 -1.5795884533972149 120 93 46
0.06891677324259954 -0.25524846060572437 -1.586012134602472 129 101 56
0.06723477177289122 -0.2546159098186055 -1.5924160802498075 143 116 71
0.07491396627816643 -0.2590055671380206 -1.5927525636566562 153 126 84
0.08136952751088283 -0.2627376480963626 -1.5938603506984887 146 118 78
0.09768214836798267 -0.2717539952978228 -1.588501123447449 141 113 76
0.10537315433253891 -0.2761451668004969 -1.5887349803845188 135 109 72
0.11198905938983544 -0.27995876265530667 -1.5896500584926359 133 108 73
0.12000711992470148 -0.28452261934536305 -1.5896172470603493 141 118 82
0.1274033351555579 -0.2887518954889696 -1.589968472747902 136 112 74
0.13511918862879507 -0.293151098519546 -1.5900818722829775 136 111 73
0.13834068975954233 -0.2951420403029501 -1.5931658598411158 138 114 82
0.1410956031557798 -0.2968827863736344 -1.596554726868359 116 93 61
0.14848564321100471 -0.30110453192959763 -1.596826896763677 131 107 74
0.1558791503381537 -0.3053268386709561 -1.5970712408101204 170 144 109
0.16145254075889065 -0.3085739086346642 -1.5985197436936258 160 133 97
0.16730450266123742 -0.3119691138751536 -1.5997617717467092 147 122 88
0.17255447313348699 -0.3150413686330801 -1.6013942405113213 106 84 48
0.17318872353884712 -0.315644473908271 -1.606159156748534 91 72 35
0.17491781337513096 -0.3168331356165278 -1.6101786836461556 72 52 20
0.17254893250570547 -0.3158312163455453 -1.6170108337448728 68 46 21
0.17516224394250995 -0.31749279728257773 -1.6204285256759285 66 46 20
0.17774129788580484 -0.3191358305471255 -1.6238650975081532 87 68 43
0.17917621314719723 -0.32016742172185375 -1.6280900992416305 96 78 52
0.17913976160690182 -0.32041318412958913 -1.633338637880942 105 88 57
0.17946697160550695 -0.3208534850818707 -1.638340381735772 104 88 55
0.15495562510885075 -0.3080334997300288 -1.6607292474002058 109 91 59
0.14049809441333178 -0.30058566727207503 -1.6761755666329254 107 88 56
0.13285677826785436 -0.29677887449420015 -1.6868926890385139 109 90 58
0.11394878696747374 -0.28696302190149103 -1.705609893597057 95 76 43
0.11250165976559745 -0.2864657492878563 -1.7120441589290185 112 93 60
0.11221266165219212 -0.28658679629587924 -1.7176685551113495 100 81 48
0.11280304279755132 -0.2871771436205948 -1.7226741476827927 95 76 43
0.11253523686605227 -0.2873102318036858 -1.7282980366359655 93 75 42
0.1131869054662416 -0.2879337870216875 -1.73327035823456 91 75 41
0.11519732161859253 -0.28928156451946 -1.7372687587038693 85 68 34
0.11640083760089559 -0.2901993762462073 -1.7418478489377032 92 72 40
0.1175854201414746 -0.2911071885029104 -1.7464423257819894 93 71 36
0.11944518177423752 -0.29237463046513446 -1.750548011384128 104 81 45
0.09875739815697365 -0.28163776762792275 -1.7710850885531575 96 74 37
0.132199078907488 -0.2997181589393516 -1.752150964646192 96 74 37
0.12657878111861892 -0.2970037246265041 -1.7617176370360852 96 73 39
0.13774651420978973 -0.3032230661892662 -1.758968097274739 91 68 34
0.1218594913783958 -0.2950487390327944 -1.7761368661474395 91 68 35
0.1182383555729496 -0.2934017124228827 -1.7843068151249424 79 58 27
0.12538073889713902 -0.29747893747562404 -1.784509989624006 77 59 32
0.13185489247023857 -0.3011996549639792 -1.7851855147175641 87 69 42
0.13731862018790236 -0.30438222404610094 -1.7865934814925903 90 68 38
0.1367268227543456 -0.3043462171124693 -1.7925203909878042 70 48 23
0.13781221554831652 -0.30520171303337656 -1.7971968456311527 69 47 24
0.1388262279164228 -0.3060194102296327 -1.8019293394111309 75 53 29
0.1402097580539089 -0.30703345722360764 -1.8063850398146872 76 55 28
0.14007771827094 -0.3072429350310557 -1.8119908843974488 73 51 26
0.14159814613316873 -0.3083299109051912 -1.8163476993357681 73 51 27
0.13853144600826645 -0.30698266778044025 -1.8242042363202136 69 47 24
0.13352035218918867 -0.30460491110523413 -1.8335699204833296 68 46 23
0.13154694079123624 -0.30383997929637385 -1.840634550548811 70 48 25
0.1433278055409382 -0.3103699869491019 -1.8371277350671367 72 50 26
0.14483675225302228 -0.311451451987413 -1.841504766577962 72 51 27
0.14533172905505837 -0.3119954473460617 -1.8466673464243017 70 51 26
0.14622910223034835 -0.31275295317637264 -1.8515224007255826 70 51 26
0.14690136242780893 -0.3133913445159019 -1.85655599048011 70 51 25
0.14907469641379717 -0.31482511190549295 -1.8604209449636615 69 50 25
0.14868429944287498 -0.3149009601975533 -1.8662922575666014 67 48 22
0.14894194433585312 -0.31532040757157376 -1.871663385483775 65 46 21
0.15089436248195548 -0.3166373384277411 -1.8757046715091161 68 49 24
0.15825593627497803 -0.32081701272398133 -1.875467532761371 69 50 25
0.1597105476146113 -0.3218697199564141 -1.8798875150937562 73 54 29
0.1607925457436497 -0.3227253374034625 -1.8846044282984362 74 55 30
0.16658450328282337 -0.3260721735567885 -1.8855667703829648 70 50 25
0.1706211704860342 -0.3284898426516659 -1.8879136052928838 71 51 26
0.16950124006697548 -0.32818082600052384 -1.8943862427338665 73 53 28
0.17033574203351076 -0.32890545456940123 -1.8992988382237495 72 53 28
0.17234574244576562 -0.3302514221942502 -1.9032662586927758 70 53 27
0.1738487580955672 -0.3313294444042342 -1.9076419973096568 70 49 25
0.17358569806068846 -0.3314746706540187 -1.9134517040166157 70 48 24
0.1735707728456809 -0.33175136966865426 -1.919068096167251 70 48 24
0.16636239767610395 -0.3282307079527667 -1.9305653043650897 69 47 23
0.17099957062777826 -0.3309645293077508 -1.9324044805965643 77 55 31
0.17101684917244825 -0.3312596790590857 -1.9380231129947731 77 55 31
0.1750869000473153 -0.3336933826686019 -1.9403113748206269 78 57 31
0.17761038257623135 -0.33531072917047267 -1.9438652355946275 79 58 32
0.17975263986127415 -0.3367268124665608 -1.9477304092971899 79 58 32
0.18015917875020981 -0.3372276532463661 -1.9530348259661061 85 63 37
0.1811921743582548 -0.33805898433709847 -1.9578229474248616 88 67 40
0.1833360082688305 -0.3394758369568208 -1.9616855922588416 87 66 39
0.18200601832254204 -0.3390623451070679 -1.968456257971414 86 65 38
0.1865142037543761 -0.34172473551118 -1.9703351189892901 85 64 37
0.18538246366938982 -0.34141635281182514 -1.9769526659967007 84 63 34
0.18340712964414752 -0.3406644875394428 -1.9842961742282432 80 59 30
0.18431685486454102 -0.34143209901237137 -1.9892117318558429 74 53 25
0.1855196454791721 -0.34235410117325077 -1.993881478030033 82 61 34
0.18581431548325628 -0.3427984131974643 -1.9993270921497373 79 58 31
0.18999423010242134 -0.3452866887493189 -2.001458105231341 81 60 33
0.1927239144988051 -0.34701168222509327 -2.0048196565202074 79 59 33
0.1992566243241396 -0.3507358587624996 -2.004906692648074 79 59 33
0.20442864731356358 -0.3537435953123119 -2.0061426522647907 80 60 33
0.2099685303315703 -0.35694376087685264 -2.007043195278784 97 77 49
0.20421693084508613 -0.3542105597016903 -2.0177126154603315 106 85 55
0.19918322957229334 -0.3518562562200887 -2.0277936670140306 93 73 42
0.20057144085874595 -0.3528759864013593 -2.032308795317729 84 63 33
0.20334934780688962 -0.35462537683967854 -2.0356100625379994 81 60 31
0.2112647410017559 -0.35907109017698635 -2.0344018932427383 82 61 31
0.21627480465326554 -0.3619906110866673 -2.035716719315286 84 63 32
0.22246286579066726 -0.3655273054928229 -2.035976315585979 83 62 31
0.2242453736229753 -0.36675206289558293 -2.0401076834472147 79 58 27
0.23472388545221706 -0.3725368870281667 -2.0365296304364953 78 57 26
0.22940717413455464 -0.3700385662092184 -2.04694802224677 78 57 27
0.2193280642217485 -0.36504579561362177 -2.0616453713022316 78 58 28
0.21875471942665925 -0.36503712769586166 -2.0679037531065574 77 57 27
0.22245992036008094 -0.36727049436838133 -2.0703379479187918 81 60 30
0.22620621945765756 -0.36952485403172536 -2.0727247120691943 99 78 47
0.22560897827441173 -0.36950421875108935 -2.0790153777230715 104 84 53
0.22659231110246625 -0.37031158516006846 -2.0838884458432854 82 61 31
0.22787417574764274 -0.37127535101060216 -2.088493964316495 78 56 24
0.2283265709689583 -0.3718051640953086 -2.0938547321908274 76 53 23
0.23372553322411105 -0.37492298466978113 -2.0947138407701247 75 52 21
0.23674877185996296 -0.37679731631356717 -2.097724599810152 73 50 19
0.23439946849252846 -0.37586208157283063 -2.1056504396970586 73 50 19
0.2375972583966388 -0.37782761136635235 -2.108499869905199 73 50 19
0.24024476101259623 -0.37950513571516853 -2.1118481398520745 76 53 22
0.24135870722917158 -0.3803811065465611 -2.1166076290537372 76 53 22
0.244513783816798 -0.3823234260204145 -2.119478935249424 75 51 21
0.2453144190433526 -0.3830357506811425 -2.12452898740986 74 52 24
0.24975247415024487 -0.3856474309528749 -2.1261956055778626 73 52 25
0.2584052914237714 -0.3904584350801805 -2.123912157909314 72 51 24
0.25651330949865564 -0.3897647181096351 -2.1314661292578014 77 53 25
0.25705351470995974 -0.39034084021628435 -2.136754221813216 77 54 22
0.2602370875149323 -0.3922960169158609 -2.1395591890219348 77 54 22
0.2661704746640665 -0.3956847364336485 -2.139760449228471 81 58 27
0.2685501672916153 -0.3972196318048826 -2.1433029578125122 78 55 24
0.2718641821599125 -0.3992413025823166 -2.14595470822285 76 53 22
0.2732854651778499 -0.400276246494088 -2.1503985976214044 82 59 27
0.27740334057702126 -0.4027160378206816 -2.1522704747518864 85 61 29
0.2679925476144674 -0.3981090717954503 -2.1670714411246874 87 63 27
0.25570683826010127 -0.3920079976886038 -2.184686208271125 88 63 26
0.26219053920163893 -0.39568126855239294 -2.18432031000145 91 65 30
0.25057382805807643 -0.3899331419541203 -2.201384001444797 92 66 30
0.3792204020733523 -0.4571683527370261 -2.0828956624942956 93 68 28
0.3405780968476399 -0.43735073947337344 -2.1259347770765546 93 68 28
0.29907474547113133 -0.4160557555914474 -2.171961772185833 100 75 35
0.285681559473986 -0.40938691611931005 -2.1908139926931645 105 80 40
0.2866758227779801 -0.4102003505074292 -2.1956839909269017 102 77 37
0.28780951777701896 -0.4110863931114507 -2.2004203747236017 100 77 36
0.28954745857914876 -0.41228646948457504 -2.204565442114344 98 75 34
0.2959675752131364 -0.4159183704498286 -2.204097835780334 95 72 31
0.2935156817438277 -0.4149421447672468 -2.212366813512807 96 73 32
0.2940615491667948 -0.4155231925864359 -2.217688416087757 97 74 33
0.29682728330864505 -0.41725660573088846 -2.220811539745316 101 78 37
0.3008734295334534 -0.4196540576094354 -2.2226539462000314 100 77 36
0.30246904369019206 -0.4207796964820845 -2.226929065847116 100 77 36
0.312306719200997 -0.4261796145343405 -2.222956941298084 99 76 35
0.31531795726138817 -0.4280380908629868 -2.22579002762793 99 76 35
0.31863673251324476 -0.4300555874792972 -2.228306196775864 97 73 34
0.321330033939358 -0.43174849920208846 -2.2314439350068294 93 71 34
0.3239772559829567 -0.43341723738188553 -2.234622325136565 80 63 28
0.32490087796728245 -0.43419298607111734 -2.239542300513376 77 59 24
0.32648887706375157 -0.4353129160281611 -2.2437903843788205 75 60 24
0.32612176999229164 -0.435420760510766 -2.25003064140398 77 61 26
0.3310928327394578 -0.43829175951982025 -2.250827254367434 68 52 19
0.33572788929015 -0.4409879957060492 -2.2519499979847124 70 55 22
0.33946836326756347 -0.44322067607715704 -2.253975150746167 76 63 35
0.33882143112464724 -0.44318394904294467 -2.2605061205589907 81 71 52
0.33798776480909115 -0.4430512788827867 -2.2672415868141886 118 114 101
0.34086534413404146 -0.44483741541138977 -2.2701488396465606 158 157 150
0.3423966844361479 -0.44592757348058015 -2.2744459572193483 183 181 181
0.3216545442084398 -0.435511718924133 -2.3019141640630294 195 195 197
0.31637282269244427 -0.4330863570433099 -2.313376985004127 201 201 203
0.36368982687926804 -0.4578199769869429 -2.269876871554633 205 205 207
0.3905711854967601 -0.471992842780387 -2.2475546462305838 208 208 209
0.3946141381150353 -0.4743733836607529 -2.249099835358107 210 210 210
0.3178514966512888 -0.43506577697692594 -2.3357768920134556 210 210 210
0.3125431712582037 -0.4326329708081332 -2.347391429528672 210 210 210
1.3320262578326045 -0.971811183966139 -1.5336684063247479 214 214 214
1.3018087948441335 -0.9567492915878771 -1.5758917300369526 214 214 214
1.3007318274398112 -0.956397014571877 -1.5810306849016516 214 214 214
0.07260836904221996 -0.23263073369479453 -1.000330063087658 187 188 190
0.07103631691527973 -0.23200759677956068 -1.005565335112022 188 189 191
-0.16401747754653356 -0.10433302589320426 -1.1174072266350341 189 190 192
-0.1484439325180838 -0.11309742571564224 -1.1159337479703686 189 190 192
-0.251962557792655 -0.05683475449821829 -1.164522704565858 190 191 193
0.031952129586820976 -0.21209387016788733 -1.0497469816353415 191 192 194
0.0266846741179734 -0.20946067393109388 -1.0566857260112212 191 192 194
0.0001929374351184454 -0.19524643048090376 -1.0727000775034352 192 193 195
0.011445623489082346 -0.2016315328858415 -1.0726538585321048 192 193 195
0.03255870870865826 -0.21339379314301368 -1.0683294972916806 193 194 196
0.02992771233504829 -0.21220170412118225 -1.0741899027428576 194 194 196
0.028345858689651393 -0.21158253737609445 -1.0796105695176408 195 195 197
0.1584600984264642 -0.2834640787692255 -1.0411747656815524 196 197 199
0.15291707306630908 -0.28067641973187485 -1.0481516589391604 197 198 200
0.15462159339381593 -0.2818381695313077 -1.051927945690513 197 198 200
-0.29416056844873306 -0.04929710827326561 -1.4837386258930407 202 203 207
-0.2900811059285429 -0.051793342798432285 -1.4872498969021246 202 203 207
-0.312349676174342 -0.04005221439024387 -1.5047397037671841 202 203 207
-0.2830759664382618 -0.05616105033645985 -1.4948591930795816 202 203 207
-0.24127898812537263 -0.07902845673025516 -1.4781698664310106 201 203 207
-0.21026409621172193 -0.09606494625276091 -1.4671087649853565 201 202 205
-0.18606132543999632 -0.10941733533355269 -1.4596010919076852 199 199 198
-0.1631148354191258 -0.1220869007562837 -1.452682472866759 153 151 148
