ply
format ascii 1.0
element vertex 858
property float x
property float y
property float z
property float nx
property float ny
property float nz
property uchar diffuse_red
property uchar diffuse_green
property uchar diffuse_blue
property uchar class
property uchar detection
end_header
-0.2624 0.2068 -1.7953 -0.745 0.444 0.498 96 73 39 0 0
-0.3273 0.2721 -2.0768 -0.471 0.715 0.517 86 63 29 0 0
-0.3286 0.2734 -2.0875 -0.617 0.662 0.426 105 81 44 0 0
-0.3303 0.2751 -2.0917 -0.540 0.692 0.479 102 79 38 0 0
-0.3344 0.2791 -2.0994 -0.320 0.702 0.636 128 101 67 0 0
-0.3415 0.2861 -2.1098 -0.420 0.774 0.474 100 77 45 0 0
-0.3418 0.2864 -2.1216 -0.678 0.719 0.152 89 67 31 0 0
-0.3856 0.3296 -2.2124 -0.607 0.629 0.486 99 76 37 0 0
-0.3871 0.3311 -2.2167 -0.596 0.609 0.524 105 82 42 0 0
-0.4115 0.3551 -2.2617 -0.535 0.475 0.699 113 103 84 0 0
-0.0949 0.0432 -0.9213 -0.477 -0.064 0.877 119 101 81 0 0
-0.1436 0.0914 -1.0426 -0.332 0.932 0.145 77 56 31 0 0
-0.1418 0.0905 -1.1263 -0.254 0.947 0.195 86 65 36 0 0
-0.1435 0.0922 -1.1303 -0.489 0.871 -0.049 87 66 38 0 0
-0.1433 0.0920 -1.1354 -0.489 0.871 -0.049 88 67 40 0 0
-0.1384 0.0896 -1.3518 -0.715 0.013 0.699 174 140 80 0 0
-0.1360 0.0873 -1.3586 -0.851 0.439 0.287 176 144 85 0 0
-0.1671 0.1175 -1.3754 -0.682 0.492 0.540 132 107 74 0 0
-0.2117 0.1610 -1.4397 -0.638 0.587 0.498 92 70 30 0 0
-0.2442 0.1935 -1.5538 -0.910 0.414 0.041 66 45 23 0 0
-0.2597 0.2087 -1.5902 -0.569 0.784 0.250 176 151 105 0 0
-0.2644 0.2133 -1.5919 -0.166 0.791 0.589 145 119 77 0 0
-0.2874 0.2363 -1.6707 -0.771 0.191 -0.608 108 83 49 0 0
-0.2600 0.2112 -1.7944 -0.769 0.518 0.376 98 75 41 0 0
-0.2763 0.2273 -1.8424 -0.643 0.765 -0.041 85 62 30 0 0
-0.2925 0.2438 -1.9311 -0.782 0.611 0.122 84 61 29 0 0
-0.2935 0.2449 -1.9360 -0.659 0.745 0.105 83 58 27 0 0
-0.3131 0.2644 -1.9928 -0.349 0.769 0.535 83 59 25 0 0
-0.3061 0.2578 -2.0117 -0.640 0.581 0.503 83 59 25 0 0
-0.3434 0.2947 -2.1161 -0.776 0.408 0.481 89 67 32 0 0
-0.3907 0.3412 -2.2086 -0.401 0.418 0.815 103 80 40 0 0
-0.1413 0.0948 -0.9848 -0.220 0.730 0.647 74 55 30 0 0
-0.1413 0.0949 -0.9895 -0.281 0.885 0.371 82 62 37 0 0
-0.1364 0.0907 -1.0300 -0.418 0.860 0.293 59 37 15 0 0
-0.1368 0.0911 -1.0346 -0.430 0.897 0.101 77 56 29 0 0
-0.1390 0.0933 -1.0432 -0.562 0.815 0.142 78 57 31 0 0
-0.1365 0.0910 -1.0493 -0.321 0.923 0.213 77 56 31 0 0
-0.1553 0.1108 -1.2066 -0.433 0.612 0.661 101 79 50 0 0
-0.1572 0.1127 -1.2155 -0.791 0.573 -0.212 92 72 45 0 0
-0.1292 0.0874 -1.3450 -0.805 0.112 0.582 201 172 114 0 0
-0.1316 0.0896 -1.3488 -0.588 0.223 0.777 194 162 102 0 0
-0.1338 0.0919 -1.3579 -0.651 0.634 0.418 171 139 78 0 0
-0.2075 0.1634 -1.4351 -0.696 0.622 0.359 100 82 41 0 0
-0.2085 0.1645 -1.4396 -0.638 0.587 0.498 98 75 36 0 0
-0.2113 0.1673 -1.4482 -0.768 0.584 0.263 83 63 27 0 0
-0.2572 0.2128 -1.5842 -0.453 0.795 0.403 165 143 99 0 0
-0.2591 0.2147 -1.5881 -0.420 0.751 0.509 163 138 88 0 0
-0.2610 0.2166 -1.5919 -0.423 0.731 0.536 175 150 103 0 0
-0.2627 0.2201 -1.7609 -0.275 0.923 0.268 90 69 37 0 0
-0.2631 0.2205 -1.7662 -0.524 0.847 0.092 60 40 15 0 0
-0.2709 0.2289 -1.8442 -0.752 0.457 0.475 85 62 30 0 0
-0.2739 0.2319 -1.8530 -0.540 0.614 0.575 87 62 30 0 0
-0.2759 0.2338 -1.8569 -0.540 0.614 0.575 87 62 31 0 0
-0.2778 0.2357 -1.8608 -0.540 0.614 0.575 88 64 32 0 0
-0.3352 0.2939 -2.1456 -0.699 0.670 0.250 84 62 25 0 0
-0.3957 0.3531 -2.2479 -0.606 0.592 0.532 102 81 39 0 0
-0.3956 0.3531 -2.2542 -0.618 0.770 0.158 108 86 45 0 0
-0.1311 0.0908 -0.9360 -0.663 0.565 0.491 85 64 30 0 0
-0.1309 0.0911 -0.9833 -0.491 0.839 0.236 67 49 24 0 0
-0.1363 0.0964 -0.9856 -0.350 0.662 0.663 77 60 34 0 0
-0.1151 0.0770 -1.0580 -0.907 0.358 0.223 76 56 28 0 0
-0.1153 0.0772 -1.0629 -0.919 0.378 0.108 75 53 28 0 0
-0.1249 0.0892 -1.2936 -0.642 0.601 0.475 38 24 12 0 0
-0.1322 0.0970 -1.3567 -0.679 0.393 0.620 169 137 81 0 0
-0.1766 0.1399 -1.3961 -0.732 0.431 0.528 169 137 92 0 0
-0.2139 0.1765 -1.4650 -0.886 0.441 0.145 82 61 31 0 0
-0.2426 0.2052 -1.5714 -0.735 0.399 0.548 144 121 84 0 0
-0.2522 0.2146 -1.5855 -0.503 0.516 0.693 132 116 81 0 0
-0.2558 0.2180 -1.5881 -0.498 0.330 0.802 148 127 91 0 0
-0.2588 0.2209 -1.5911 -0.498 0.330 0.802 156 132 93 0 0
-0.2636 0.2255 -1.5927 -0.300 0.169 0.939 159 136 95 0 0
-0.2556 0.2200 -1.7641 -0.527 0.840 0.128 99 78 43 0 0
-0.2545 0.2191 -1.7763 -0.520 0.854 -0.018 60 39 15 0 0
-0.2606 0.2249 -1.7766 -0.426 0.805 0.413 96 73 44 0 0
-0.2815 0.2465 -1.9119 -0.553 0.571 0.607 85 60 29 0 0
-0.2831 0.2482 -1.9162 -0.582 0.628 0.517 87 64 33 0 0
-0.2848 0.2498 -1.9203 -0.617 0.606 0.502 92 69 38 0 0
-0.2865 0.2515 -1.9245 -0.772 0.540 0.336 90 67 36 0 0
-0.3308 0.2963 -2.1224 -0.333 0.799 0.500 87 65 31 0 0
-0.3756 0.3401 -2.1999 -0.513 0.683 0.521 91 69 30 0 0
-0.3774 0.3419 -2.2039 -0.513 0.683 0.521 99 77 36 0 0
-0.1306 0.0967 -0.9489 -0.730 0.441 0.522 65 47 24 0 0
-0.1108 0.0788 -1.0246 -0.412 0.782 0.467 77 56 32 0 0
-0.1127 0.0808 -1.0334 -0.696 0.711 0.098 66 45 22 0 0
-0.1130 0.0811 -1.0381 -0.696 0.711 0.098 69 49 25 0 0
-0.1133 0.0815 -1.0428 -0.696 0.711 0.098 75 55 30 0 0
-0.1108 0.0791 -1.0488 -0.893 0.324 0.313 74 54 28 0 0
-0.1119 0.0802 -1.0532 -0.893 0.324 0.313 75 56 28 0 0
-0.1133 0.0817 -1.0622 -0.936 0.321 0.142 77 59 32 0 0
-0.1130 0.0815 -1.0672 -0.938 0.346 0.036 73 54 30 0 0
-0.1127 0.0813 -1.0722 -0.948 0.318 -0.017 73 54 29 0 0
-0.1138 0.0824 -1.0766 -0.927 0.330 -0.176 65 47 22 0 0
-0.1261 0.0950 -1.1442 -0.498 0.780 0.380 79 57 33 0 0
-0.1229 0.0941 -1.3083 -0.795 0.440 0.417 44 28 12 0 0
-0.1222 0.0935 -1.3139 -0.852 0.465 0.242 56 37 20 0 0
-0.1731 0.1432 -1.4014 -0.729 0.495 0.472 173 144 98 0 0
-0.2088 0.1779 -1.4505 -0.705 0.374 0.603 98 78 41 0 0
-0.2129 0.1819 -1.4582 -0.569 0.355 0.742 102 81 50 0 0
-0.2485 0.2175 -1.5858 -0.401 0.558 0.727 147 130 92 0 0
-0.2521 0.2211 -1.5884 -0.403 0.492 0.772 135 118 79 0 0
-0.2549 0.2238 -1.5915 -0.403 0.492 0.772 181 162 119 0 0
-0.2519 0.2232 -1.7644 -0.657 0.752 -0.051 106 85 49 0 0
-0.2564 0.2276 -1.7774 -0.426 0.805 0.413 94 71 42 0 0
-0.2536 0.2251 -1.7968 -0.870 0.249 0.426 120 95 60 0 0
-0.2703 0.2416 -1.8387 -0.495 0.714 0.495 87 62 31 0 0
-0.2724 0.2443 -1.8883 -0.659 0.551 0.512 89 66 34 0 0
-0.2776 0.2495 -1.9066 -0.683 0.694 0.227 83 58 27 0 0
-0.3022 0.2745 -2.0171 -0.504 0.536 0.677 81 56 26 0 0
-0.3275 0.2998 -2.1162 -0.430 0.571 0.699 86 66 31 0 0
-0.3729 0.3443 -2.2053 -0.449 0.732 0.512 101 79 41 0 0
-0.1233 0.0961 -0.9555 -0.491 0.547 0.678 68 50 26 0 0
-0.1226 0.0959 -0.9841 -0.545 0.825 0.147 72 50 27 0 0
-0.1236 0.0969 -0.9884 -0.491 0.839 0.236 77 56 32 0 0
-0.1066 0.0812 -1.0250 -0.404 0.755 0.516 81 60 35 0 0
-0.1074 0.0820 -1.0295 -0.441 0.787 0.431 71 53 29 0 0
-0.1085 0.0831 -1.0338 -0.566 0.725 0.393 66 48 24 0 0
-0.1097 0.0844 -1.0381 -0.696 0.711 0.098 74 56 32 0 0
-0.1123 0.0875 -1.0806 -0.764 0.512 -0.393 81 69 51 0 0
-0.1300 0.1080 -1.3486 -0.448 0.264 0.854 192 157 99 0 0
-0.1515 0.1287 -1.3716 -0.564 0.631 0.532 121 100 70 0 0
-0.2043 0.1805 -1.4830 -0.773 0.474 0.422 59 40 16 0 0
-0.2438 0.2195 -1.5815 -0.558 0.800 0.220 124 101 64 0 0
-0.2448 0.2205 -1.5862 -0.431 0.558 0.709 177 155 105 0 0
-0.2493 0.2248 -1.5880 -0.599 0.413 0.686 151 130 84 0 0
-0.2524 0.2278 -1.5910 -0.387 0.346 0.855 153 129 88 0 0
-0.2508 0.2288 -1.7737 -0.607 0.782 0.144 56 35 13 0 0
-0.2640 0.2424 -1.8470 -0.526 0.724 0.446 86 62 28 0 0
-0.2695 0.2482 -1.8879 -0.750 0.546 0.374 91 68 37 0 0
-0.2721 0.2509 -1.8970 -0.750 0.546 0.374 84 61 30 0 0
-0.2734 0.2522 -1.9015 -0.750 0.546 0.374 83 58 27 0 0
-0.2745 0.2533 -1.9063 -0.711 0.628 0.316 83 58 27 0 0
-0.2953 0.2745 -2.0148 -0.392 0.882 0.261 82 57 27 0 0
-0.3122 0.2916 -2.0807 -0.773 0.627 0.097 88 64 27 0 0
-0.3239 0.3032 -2.1164 -0.495 0.738 0.458 86 67 34 0 0
-0.3262 0.3054 -2.1199 -0.430 0.571 0.699 85 63 29 0 0
-0.3684 0.3467 -2.2004 -0.554 0.706 0.442 96 74 37 0 0
-0.3856 0.3635 -2.2355 -0.690 0.599 0.405 106 84 43 0 0
-0.3857 0.3637 -2.2415 -0.723 0.534 0.438 105 83 43 0 0
-0.3860 0.3641 -2.2473 -0.758 0.614 0.219 104 83 40 0 0
-0.1172 0.0966 -0.9520 -0.436 0.850 0.295 63 43 20 0 0
-0.1183 0.0977 -0.9562 -0.369 0.921 0.127 75 55 31 0 0
-0.1187 0.0981 -0.9607 -0.369 0.921 0.127 72 52 28 0 0
-0.1195 0.0993 -0.9888 -0.491 0.839 0.236 78 57 33 0 0
-0.1022 0.0834 -1.0256 -0.459 0.687 0.564 79 59 33 0 0
-0.1040 0.0851 -1.0296 -0.619 0.691 0.373 72 55 30 0 0
-0.1209 0.1018 -1.0699 -0.806 -0.586 0.077 175 172 167 0 0
-0.1164 0.0977 -1.0769 -0.918 0.130 -0.375 184 180 176 0 0
-0.1152 0.0966 -1.0824 -0.891 -0.107 -0.440 186 183 179 0 0
-0.1345 0.1173 -1.2411 -0.798 0.339 -0.498 49 34 13 0 0
-0.1315 0.1145 -1.2479 -0.798 0.339 -0.498 59 44 22 0 0
-0.1259 0.1100 -1.3024 -0.462 0.767 0.445 43 28 11 0 0
-0.1468 0.1309 -1.3724 -0.558 0.644 0.522 115 94 63 0 0
-0.1714 0.1547 -1.4034 -0.510 0.610 0.606 163 133 96 0 0
-0.2027 0.1856 -1.4817 -0.716 0.556 0.422 57 39 17 0 0
-0.2055 0.1883 -1.4903 -0.320 0.449 0.834 118 97 77 0 0
-0.2079 0.1913 -1.5419 -0.177 0.656 0.734 65 45 21 0 0
-0.2481 0.2302 -1.5863 -0.774 -0.041 0.631 194 172 131 0 0
-0.2492 0.2313 -1.5908 -0.590 0.113 0.799 153 130 92 0 0
-0.2473 0.2320 -1.7625 -0.741 0.591 0.320 102 82 43 0 0
-0.2495 0.2346 -1.7944 -0.885 0.452 0.109 111 86 51 0 0
-0.2496 0.2347 -1.8000 -0.757 0.564 0.332 114 91 57 0 0
-0.2757 0.2612 -1.9135 -0.329 0.844 0.423 89 66 35 0 0
-0.2994 0.2855 -2.0367 -0.530 0.845 0.065 160 135 93 0 0
-0.3158 0.3014 -2.0614 -0.833 0.282 0.476 82 58 24 0 0
-0.3097 0.2960 -2.0857 -0.375 0.868 0.326 99 73 35 0 0
-0.3331 0.3188 -2.1269 -0.658 0.530 0.536 86 62 28 0 0
-0.3253 0.3120 -2.1657 -0.694 0.629 0.349 87 64 31 0 0
-0.3578 0.3432 -2.1903 -0.561 0.736 0.379 87 64 29 0 0
-0.3870 0.3717 -2.2421 -0.688 0.613 0.389 102 81 38 0 0
-0.1117 0.0976 -0.9482 -0.269 0.864 0.426 72 51 30 0 0
-0.1128 0.0987 -0.9525 -0.334 0.887 0.318 65 45 21 0 0
-0.1140 0.0999 -0.9567 -0.289 0.924 0.252 79 59 34 0 0
-0.0963 0.0842 -1.0268 -0.467 0.469 0.750 81 61 33 0 0
-0.1041 0.0918 -1.0425 -0.898 -0.084 0.432 87 77 64 0 0
-0.1627 0.1527 -1.3913 -0.412 0.625 0.663 164 133 87 0 0
-0.1650 0.1551 -1.4002 -0.664 0.595 0.453 173 148 109 0 0
-0.1666 0.1566 -1.4044 -0.698 0.617 0.364 150 122 86 0 0
-0.1706 0.1604 -1.4070 -0.501 0.693 0.519 171 141 108 0 0
-0.1696 0.1597 -1.4128 -0.546 0.640 0.541 118 94 63 0 0
-0.2935 0.2802 -1.6225 -0.620 0.628 0.470 107 85 49 0 0
-0.2401 0.2318 -1.7602 -0.534 0.743 0.404 114 91 53 0 0
-0.2472 0.2391 -1.7934 -0.864 0.465 0.192 112 87 51 0 0
-0.2645 0.2569 -1.8920 -0.386 0.826 0.411 90 67 36 0 0
-0.2660 0.2584 -1.8964 -0.386 0.826 0.411 85 61 30 0 0
-0.2735 0.2659 -1.9240 -0.751 0.632 0.194 89 64 34 0 0
-0.2802 0.2728 -1.9583 -0.720 0.434 0.542 94 71 38 0 0
-0.3314 0.3240 -2.1310 -0.565 0.648 0.510 84 61 27 0 0
-0.3629 0.3552 -2.2172 -0.684 0.510 0.522 104 81 42 0 0
-0.1295 0.1249 -1.2100 -0.497 0.501 0.709 132 111 76 0 0
-0.1317 0.1271 -1.2137 -0.604 0.519 0.605 138 113 76 0 0
-0.1384 0.1360 -1.3683 -0.722 0.423 0.548 135 114 79 0 0
-0.1606 0.1573 -1.3957 -0.543 0.507 0.669 139 114 75 0 0
-0.1644 0.1610 -1.4037 -0.594 0.577 0.561 186 160 123 0 0
-0.1668 0.1634 -1.4073 -0.501 0.693 0.519 160 131 96 0 0
-0.1679 0.1645 -1.4118 -0.497 0.741 0.451 151 125 93 0 0
-0.1932 0.1889 -1.4470 -0.578 0.713 0.397 95 74 42 0 0
-0.2160 0.2125 -1.5683 -0.795 0.599 -0.090 80 59 32 0 0
-0.2923 0.2855 -1.6316 -0.731 0.639 0.237 101 78 44 0 0
-0.2381 0.2365 -1.7591 -0.609 0.616 0.499 108 85 46 0 0
-0.2398 0.2381 -1.7632 -0.609 0.616 0.499 116 92 53 0 0
-0.2447 0.2429 -1.7702 -0.841 0.403 0.361 50 33 10 0 0
-0.2459 0.2441 -1.7748 -0.772 0.480 0.416 83 62 35 0 0
-0.2697 0.2690 -1.9185 -0.425 0.713 0.558 96 73 42 0 0
-0.2708 0.2702 -1.9291 -0.801 0.523 0.291 84 59 29 0 0
-0.2818 0.2816 -1.9944 -0.675 0.471 0.568 75 49 20 0 0
-0.2857 0.2858 -2.0200 -0.839 0.411 0.357 78 52 25 0 0
-0.3295 0.3291 -2.1415 -0.675 0.690 0.262 84 61 28 0 0
-0.3631 0.3622 -2.2253 -0.739 0.581 0.340 110 87 46 0 0
-0.1611 0.1644 -1.4037 -0.594 0.577 0.561 168 143 99 0 0
-0.1644 0.1677 -1.4119 -0.690 0.623 0.368 155 128 95 0 0
-0.1969 0.1997 -1.4894 -0.538 0.615 0.576 220 194 146 0 0
-0.1989 0.2016 -1.4932 -0.538 0.615 0.576 192 160 106 0 0
-0.2003 0.2030 -1.4975 -0.478 0.650 0.591 168 144 93 0 0
-0.1968 0.2003 -1.5320 -0.791 0.603 -0.100 75 52 24 0 0
-0.2137 0.2168 -1.5676 -0.879 0.474 0.046 80 60 33 0 0
-0.2288 0.2313 -1.5829 -0.812 0.456 0.365 101 81 48 0 0
-0.2863 0.2863 -1.6338 -0.397 0.849 0.348 97 75 41 0 0
-0.2875 0.2875 -1.6381 -0.397 0.849 0.348 94 74 39 0 0
-0.2884 0.2884 -1.6428 -0.426 0.867 0.259 90 65 32 0 0
-0.2841 0.2846 -1.6517 -0.866 0.494 0.071 113 88 53 0 0
-0.2425 0.2475 -1.7691 -0.763 0.474 0.439 48 32 11 0 0
-0.2413 0.2466 -1.7871 -0.966 0.079 0.247 99 75 41 0 0
-0.2732 0.2792 -1.9293 -0.432 0.894 0.120 84 59 28 0 0
-0.2740 0.2809 -1.9870 -0.555 0.601 0.575 87 63 32 0 0
-0.2788 0.2855 -1.9940 -0.675 0.471 0.568 77 52 25 0 0
-0.2807 0.2874 -1.9980 -0.675 0.471 0.568 77 52 25 0 0
-0.2827 0.2893 -2.0019 -0.675 0.471 0.568 78 52 25 0 0
-0.2775 0.2849 -2.0308 -0.410 0.755 0.511 78 52 24 0 0
-0.2931 0.3003 -2.0745 -0.198 0.659 0.726 84 60 26 0 0
-0.3153 0.3218 -2.1050 -0.296 0.523 0.799 107 84 49 0 0
-0.3606 0.3666 -2.2304 -0.744 0.617 0.256 101 78 37 0 0
-0.0976 0.1036 -0.9785 -0.359 0.911 0.202 49 32 14 0 0
-0.0863 0.0965 -1.1747 -0.033 0.856 0.515 88 71 42 0 0
-0.0935 0.1035 -1.1809 -0.268 0.806 0.527 56 45 28 0 0
-0.1248 0.1334 -1.2139 -0.428 0.542 0.723 128 106 76 0 0
-0.1275 0.1360 -1.2174 -0.428 0.542 0.723 160 137 100 0 0
-0.1595 0.1695 -1.4077 -0.505 0.698 0.507 174 143 97 0 0
-0.1639 0.1737 -1.4100 -0.722 0.666 0.189 190 163 119 0 0
-0.1936 0.2030 -1.4894 -0.600 0.590 0.541 222 199 143 0 0
-0.1957 0.2050 -1.4932 -0.581 0.542 0.607 208 175 116 0 0
-0.2090 0.2187 -1.5579 -0.880 0.409 0.242 59 39 21 0 0
-0.2125 0.2222 -1.5713 -0.920 0.225 0.322 94 75 40 0 0
-0.2154 0.2250 -1.5745 -0.290 0.878 0.380 149 124 85 0 0
-0.2227 0.2321 -1.5850 -0.532 0.446 0.720 113 93 58 0 0
-0.2259 0.2351 -1.5880 -0.382 0.307 0.871 155 133 91 0 0
-0.2792 0.2861 -1.6369 -0.752 0.635 0.177 97 74 41 0 0
-0.2804 0.2873 -1.6413 -0.672 0.713 0.200 95 73 36 0 0
-0.2810 0.2880 -1.6461 -0.672 0.713 0.200 90 64 29 0 0
-0.2816 0.2886 -1.6510 -0.703 0.598 0.386 118 92 57 0 0
-0.2353 0.2462 -1.7111 -0.715 0.679 0.165 116 90 53 0 0
-0.2374 0.2495 -1.7876 -0.761 0.490 0.425 100 75 43 0 0
-0.2388 0.2510 -1.7919 -0.761 0.490 0.425 98 73 38 0 0
-0.2444 0.2564 -1.8040 -0.471 0.639 0.609 69 52 25 0 0
-0.2465 0.2585 -1.8078 -0.471 0.639 0.609 73 52 28 0 0
-0.2685 0.2816 -1.9423 -0.725 0.667 0.173 80 57 26 0 0
-0.2705 0.2843 -1.9871 -0.555 0.601 0.575 83 60 29 0 0
-0.2770 0.2906 -1.9983 -0.586 0.502 0.636 78 54 28 0 0
-0.2758 0.2900 -2.0291 -0.662 0.672 0.332 78 52 23 0 0
-0.2755 0.2898 -2.0353 -0.551 0.519 0.654 109 84 53 0 0
-0.2773 0.2917 -2.0394 -0.417 0.543 0.729 84 65 32 0 0
-0.2799 0.2941 -2.0427 -0.417 0.543 0.729 71 53 23 0 0
-0.3172 0.3303 -2.1053 -0.524 0.747 0.409 86 66 33 0 0
-0.3562 0.3690 -2.2194 -0.627 0.654 0.424 106 83 42 0 0
-0.3697 0.3820 -2.2404 -0.733 0.511 0.449 100 77 35 0 0
-0.0924 0.1050 -0.9794 -0.339 0.923 0.183 60 43 23 0 0
-0.0888 0.1055 -1.1816 -0.268 0.806 0.527 57 43 21 0 0
-0.1239 0.1391 -1.2176 -0.632 0.415 0.654 142 121 79 0 0
-0.0997 0.1178 -1.2926 -0.634 0.593 0.496 47 32 13 0 0
-0.1014 0.1194 -1.2967 -0.634 0.593 0.496 58 40 20 0 0
-0.1895 0.2057 -1.4899 -0.424 0.718 0.552 206 179 123 0 0
-0.1914 0.2075 -1.4938 -0.423 0.689 0.589 189 155 97 0 0
-0.2094 0.2258 -1.5712 -0.530 0.527 0.665 87 66 29 0 0
-0.2123 0.2286 -1.5743 -0.570 0.784 0.244 154 129 88 0 0
-0.2762 0.2897 -1.6367 -0.752 0.635 0.177 99 76 40 0 0
-0.2770 0.2905 -1.6414 -0.672 0.713 0.200 101 79 40 0 0
-0.2777 0.2912 -1.6462 -0.672 0.713 0.200 102 76 39 0 0
-0.2783 0.2919 -1.6511 -0.608 0.695 0.385 132 103 69 0 0
-0.2796 0.2932 -1.6554 -0.608 0.695 0.385 119 92 57 0 0
-0.2277 0.2466 -1.7649 -0.393 0.534 0.749 117 93 56 0 0
-0.2393 0.2583 -1.8055 -0.605 0.404 0.686 72 55 29 0 0
-0.2379 0.2574 -1.8294 -0.474 0.849 -0.233 92 66 35 0 0
-0.2553 0.2754 -1.9167 -0.680 0.593 0.432 85 63 32 0 0
-0.2729 0.2934 -1.9990 -0.481 0.720 0.499 77 53 27 0 0
-0.2723 0.2935 -2.0291 -0.662 0.672 0.332 76 51 20 0 0
-0.2721 0.2934 -2.0353 -0.551 0.519 0.654 108 84 49 0 0
-0.2899 0.3108 -2.0706 -0.876 0.480 0.052 83 59 25 0 0
-0.2892 0.3102 -2.0773 -0.726 0.662 0.185 83 59 25 0 0
-0.3527 0.3724 -2.2195 -0.627 0.654 0.424 106 83 42 0 0
-0.0834 0.1016 -0.9158 -0.115 0.700 0.705 102 81 51 0 0
-0.0867 0.1048 -0.9191 -0.204 0.635 0.745 83 65 38 0 0
-0.0853 0.1035 -0.9244 -0.313 0.852 0.419 78 58 33 0 0
-0.0710 0.0951 -1.1743 -0.463 0.638 0.615 53 37 14 0 0
-0.0732 0.0973 -1.1781 -0.463 0.638 0.615 51 36 11 0 0
-0.0766 0.1005 -1.1813 -0.504 0.514 0.695 68 52 25 0 0
-0.1010 0.1260 -1.3156 -0.647 0.756 0.097 56 40 19 0 0
-0.0845 0.1114 -1.3569 -0.098 -0.007 0.995 156 124 76 0 0
-0.1532 0.1765 -1.4022 -0.709 0.380 0.595 144 119 69 0 0
-0.1855 0.2077 -1.4589 -0.863 0.432 0.262 102 81 50 0 0
-0.1830 0.2056 -1.4711 -0.865 0.462 0.197 82 57 30 0 0
-0.1911 0.2138 -1.5023 -0.737 0.567 0.368 88 63 32 0 0
-0.1913 0.2141 -1.5074 -0.558 0.581 0.592 75 50 19 0 0
-0.2044 0.2276 -1.5724 -0.735 0.277 0.619 85 63 28 0 0
-0.2751 0.2953 -1.6510 -0.536 0.707 0.461 133 108 72 0 0
-0.2767 0.2969 -1.6550 -0.497 0.719 0.487 110 84 49 0 0
-0.2656 0.2867 -1.6697 -0.417 0.720 -0.555 119 94 55 0 0
-0.2291 0.2535 -1.7107 -0.669 0.574 0.472 115 89 52 0 0
-0.2386 0.2647 -1.8315 -0.421 0.896 0.140 96 71 39 0 0
-0.2587 0.2850 -1.9045 -0.803 0.440 0.401 85 62 30 0 0
-0.2634 0.2909 -1.9815 -0.647 0.684 0.337 88 65 34 0 0
-0.2686 0.2967 -2.0294 -0.738 0.551 0.390 73 47 19 0 0
-0.2687 0.2969 -2.0352 -0.551 0.519 0.654 102 78 45 0 0
-0.2875 0.3151 -2.0696 -0.827 0.562 0.010 83 59 25 0 0
-0.2859 0.3138 -2.0772 -0.726 0.662 0.185 83 59 25 0 0
-0.3029 0.3307 -2.1253 -0.642 0.588 0.492 80 58 25 0 0
-0.3076 0.3350 -2.1263 -0.601 0.732 0.320 79 55 24 0 0
-0.3124 0.3397 -2.1332 -0.587 0.636 0.502 81 58 24 0 0
-0.3424 0.3693 -2.2151 -0.643 0.765 0.034 95 73 34 0 0
-0.3433 0.3703 -2.2202 -0.727 0.674 0.131 97 74 34 0 0
-0.0811 0.1059 -0.9248 -0.191 0.826 0.531 79 59 34 0 0
-0.0771 0.1027 -0.9548 -0.622 0.769 0.150 71 52 29 0 0
-0.0805 0.1061 -0.9628 -0.521 0.825 0.217 74 55 31 0 0
-0.1014 0.1328 -1.3133 -0.932 0.265 0.248 60 44 22 0 0
-0.0845 0.1179 -1.3548 -0.093 0.986 -0.139 144 113 65 0 0
-0.1226 0.1537 -1.3677 -0.526 0.672 0.522 123 105 67 0 0
-0.1789 0.2080 -1.4559 -0.567 0.678 0.468 82 61 35 0 0
-0.1805 0.2095 -1.4600 -0.567 0.678 0.468 115 94 66 0 0
-0.2729 0.2997 -1.6555 -0.466 0.736 0.491 115 91 53 0 0
-0.2352 0.2682 -1.8315 -0.273 0.842 0.465 95 70 38 0 0
-0.2847 0.3192 -2.0690 -0.827 0.562 0.010 83 59 25 0 0
-0.2946 0.3295 -2.1185 -0.516 0.753 0.408 81 61 27 0 0
-0.3037 0.3381 -2.1268 -0.448 0.829 0.336 77 54 23 0 0
-0.3171 0.3513 -2.1606 -0.715 0.453 0.532 84 60 26 0 0
-0.3187 0.3529 -2.1648 -0.696 0.577 0.428 82 59 25 0 0
-0.3228 0.3571 -2.1847 -0.763 0.463 0.450 81 59 22 0 0
-0.3226 0.3571 -2.1909 -0.671 0.624 0.401 86 64 27 0 0
-0.3395 0.3733 -2.2146 -0.727 0.674 0.131 97 74 36 0 0
-0.3395 0.3735 -2.2268 -0.392 0.741 0.546 106 83 42 0 0
-0.0737 0.1059 -0.9548 -0.658 0.725 0.203 70 52 28 0 0
-0.0717 0.1050 -1.0034 -0.028 0.984 -0.178 182 180 178 0 0
-0.1017 0.1383 -1.2548 -0.908 0.413 0.065 60 42 18 0 0
-0.0823 0.1226 -1.3593 -0.053 0.197 0.979 157 126 71 0 0
-0.1464 0.1832 -1.4075 -0.463 0.759 0.459 148 121 86 0 0
-0.1792 0.2165 -1.5379 -0.570 0.769 0.287 62 42 17 0 0
-0.1802 0.2175 -1.5426 -0.570 0.769 0.287 57 40 17 0 0
-0.2073 0.2435 -1.5813 -0.746 0.604 0.281 74 56 32 0 0
-0.2089 0.2451 -1.5854 -0.567 0.547 0.616 92 74 46 0 0
-0.2709 0.3042 -1.6545 -0.653 0.516 0.554 120 97 59 0 0
-0.2570 0.2916 -1.6712 -0.546 0.605 -0.580 117 94 53 0 0
-0.2265 0.2643 -1.7184 -0.597 0.795 0.106 107 83 47 0 0
-0.2298 0.2705 -1.8617 -0.469 0.797 0.382 83 58 27 0 0
-0.2545 0.2959 -1.9776 -0.562 0.518 0.645 88 65 34 0 0
-0.2889 0.3309 -2.1209 -0.840 0.494 0.224 83 63 31 0 0
-0.2907 0.3326 -2.1250 -0.618 0.507 0.600 81 58 27 0 0
-0.2938 0.3356 -2.1277 -0.540 0.634 0.554 78 55 24 0 0
-0.3183 0.3594 -2.1737 -0.769 0.450 0.454 85 62 28 0 0
-0.0717 0.1096 -0.9260 -0.354 0.832 0.427 78 57 33 0 0
-0.0701 0.1088 -0.9549 -0.649 0.740 0.177 68 50 26 0 0
-0.0659 0.1059 -0.9997 -0.028 0.984 -0.178 180 180 180 0 0
-0.0023 0.0509 -1.1742 0.367 0.148 0.918 126 109 85 0 0
-0.0924 0.1349 -1.2026 -0.469 0.514 0.718 91 73 37 0 0
-0.0953 0.1377 -1.2060 -0.598 0.401 0.693 105 85 51 0 0
-0.0996 0.1428 -1.2541 -0.908 0.413 0.065 55 37 14 0 0
-0.0942 0.1386 -1.2878 -0.668 0.701 0.248 45 31 14 0 0
-0.1055 0.1506 -1.3586 -0.421 0.692 0.586 123 97 59 0 0
-0.1190 0.1635 -1.3762 -0.374 0.712 0.594 122 99 66 0 0
-0.1358 0.1797 -1.4019 -0.439 0.706 0.556 146 125 84 0 0
-0.1831 0.2259 -1.5115 -0.747 0.225 0.625 74 49 22 0 0
-0.2295 0.2709 -1.5992 -0.149 0.246 0.958 133 109 82 0 0
-0.2332 0.2744 -1.6016 -0.069 0.473 0.878 128 103 70 0 0
-0.2661 0.3059 -1.6504 -0.685 0.451 0.572 85 68 44 0 0
-0.2181 0.2645 -1.7840 -0.634 0.251 0.732 102 77 43 0 0
-0.2448 0.2915 -1.8851 -0.670 0.645 0.367 96 73 42 0 0
-0.2906 0.3394 -2.1275 -0.623 0.412 0.665 77 54 23 0 0
-0.2959 0.3444 -2.1339 -0.582 0.789 0.199 80 57 25 0 0
-0.3082 0.3566 -2.1689 -0.602 0.670 0.434 82 59 25 0 0
-0.3161 0.3640 -2.1723 -0.804 0.575 0.151 85 62 28 0 0
-0.3359 0.3836 -2.2292 -0.627 0.778 0.042 101 78 37 0 0
-0.0930 0.1420 -1.2054 -0.547 0.667 0.505 86 65 27 0 0
-0.0977 0.1473 -1.2482 -0.951 -0.046 0.306 53 34 10 0 0
-0.0952 0.1452 -1.2547 -0.399 0.852 -0.340 60 42 19 0 0
-0.1719 0.2210 -1.4643 -0.740 0.410 0.534 93 70 39 0 0
-0.1918 0.2419 -1.5773 -0.488 0.800 0.349 155 132 97 0 0
-0.2255 0.2736 -1.5997 -0.258 0.295 0.920 151 129 97 0 0
-0.2079 0.2612 -1.7674 -0.809 0.265 0.525 106 82 47 0 0
-0.2125 0.2655 -1.7691 -0.709 0.254 0.657 66 44 18 0 0
-0.2235 0.2771 -1.8271 -0.647 0.604 0.465 89 64 33 0 0
-0.2473 0.3010 -1.9141 -0.767 0.515 0.383 86 62 31 0 0
-0.2499 0.3050 -1.9813 -0.717 0.381 0.584 84 61 30 0 0
-0.2511 0.3062 -1.9860 -0.759 0.444 0.476 80 56 27 0 0
-0.2723 0.3273 -2.0534 -0.474 0.790 0.390 77 53 28 0 0
-0.2759 0.3312 -2.0734 -0.766 0.639 0.063 78 54 24 0 0
-0.2760 0.3317 -2.0912 -0.524 0.788 0.324 108 82 43 0 0
-0.3126 0.3674 -2.1725 -0.548 0.697 0.462 84 61 27 0 0
-0.3242 0.3786 -2.1960 -0.710 0.440 0.551 91 69 30 0 0
-0.3260 0.3804 -2.2000 -0.776 0.420 0.471 92 68 30 0 0
-0.0460 0.0995 -0.9768 -0.401 0.898 0.182 79 60 38 0 0
0.0134 0.0498 -1.1839 0.033 -0.179 0.983 114 99 75 0 0
-0.0913 0.1469 -1.2096 -0.675 0.486 0.555 88 67 30 0 0
-0.0946 0.1509 -1.2481 -0.975 0.195 -0.102 60 39 15 0 0
-0.1516 0.2079 -1.4340 -0.544 0.685 0.485 91 72 40 0 0
-0.1547 0.2109 -1.4424 -0.632 0.622 0.463 91 72 39 0 0
-0.1769 0.2331 -1.5111 -0.723 0.544 0.426 73 47 21 0 0
-0.1813 0.2387 -1.5773 -0.786 0.276 0.554 70 51 19 0 0
-0.2524 0.3051 -1.6134 -0.695 0.589 0.412 140 119 77 0 0
-0.2537 0.3069 -1.6391 -0.588 0.777 0.223 56 45 17 0 0
-0.2578 0.3110 -1.6518 -0.631 0.435 0.642 82 65 42 0 0
-0.2083 0.2668 -1.7141 -0.426 0.469 0.774 110 84 48 0 0
-0.2144 0.2725 -1.7146 -0.623 0.761 0.180 105 81 45 0 0
-0.2104 0.2691 -1.7290 -0.709 0.544 0.449 107 83 47 0 0
-0.2495 0.3123 -2.0254 -0.611 0.357 0.707 72 48 25 0 0
-0.2684 0.3304 -2.0539 -0.654 0.707 0.268 80 56 30 0 0
-0.3104 0.3721 -2.1771 -0.548 0.697 0.462 83 61 24 0 0
-0.3116 0.3733 -2.1819 -0.775 0.581 0.251 84 62 25 0 0
-0.3122 0.3740 -2.1873 -0.751 0.562 0.346 85 63 26 0 0
-0.3144 0.3762 -2.1909 -0.716 0.585 0.382 87 65 28 0 0
-0.3147 0.3765 -2.1967 -0.751 0.562 0.346 89 67 30 0 0
-0.3212 0.3827 -2.2016 -0.771 0.585 0.251 93 69 31 0 0
-0.3240 0.3855 -2.2106 -0.826 0.515 0.230 103 80 39 0 0
-0.3256 0.3870 -2.2149 -0.752 0.611 0.246 96 73 32 0 0
-0.0397 0.0983 -0.9068 -0.346 0.861 0.373 145 122 90 0 0
-0.0410 0.0996 -0.9110 -0.346 0.861 0.373 100 75 44 0 0
-0.0418 0.1019 -0.9772 -0.433 0.857 0.281 74 55 32 0 0
-0.0376 0.0989 -1.0080 0.055 0.922 -0.383 179 180 183 0 0
-0.0865 0.1489 -1.2104 -0.573 0.317 0.756 95 75 36 0 0
-0.0897 0.1519 -1.2137 -0.696 0.507 0.508 96 71 33 0 0
-0.0945 0.1571 -1.2463 -0.945 0.196 -0.264 61 40 14 0 0
-0.0845 0.1483 -1.2621 -0.347 0.887 -0.306 63 44 19 0 0
-0.0972 0.1625 -1.3627 -0.455 0.561 0.691 101 78 48 0 0
-0.1256 0.1896 -1.4020 -0.645 0.514 0.565 136 112 84 0 0
-0.1714 0.2346 -1.5180 -0.524 0.558 0.643 72 48 22 0 0
-0.2193 0.2807 -1.5994 -0.261 0.233 0.937 132 108 72 0 0
-0.2419 0.3018 -1.6138 -0.552 0.620 0.558 183 157 110 0 0
-0.2073 0.2726 -1.7177 -0.853 0.465 0.235 110 86 50 0 0
-0.2082 0.2735 -1.7225 -0.853 0.465 0.235 106 82 46 0 0
-0.2466 0.3153 -1.9838 -0.338 0.808 0.483 79 56 26 0 0
-0.2446 0.3148 -2.0388 -0.504 0.836 0.215 101 78 47 0 0
-0.2675 0.3362 -2.0513 -0.768 0.581 0.268 82 58 32 0 0
-0.2792 0.3485 -2.1106 -0.489 0.618 0.616 96 74 38 0 0
-0.2814 0.3505 -2.1144 -0.489 0.618 0.616 76 53 21 0 0
-0.2868 0.3555 -2.1146 -0.392 0.621 0.679 79 56 24 0 0
-0.2970 0.3662 -2.1700 -0.759 0.395 0.518 82 59 25 0 0
-0.3082 0.3769 -2.1818 -0.699 0.432 0.569 84 62 25 0 0
-0.3050 0.3741 -2.1915 -0.558 0.713 0.424 85 63 26 0 0
-0.3117 0.3804 -2.1962 -0.801 0.434 0.412 88 66 29 0 0
-0.3184 0.3865 -2.1949 -0.742 0.497 0.450 92 68 30 0 0
-0.3199 0.3881 -2.1992 -0.742 0.497 0.450 94 70 32 0 0
-0.0215 0.0879 -0.9081 -0.122 0.673 0.730 141 115 85 0 0
-0.0374 0.1043 -0.9777 -0.433 0.857 0.281 63 45 26 0 0
-0.0384 0.1053 -0.9821 -0.362 0.652 0.667 71 58 46 0 0
-0.0922 0.1614 -1.2457 -0.914 0.320 -0.251 63 43 14 0 0
-0.2393 0.3057 -1.6133 -0.650 0.515 0.560 167 143 96 0 0
-0.2425 0.3087 -1.6161 -0.651 0.558 0.515 126 104 65 0 0
-0.2071 0.2809 -1.7987 -0.719 0.694 0.035 118 97 61 0 0
-0.2071 0.2811 -1.8043 -0.719 0.694 0.035 88 71 40 0 0
-0.2090 0.2832 -1.8196 -0.548 0.691 0.471 75 51 26 0 0
-0.2272 0.3027 -1.9291 -0.730 0.418 0.541 77 54 25 0 0
-0.2455 0.3214 -2.0050 -0.684 0.674 0.277 72 48 24 0 0
-0.2645 0.3400 -2.0509 -0.768 0.581 0.268 82 58 32 0 0
-0.2960 0.3725 -2.1916 -0.765 0.629 0.137 85 63 26 0 0
-0.3016 0.3777 -2.1915 -0.654 0.736 0.174 86 64 27 0 0
-0.0319 0.1055 -0.9786 -0.185 0.969 0.163 64 48 33 0 0
-0.0881 0.1636 -1.2310 -0.640 0.595 0.486 120 96 66 0 0
-0.0777 0.1549 -1.2622 -0.406 0.711 -0.574 57 36 15 0 0
-0.0689 0.1481 -1.3083 -0.528 0.683 0.505 53 36 18 0 0
-0.1027 0.1809 -1.3811 -0.502 0.523 0.689 96 76 43 0 0
-0.1051 0.1832 -1.3848 -0.579 0.561 0.592 119 98 58 0 0
-0.1180 0.1955 -1.4026 -0.525 0.511 0.680 188 162 112 0 0
-0.1767 0.2538 -1.5786 -0.600 0.596 0.533 140 116 85 0 0
-0.1799 0.2568 -1.5816 -0.621 0.642 0.449 98 79 53 0 0
-0.2300 0.3034 -1.6073 -0.324 0.374 0.869 175 151 103 0 0
-0.2360 0.3090 -1.6133 -0.551 0.550 0.628 175 152 109 0 0
-0.1996 0.2783 -1.7130 -0.419 0.902 0.105 121 95 57 0 0
-0.2027 0.2817 -1.7325 -0.598 0.789 0.145 109 84 48 0 0
-0.2049 0.2861 -1.8202 -0.670 0.668 0.325 73 49 24 0 0
-0.2130 0.2952 -1.8872 -0.735 0.616 0.283 93 70 39 0 0
-0.2253 0.3077 -1.9335 -0.648 0.686 0.331 76 52 23 0 0
-0.2264 0.3088 -1.9383 -0.673 0.664 0.326 75 52 22 0 0
-0.2295 0.3122 -1.9586 -0.668 0.716 0.204 83 60 29 0 0
-0.2382 0.3206 -1.9736 -0.479 0.819 0.317 84 61 30 0 0
-0.2398 0.3222 -1.9779 -0.553 0.732 0.398 83 60 29 0 0
-0.2418 0.3247 -2.0053 -0.708 0.615 0.347 73 49 24 0 0
-0.0348 0.1129 -0.9237 -0.431 0.724 0.538 80 60 35 0 0
0.0567 0.0367 -1.1886 -0.215 -0.478 0.852 132 114 86 0 0
-0.0831 0.1653 -1.2269 -0.308 0.833 0.460 140 114 78 0 0
-0.0658 0.1508 -1.2773 -0.319 0.941 -0.114 70 54 28 0 0
-0.0549 0.1422 -1.3250 -0.610 0.589 -0.529 43 27 10 0 0
-0.0494 0.1377 -1.3439 -0.825 0.411 0.389 128 101 56 0 0
-0.1530 0.2350 -1.4450 -0.732 0.526 0.434 87 66 35 0 0
-0.1782 0.2617 -1.5803 -0.322 0.883 0.342 92 71 45 0 0
-0.2324 0.3120 -1.6136 -0.600 0.472 0.645 184 161 119 0 0
-0.2419 0.3217 -1.6487 -0.670 0.724 0.163 89 67 35 0 0
-0.1980 0.2839 -1.7337 -0.716 0.696 0.043 105 79 43 0 0
-0.2029 0.2908 -1.8190 -0.731 0.601 0.323 69 46 20 0 0
-0.2088 0.2980 -1.8879 -0.806 0.528 0.266 93 70 39 0 0
-0.2097 0.2990 -1.8928 -0.806 0.528 0.266 91 68 37 0 0
-0.2107 0.3000 -1.8977 -0.789 0.522 0.324 91 68 37 0 0
-0.2217 0.3109 -1.9279 -0.687 0.704 0.181 81 58 27 0 0
-0.2221 0.3114 -1.9333 -0.713 0.689 0.128 75 52 21 0 0
-0.2233 0.3128 -1.9438 -0.596 0.730 0.335 77 54 23 0 0
-0.2380 0.3280 -2.0115 -0.684 0.618 0.386 72 48 22 0 0
-0.2686 0.3588 -2.1171 -0.447 0.529 0.721 81 58 27 0 0
-0.2916 0.3819 -2.1950 -0.557 0.298 0.775 83 61 24 0 0
-0.3144 0.4032 -2.2122 -0.640 0.648 0.414 94 71 29 0 0
-0.3158 0.4046 -2.2167 -0.528 0.817 0.231 99 76 34 0 0
-0.0841 0.1731 -1.2446 -0.707 0.573 -0.416 65 44 18 0 0
-0.0630 0.1547 -1.2770 -0.415 0.908 0.057 87 70 45 0 0
-0.1234 0.2136 -1.4156 -0.505 0.637 0.582 159 131 82 0 0
-0.1705 0.2607 -1.5676 -0.721 0.594 0.357 58 39 19 0 0
-0.1801 0.2701 -1.5925 -0.731 0.427 0.532 156 140 101 0 0
-0.2295 0.3157 -1.6132 -0.526 0.635 0.566 173 150 107 0 0
-0.2371 0.3234 -1.6392 -0.755 0.643 0.128 97 76 43 0 0
-0.2380 0.3244 -1.6493 -0.844 0.532 0.068 97 71 37 0 0
-0.1982 0.2929 -1.8146 -0.674 0.678 0.292 76 55 26 0 0
-0.2050 0.3006 -1.8711 -0.776 0.562 0.286 87 64 33 0 0
-0.2050 0.3008 -1.8768 -0.842 0.462 0.279 93 70 39 0 0
-0.2067 0.3026 -1.8868 -0.711 0.640 0.290 92 69 38 0 0
-0.2076 0.3036 -1.8916 -0.660 0.722 0.207 90 67 36 0 0
-0.2077 0.3039 -1.8973 -0.709 0.658 0.254 91 68 37 0 0
-0.2194 0.3157 -1.9384 -0.546 0.790 0.279 78 54 26 0 0
-0.2212 0.3175 -1.9484 -0.557 0.808 0.192 72 48 20 0 0
-0.3084 0.4045 -2.2212 -0.515 0.348 0.783 97 74 32 0 0
-0.3258 0.4208 -2.2381 -0.826 0.321 0.464 100 79 36 0 0
-0.0233 0.1147 -0.9162 -0.630 0.559 0.539 86 63 37 0 0
-0.0220 0.1137 -0.9215 -0.437 0.568 0.697 77 55 32 0 0
-0.0214 0.1140 -0.9502 -0.153 0.956 0.249 71 50 29 0 0
-0.0769 0.1726 -1.2367 -0.427 0.815 0.392 87 63 28 0 0
-0.0913 0.1899 -1.3819 -0.416 0.695 0.587 111 91 60 0 0
-0.0951 0.1934 -1.3847 -0.513 0.443 0.735 124 105 74 0 0
-0.2111 0.3050 -1.6037 -0.139 0.405 0.904 142 117 77 0 0
-0.2343 0.3270 -1.6389 -0.706 0.639 0.304 88 69 33 0 0
-0.2354 0.3284 -1.6487 -0.844 0.532 0.068 91 67 33 0 0
-0.1887 0.2879 -1.7136 -0.669 0.698 0.255 112 85 46 0 0
-0.1898 0.2903 -1.7627 -0.866 0.475 0.155 97 77 44 0 0
-0.1904 0.2909 -1.7678 -0.866 0.475 0.155 49 28 8 0 0
-0.1903 0.2911 -1.7734 -0.616 0.688 0.384 50 32 9 0 0
-0.1919 0.2927 -1.7776 -0.524 0.718 0.459 83 62 30 0 0
-0.1911 0.2926 -1.8008 -0.666 0.746 -0.003 110 89 52 0 0
-0.1969 0.2983 -1.8184 -0.851 0.443 0.282 84 61 34 0 0
-0.1980 0.2996 -1.8287 -0.875 0.474 0.100 93 70 36 0 0
-0.2010 0.3039 -1.8830 -0.819 0.437 0.372 93 70 39 0 0
-0.2033 0.3062 -1.8867 -0.635 0.697 0.334 88 65 34 0 0
-0.2044 0.3073 -1.8914 -0.735 0.616 0.283 86 63 32 0 0
-0.2040 0.3071 -1.8975 -0.652 0.659 0.375 87 64 33 0 0
-0.2053 0.3084 -1.9022 -0.709 0.658 0.254 86 62 32 0 0
-0.2168 0.3203 -1.9551 -0.661 0.536 0.526 80 56 27 0 0
-0.2188 0.3223 -1.9591 -0.625 0.569 0.534 88 65 34 0 0
-0.2296 0.3335 -2.0071 -0.556 0.749 0.361 73 49 23 0 0
-0.2308 0.3347 -2.0118 -0.571 0.757 0.318 73 49 23 0 0
-0.2277 0.3325 -2.0326 -0.737 0.504 0.450 80 58 26 0 0
-0.2412 0.3454 -2.0547 -0.614 0.606 0.506 80 60 30 0 0
-0.3224 0.4244 -2.2380 -0.583 0.639 0.501 100 78 37 0 0
-0.0135 0.1124 -0.9284 -0.683 0.426 0.593 80 63 37 0 0
-0.0175 0.1165 -0.9457 -0.599 0.767 0.232 75 57 33 0 0
-0.0165 0.1158 -0.9509 -0.282 0.944 0.173 67 49 27 0 0
-0.0223 0.1287 -1.2090 -0.096 0.506 0.857 115 99 51 0 0
-0.0535 0.1592 -1.2837 -0.388 0.922 -0.005 82 65 38 0 0
-0.0880 0.1933 -1.3819 -0.473 0.729 0.494 117 98 65 0 0
-0.1157 0.2194 -1.4162 -0.628 0.648 0.431 146 117 70 0 0
-0.1524 0.2569 -1.5599 -0.542 0.581 0.607 66 47 20 0 0
-0.1742 0.2776 -1.5919 -0.684 0.489 0.541 167 144 102 0 0
-0.2274 0.3267 -1.6258 -0.515 0.773 0.371 113 86 52 0 0
-0.1853 0.2912 -1.7137 -0.669 0.698 0.255 113 85 45 0 0
-0.1871 0.2931 -1.7233 -0.623 0.722 0.302 105 80 40 0 0
-0.1874 0.2940 -1.7396 -0.716 0.692 0.093 101 76 37 0 0
-0.1829 0.2911 -1.7824 -0.748 0.420 0.513 98 75 42 0 0
-0.1947 0.3031 -1.8287 -0.499 0.864 0.074 93 70 36 0 0
-0.1958 0.3043 -1.8334 -0.633 0.771 0.071 88 65 31 0 0
-0.1982 0.3069 -1.8483 -0.771 0.593 0.232 83 58 27 0 0
-0.1982 0.3077 -1.8768 -0.664 0.739 0.110 90 67 36 0 0
-0.2015 0.3116 -1.9025 -0.631 0.709 0.315 80 56 27 0 0
-0.2031 0.3137 -1.9241 -0.719 0.611 0.331 82 59 27 0 0
-0.2046 0.3151 -1.9286 -0.559 0.654 0.511 82 59 28 0 0
-0.2063 0.3168 -1.9327 -0.559 0.654 0.511 76 53 23 0 0
-0.2099 0.3201 -1.9352 -0.554 0.767 0.322 72 48 21 0 0
-0.2137 0.3238 -1.9432 -0.778 0.546 0.311 72 48 22 0 0
-0.2144 0.3249 -1.9600 -0.358 0.837 0.414 89 66 35 0 0
-0.2251 0.3367 -2.0317 -0.737 0.552 0.390 78 57 28 0 0
-0.2377 0.3489 -2.0547 -0.614 0.606 0.506 81 60 29 0 0
-0.2485 0.3601 -2.1033 -0.552 0.739 0.386 34 26 5 0 0
-0.2542 0.3656 -2.1153 -0.464 0.630 0.623 79 60 27 0 0
-0.3005 0.4101 -2.2042 -0.735 0.543 0.406 96 73 34 0 0
-0.2979 0.4080 -2.2131 -0.825 0.457 0.334 98 75 33 0 0
-0.3012 0.4111 -2.2155 -0.604 0.570 0.558 94 71 29 0 0
-0.0175 0.1218 -0.9159 -0.657 0.518 0.548 84 63 38 0 0
-0.0173 0.1218 -0.9207 -0.578 0.690 0.436 73 53 31 0 0
-0.0108 0.1162 -0.9281 -0.683 0.426 0.593 80 62 37 0 0
-0.0145 0.1199 -0.9408 -0.702 0.710 -0.050 74 56 34 0 0
-0.0140 0.1196 -0.9458 -0.680 0.676 0.285 78 60 36 0 0
-0.0147 0.1204 -0.9502 -0.647 0.735 0.201 67 49 27 0 0
0.0102 0.0988 -0.9800 0.166 0.979 -0.115 87 64 34 0 0
0.0124 0.0970 -0.9857 0.174 0.936 -0.305 97 80 61 0 0
-0.0386 0.1503 -1.2238 -0.324 0.755 0.571 99 84 36 0 0
-0.0621 0.1759 -1.3645 -0.231 0.633 0.738 100 81 48 0 0
-0.0640 0.1777 -1.3686 -0.230 0.834 0.501 115 95 61 0 0
-0.1152 0.2256 -1.4248 -0.754 0.498 0.429 144 119 69 0 0
-0.1515 0.2628 -1.5688 -0.711 0.667 0.222 44 28 12 0 0
-0.2233 0.3293 -1.6264 -0.721 0.658 0.218 113 87 52 0 0
-0.1817 0.2944 -1.7139 -0.684 0.693 0.228 114 87 46 0 0
-0.1827 0.2955 -1.7186 -0.669 0.698 0.255 112 86 46 0 0
-0.1835 0.2964 -1.7234 -0.669 0.698 0.255 104 79 39 0 0
-0.1818 0.2959 -1.7581 -0.791 0.602 -0.107 107 83 48 0 0
-0.1845 0.2984 -1.7615 -0.856 0.479 0.192 86 63 32 0 0
-0.1817 0.2965 -1.7806 -0.619 0.588 0.521 96 73 41 0 0
-0.1946 0.3114 -1.8884 -0.584 0.704 0.404 83 59 31 0 0
-0.1999 0.3173 -1.9239 -0.719 0.611 0.331 84 60 30 0 0
-0.2031 0.3204 -1.9325 -0.666 0.586 0.462 78 54 26 0 0
-0.2103 0.3273 -1.9432 -0.628 0.744 0.229 70 46 20 0 0
-0.2365 0.3549 -2.0703 -0.791 0.560 0.247 79 60 31 0 0
-0.2483 0.3668 -2.1119 -0.368 0.634 0.680 84 67 34 0 0
-0.2959 0.4128 -2.2115 -0.604 0.570 0.558 96 73 32 0 0
-0.2978 0.4146 -2.2155 -0.604 0.570 0.558 94 71 30 0 0
-0.2996 0.4163 -2.2196 -0.631 0.737 0.243 98 75 34 0 0
-0.3018 0.4188 -2.2354 -0.506 0.828 0.241 95 73 32 0 0
0.0200 0.0938 -0.9011 -0.466 0.367 0.805 124 104 76 0 0
0.0119 0.1011 -0.9027 -0.650 0.735 0.193 160 135 103 0 0
-0.0099 0.1220 -0.9414 -0.562 0.813 0.154 75 57 35 0 0
0.0211 0.0954 -0.9832 0.252 0.964 -0.087 91 68 38 0 0
0.0218 0.0949 -0.9883 0.264 0.942 -0.207 102 86 66 0 0
0.0442 0.0755 -1.0126 -0.129 0.986 0.101 179 178 180 0 0
0.0377 0.0815 -1.0147 0.290 0.810 0.510 179 179 183 0 0
-0.0341 0.1527 -1.2244 -0.234 0.693 0.682 98 83 32 0 0
-0.1479 0.2657 -1.5637 -0.728 0.497 0.473 55 39 22 0 0
-0.1628 0.2795 -1.5741 -0.472 0.807 0.354 108 87 52 0 0
-0.1632 0.2800 -1.5791 -0.526 0.820 0.224 78 57 29 0 0
-0.2190 0.3317 -1.6272 -0.648 0.756 0.088 116 90 54 0 0
-0.1832 0.3016 -1.6935 -0.599 0.709 -0.371 125 101 59 0 0
-0.1756 0.2964 -1.7438 -0.468 0.704 0.534 109 84 46 0 0
-0.1775 0.2982 -1.7478 -0.468 0.704 0.534 119 93 56 0 0
-0.1794 0.3027 -1.8361 -0.544 0.747 0.381 85 62 31 0 0
-0.1868 0.3095 -1.8410 -0.313 0.824 0.472 84 61 31 0 0
-0.1911 0.3148 -1.8885 -0.672 0.675 0.305 82 58 30 0 0
-0.1914 0.3153 -1.8939 -0.593 0.714 0.371 81 57 29 0 0
-0.1965 0.3208 -1.9239 -0.531 0.795 0.294 85 61 33 0 0
-0.1981 0.3224 -1.9282 -0.752 0.518 0.409 77 53 26 0 0
-0.1996 0.3239 -1.9326 -0.728 0.554 0.405 77 53 27 0 0
-0.1995 0.3244 -1.9501 -0.751 0.620 0.227 71 47 21 0 0
-0.2016 0.3264 -1.9539 -0.521 0.631 0.574 75 51 23 0 0
-0.2041 0.3287 -1.9574 -0.464 0.489 0.739 87 64 34 0 0
-0.2355 0.3610 -2.0857 -0.785 0.463 0.412 74 58 29 0 0
-0.2377 0.3633 -2.0954 -0.546 0.669 0.504 63 50 24 0 0
-0.2398 0.3653 -2.0992 -0.526 0.561 0.639 46 35 9 0 0
-0.2413 0.3670 -2.1096 -0.504 0.775 0.381 107 92 52 0 0
-0.2466 0.3720 -2.1161 -0.464 0.630 0.623 80 61 29 0 0
-0.2936 0.4170 -2.2043 -0.587 0.711 0.387 94 72 34 0 0
-0.3068 0.4297 -2.2320 -0.663 0.634 0.398 93 71 30 0 0
-0.0068 0.1256 -0.9460 -0.392 0.917 0.071 73 54 32 0 0
0.0373 0.0875 -0.9935 0.447 0.894 0.030 108 93 74 0 0
0.0416 0.0839 -1.0002 0.249 0.965 0.079 112 103 91 0 0
0.0386 0.0866 -1.0039 -0.544 0.610 -0.576 106 99 92 0 0
0.0510 0.0759 -1.0141 -0.147 0.944 0.295 163 160 158 0 0
0.0483 0.0784 -1.0179 0.096 0.861 0.499 180 179 183 0 0
0.0061 0.1223 -1.2033 -0.593 0.497 0.633 84 67 22 0 0
-0.0192 0.1496 -1.3444 -0.701 0.698 -0.146 144 114 58 0 0
-0.1440 0.2687 -1.5640 -0.584 0.636 0.504 54 39 20 0 0
-0.1598 0.2835 -1.5845 -0.175 0.880 0.442 99 78 47 0 0
-0.1951 0.3159 -1.6059 -0.648 0.561 0.515 150 126 85 0 0
-0.1711 0.3000 -1.7838 -0.404 0.473 0.783 98 75 43 0 0
-0.1932 0.3246 -1.9296 -0.635 0.647 0.423 75 51 24 0 0
-0.1964 0.3275 -1.9324 -0.617 0.590 0.521 74 50 24 0 0
-0.2640 0.3960 -2.1723 -0.701 0.598 0.388 84 60 26 0 0
-0.3020 0.4320 -2.2336 -0.552 0.653 0.517 93 71 31 0 0
0.0068 0.1201 -0.9598 -0.654 0.639 0.404 75 54 33 0 0
0.0491 0.0835 -1.0020 0.144 0.989 0.034 106 97 83 0 0
0.0553 0.0786 -1.0194 -0.358 0.934 -0.019 150 149 145 0 0
0.0528 0.0809 -1.0233 -0.098 0.893 0.438 180 182 180 0 0
0.0025 0.1321 -1.2099 -0.355 0.526 0.773 121 99 56 0 0
-0.0170 0.1535 -1.3280 -0.630 0.776 -0.041 64 46 20 0 0
-0.0174 0.1542 -1.3382 -0.430 0.153 0.890 139 115 61 0 0
-0.0483 0.1828 -1.3668 -0.489 0.660 0.570 117 97 64 0 0
-0.1308 0.2618 -1.5232 -0.849 0.478 0.224 66 44 20 0 0
-0.1472 0.2781 -1.5700 -0.200 0.469 0.860 71 51 24 0 0
-0.2134 0.3392 -1.6265 -0.723 0.672 0.162 116 92 56 0 0
-0.1729 0.3091 -1.8132 -0.413 0.841 0.348 70 50 22 0 0
-0.1741 0.3116 -1.8575 -0.598 0.775 0.205 86 63 32 0 0
-0.1811 0.3185 -1.8742 -0.707 0.648 0.282 81 58 27 0 0
-0.1839 0.3217 -1.8946 -0.819 0.544 0.184 80 56 28 0 0
-0.1897 0.3280 -1.9296 -0.537 0.775 0.333 74 50 22 0 0
-0.1930 0.3311 -1.9324 -0.574 0.744 0.342 71 47 21 0 0
-0.1918 0.3303 -1.9393 -0.603 0.592 0.535 70 46 21 0 0
-0.2025 0.3422 -2.0109 -0.676 0.530 0.511 70 48 24 0 0
-0.2295 0.3692 -2.0968 -0.403 0.766 0.501 63 49 19 0 0
-0.2318 0.3715 -2.1064 -0.374 0.642 0.669 108 92 50 0 0
-0.2321 0.3720 -2.1120 -0.510 0.808 0.295 112 94 52 0 0
-0.2384 0.3778 -2.1175 -0.513 0.626 0.588 82 62 27 0 0
-0.2540 0.3926 -2.1432 -0.568 0.804 0.176 83 60 26 0 0
-0.2542 0.3930 -2.1490 -0.628 0.743 0.232 83 60 26 0 0
-0.2579 0.3972 -2.1752 -0.341 0.723 0.600 85 61 27 0 0
0.0486 0.0903 -1.0003 -0.319 0.898 -0.304 94 82 67 0 0
0.0443 0.0943 -1.0034 -0.558 0.661 -0.501 91 78 61 0 0
0.0440 0.0947 -1.0082 -0.604 0.492 -0.626 79 66 50 0 0
0.0588 0.0821 -1.0244 -0.219 0.926 0.307 165 164 160 0 0
-0.0438 0.1853 -1.3675 -0.634 0.547 0.547 122 104 72 0 0
-0.0456 0.1870 -1.3716 -0.682 0.613 0.398 107 87 56 0 0
-0.2098 0.3421 -1.6214 -0.868 0.440 0.233 112 87 56 0 0
-0.2098 0.3426 -1.6374 -0.534 0.784 0.317 102 79 44 0 0
-0.1671 0.3069 -1.7093 -0.519 0.755 0.401 66 46 15 0 0
-0.1697 0.3096 -1.7182 -0.606 0.750 0.264 105 80 40 0 0
-0.1803 0.3246 -1.8833 -0.922 0.224 0.315 78 54 26 0 0
-0.1827 0.3271 -1.8926 -0.903 0.318 0.289 79 55 27 0 0
-0.1830 0.3281 -1.9153 -0.441 0.792 0.423 81 57 29 0 0
-0.1845 0.3296 -1.9197 -0.441 0.792 0.423 81 57 29 0 0
-0.1841 0.3294 -1.9259 -0.528 0.832 0.169 83 59 31 0 0
-0.2343 0.3807 -2.1182 -0.333 0.636 0.696 82 62 26 0 0
-0.2507 0.3964 -2.1491 -0.586 0.761 0.278 83 60 26 0 0
-0.2532 0.3990 -2.1585 -0.661 0.672 0.333 84 61 27 0 0
-0.2575 0.4033 -2.1720 -0.621 0.598 0.507 86 62 28 0 0
0.0517 0.0939 -1.0002 -0.572 0.749 -0.333 93 80 62 0 0
0.0455 0.0995 -1.0024 -0.706 0.414 -0.575 94 80 62 0 0
0.0684 0.0800 -1.0271 -0.556 0.798 -0.233 105 97 85 0 0
0.0643 0.0838 -1.0303 0.114 0.929 0.353 173 173 170 0 0
0.0624 0.0856 -1.0344 0.114 0.929 0.353 177 181 183 0 0
0.1193 0.0391 -1.1571 -0.846 -0.093 0.524 123 123 120 0 0
0.1154 0.0428 -1.1604 -0.756 -0.250 0.604 91 86 77 0 0
-0.0076 0.1580 -1.3243 -0.595 0.789 -0.150 72 50 21 0 0
-0.0046 0.1556 -1.3312 -0.752 0.649 -0.115 92 66 27 0 0
-0.0352 0.1836 -1.3550 -0.690 0.530 0.492 120 99 60 0 0
-0.0379 0.1861 -1.3585 -0.810 0.528 0.255 94 76 44 0 0
-0.0395 0.1879 -1.3680 -0.730 0.636 0.251 119 99 66 0 0
-0.0417 0.1900 -1.3719 -0.728 0.585 0.358 102 82 50 0 0
-0.0903 0.2349 -1.4197 -0.601 0.711 0.365 122 98 57 0 0
-0.1077 0.2518 -1.4606 -0.728 0.658 0.192 100 76 42 0 0
-0.2070 0.3464 -1.6370 -0.706 0.584 0.400 99 75 39 0 0
-0.1630 0.3097 -1.7099 -0.529 0.793 0.302 75 55 23 0 0
-0.1797 0.3309 -1.8922 -0.689 0.681 0.248 81 57 29 0 0
-0.1948 0.3478 -1.9942 -0.642 0.751 0.157 72 49 25 0 0
-0.1946 0.3494 -2.0414 -0.459 0.583 0.671 89 71 36 0 0
-0.2239 0.3779 -2.1134 -0.665 0.655 0.358 113 93 54 0 0
-0.2539 0.4067 -2.1722 -0.683 0.610 0.401 81 57 23 0 0
-0.2644 0.4169 -2.1970 -0.455 0.859 0.235 89 67 30 0 0
0.0298 0.1187 -0.9701 -0.595 0.796 0.108 81 61 36 0 0
0.0304 0.1182 -0.9752 -0.584 0.809 -0.066 83 66 40 0 0
0.0412 0.1093 -0.9943 -0.741 0.148 -0.655 80 64 45 0 0
0.0451 0.1061 -1.0008 -0.824 0.171 -0.540 89 74 55 0 0
0.0734 0.0822 -1.0328 0.086 0.908 0.410 114 108 99 0 0
-0.0363 0.1915 -1.3679 -0.730 0.636 0.251 86 66 35 0 0
-0.0371 0.1923 -1.3726 -0.695 0.687 0.215 111 90 61 0 0
-0.1215 0.2728 -1.5280 -0.739 0.674 -0.020 68 47 22 0 0
-0.1174 0.2696 -1.5415 -0.878 0.455 0.147 75 53 24 0 0
-0.1558 0.3110 -1.7462 -0.608 0.788 0.097 108 83 46 0 0
-0.1565 0.3118 -1.7512 -0.715 0.693 0.089 109 85 49 0 0
-0.1559 0.3115 -1.7572 -0.747 0.608 0.268 99 74 43 0 0
-0.1885 0.3483 -1.9793 -0.565 0.673 0.477 82 60 33 0 0
-0.1852 0.3476 -2.0413 0.131 0.844 0.520 76 57 27 0 0
-0.2167 0.3779 -2.1052 -0.364 0.747 0.556 159 129 83 0 0
-0.2278 0.3881 -2.1178 -0.784 0.199 0.588 80 57 26 0 0
-0.2412 0.4010 -2.1458 -0.279 0.892 0.356 78 55 23 0 0
-0.2429 0.4027 -2.1500 -0.330 0.796 0.507 80 57 25 0 0
-0.2820 0.4404 -2.2347 -0.427 0.645 0.634 90 68 26 0 0
-0.2861 0.4441 -2.2361 -0.489 0.551 0.676 89 68 26 0 0
0.0755 0.0817 -0.8956 0.041 0.296 0.954 122 109 90 0 0
0.0326 0.1208 -0.9267 -0.423 0.904 0.065 68 49 24 0 0
0.0336 0.1216 -0.9703 -0.624 0.782 0.018 81 62 37 0 0
0.0483 0.1097 -1.0007 -0.548 0.503 -0.668 68 52 30 0 0
0.0769 0.0869 -1.0727 -0.546 0.821 -0.168 181 182 183 0 0
-0.0043 0.1669 -1.2963 -0.690 0.671 0.271 76 60 35 0 0
-0.0021 0.1654 -1.3079 -0.330 0.928 -0.175 72 56 32 0 0
-0.0356 0.1974 -1.3715 -0.570 0.560 0.601 108 87 59 0 0
-0.1153 0.2738 -1.5300 -0.843 0.498 -0.202 70 48 23 0 0
-0.1605 0.3163 -1.5983 -0.106 0.584 0.805 131 104 67 0 0
-0.1794 0.3340 -1.6267 -0.643 0.552 0.531 182 158 113 0 0
-0.1993 0.3520 -1.6379 -0.627 0.443 0.641 98 76 43 0 0
-0.1471 0.3111 -1.7841 -0.342 0.718 0.606 77 55 28 0 0
-0.1724 0.3375 -1.8926 -0.588 0.763 0.269 85 61 33 0 0
-0.1699 0.3360 -1.9121 -0.533 0.804 0.263 77 54 23 0 0
-0.1746 0.3412 -1.9425 -0.500 0.839 0.213 72 48 24 0 0
-0.1848 0.3516 -1.9796 -0.565 0.673 0.477 79 58 31 0 0
-0.2054 0.3725 -2.0537 -0.152 0.985 0.079 76 55 24 0 0
-0.2057 0.3734 -2.0711 -0.706 0.490 0.512 80 57 26 0 0
-0.2156 0.3838 -2.1149 -0.473 0.809 0.349 107 83 45 0 0
-0.2239 0.3913 -2.1183 -0.465 0.473 0.749 79 56 25 0 0
-0.2302 0.3972 -2.1298 -0.485 0.652 0.583 80 57 25 0 0
-0.2322 0.3992 -2.1337 -0.485 0.652 0.583 79 56 24 0 0
-0.2343 0.4011 -2.1375 -0.485 0.652 0.583 76 53 21 0 0
-0.2363 0.4031 -2.1414 -0.485 0.652 0.583 76 53 21 0 0
-0.2368 0.4037 -2.1469 -0.410 0.769 0.490 78 55 23 0 0
-0.2385 0.4054 -2.1511 -0.410 0.769 0.490 79 56 25 0 0
-0.2406 0.4074 -2.1549 -0.628 0.708 0.322 82 59 28 0 0
-0.2777 0.4434 -2.2417 -0.557 0.728 0.401 90 69 26 0 0
0.0616 0.1004 -0.8986 0.052 0.431 0.901 134 115 85 0 0
0.0819 0.0889 -1.0735 -0.438 0.877 -0.198 121 119 120 0 0
0.0500 0.1211 -1.1796 -0.676 0.456 0.578 118 101 64 0 0
0.0479 0.1231 -1.1837 -0.676 0.456 0.578 105 86 49 0 0
0.0019 0.1681 -1.3031 -0.461 0.885 -0.060 80 64 39 0 0
0.0103 0.1620 -1.3392 -0.302 0.467 0.831 156 126 75 0 0
-0.0724 0.2375 -1.4039 -0.643 0.681 0.350 171 143 95 0 0
-0.0738 0.2393 -1.4186 -0.631 0.749 0.200 130 104 60 0 0
-0.1105 0.2762 -1.5417 -0.686 0.597 0.415 105 85 43 0 0
-0.1453 0.3155 -1.7716 -0.559 0.816 0.146 65 42 17 0 0
-0.1970 0.3720 -2.0645 -0.770 0.537 0.344 73 50 19 0 0
-0.2027 0.3773 -2.0707 -0.706 0.490 0.512 79 56 25 0 0
-0.2026 0.3774 -2.0768 -0.559 0.738 0.378 78 55 24 0 0
-0.1998 0.3758 -2.0974 -0.488 0.843 0.225 108 86 47 0 0
-0.2177 0.3922 -2.1151 -0.554 0.454 0.698 82 59 27 0 0
-0.2189 0.3934 -2.1199 -0.462 0.583 0.668 78 55 24 0 0
-0.2387 0.4131 -2.1774 -0.528 0.832 0.170 84 60 26 0 0
-0.2739 0.4466 -2.2422 -0.557 0.728 0.401 92 71 28 0 0
-0.2746 0.4474 -2.2475 -0.521 0.809 0.273 92 73 30 0 0
-0.2893 0.4605 -2.2492 -0.343 0.824 0.451 94 77 36 0 0
0.0457 0.1209 -0.9055 -0.372 0.581 0.724 93 72 46 0 0
0.0007 0.1728 -1.2286 -0.082 0.502 0.861 95 77 30 0 0
0.0200 0.1593 -1.3218 -0.125 0.981 -0.150 71 51 27 0 0
0.0203 0.1593 -1.3272 -0.244 0.877 -0.413 70 53 22 0 0
-0.0762 0.2480 -1.4254 -0.826 0.559 0.073 117 90 47 0 0
-0.1179 0.2875 -1.4971 0.017 0.928 0.371 82 56 24 0 0
-0.1080 0.2801 -1.5358 -0.371 0.928 -0.042 70 49 21 0 0
-0.1578 0.3368 -1.8710 -0.725 0.602 0.334 88 67 36 0 0
-0.1532 0.3335 -1.8922 -0.656 0.732 0.181 80 59 28 0 0
-0.1637 0.3442 -1.9288 -0.636 0.720 0.279 80 56 30 0 0
-0.1647 0.3452 -1.9337 -0.636 0.720 0.279 72 48 23 0 0
-0.1807 0.3629 -2.0297 -0.065 0.782 0.620 76 54 30 0 0
-0.2000 0.3819 -2.0819 -0.593 0.805 0.016 80 57 25 0 0
-0.1934 0.3766 -2.0944 -0.179 0.914 0.364 88 66 31 0 0
-0.2010 0.3832 -2.0928 -0.240 0.900 0.364 110 88 50 0 0
-0.2289 0.4106 -2.1660 -0.638 0.317 0.702 79 56 24 0 0
-0.2306 0.4122 -2.1702 -0.771 0.328 0.546 81 58 25 0 0
-0.2346 0.4158 -2.1721 -0.635 0.598 0.490 83 59 26 0 0
-0.2367 0.4178 -2.1759 -0.438 0.507 0.742 83 60 25 0 0
-0.2383 0.4194 -2.1802 -0.510 0.452 0.732 85 61 25 0 0
-0.2703 0.4499 -2.2423 -0.608 0.669 0.428 91 70 27 0 0
-0.2715 0.4514 -2.2532 -0.480 0.828 0.291 94 76 33 0 0
0.0886 0.0988 -1.1493 -0.796 0.474 0.376 10 10 5 0 0
-0.0037 0.1828 -1.2245 -0.012 0.763 0.646 112 90 42 0 0
0.0294 0.1576 -1.3253 0.313 0.861 0.402 68 47 18 0 0
-0.0995 0.2790 -1.5340 -0.657 0.748 0.093 67 46 22 0 0
-0.1688 0.3426 -1.6059 -0.385 0.677 0.627 148 122 76 0 0
-0.1471 0.3323 -1.8319 -0.451 0.766 0.457 94 71 40 0 0
-0.1959 0.3846 -2.0766 -0.239 0.872 0.427 74 51 20 0 0
-0.1958 0.3852 -2.0945 -0.240 0.900 0.364 106 84 48 0 0
-0.2313 0.4195 -2.1719 -0.719 0.531 0.448 83 60 27 0 0
-0.2650 0.4516 -2.2384 -0.690 0.602 0.401 89 68 25 0 0
-0.2664 0.4530 -2.2429 -0.690 0.602 0.401 89 68 25 0 0
0.0947 0.0900 -0.8977 -0.227 0.237 0.945 121 105 84 0 0
0.0874 0.0965 -0.8998 0.027 0.310 0.950 121 101 77 0 0
0.0046 0.1870 -1.3561 -0.447 0.611 0.653 119 98 59 0 0
0.0023 0.1892 -1.3599 -0.275 0.716 0.642 127 109 73 0 0
-0.0835 0.2695 -1.4897 -0.382 0.786 0.486 139 112 71 0 0
-0.0883 0.2742 -1.5023 -0.533 0.684 0.498 160 130 87 0 0
-0.1368 0.3206 -1.6008 -0.306 0.590 0.747 152 127 86 0 0
-0.1402 0.3237 -1.6036 -0.115 0.584 0.803 159 133 90 0 0
-0.1814 0.3609 -1.6310 -0.496 0.832 0.250 97 76 41 0 0
-0.1312 0.3219 -1.7580 -0.478 0.778 0.408 100 79 48 0 0
-0.1906 0.3867 -2.0784 -0.265 0.895 0.360 76 53 22 0 0
0.0908 0.1055 -1.0413 -0.995 0.095 0.023 54 37 17 0 0
0.0419 0.1548 -1.2042 -0.647 0.642 0.411 166 136 90 0 0
0.0319 0.1660 -1.2656 0.330 0.941 -0.077 87 72 51 0 0
-0.0580 0.2507 -1.4202 -0.786 0.350 0.510 119 95 51 0 0
-0.1279 0.3191 -1.5995 -0.043 0.713 0.700 139 115 74 0 0
-0.1626 0.3654 -1.9960 -0.763 0.492 0.420 75 53 29 0 0
-0.1628 0.3657 -2.0017 -0.618 0.727 0.298 75 53 29 0 0
-0.1638 0.3669 -2.0066 -0.618 0.727 0.298 73 51 27 0 0
-0.1688 0.3717 -2.0195 -0.422 0.830 0.365 75 53 29 0 0
-0.1856 0.3888 -2.0800 -0.265 0.895 0.360 78 55 24 0 0
0.1031 0.0951 -0.8935 -0.179 0.269 0.946 174 172 167 0 0
0.1024 0.0958 -0.8981 -0.353 0.066 0.933 126 116 103 0 0
0.0628 0.1343 -0.9934 -0.287 0.957 -0.040 94 72 43 0 0
0.0877 0.1179 -1.1236 -0.719 0.577 0.388 20 16 10 0 0
0.0867 0.1190 -1.1282 -0.622 0.730 0.285 25 20 14 0 0
0.0463 0.1573 -1.2048 -0.816 0.336 0.471 169 138 93 0 0
