ply
format ascii 1.0
element vertex 691
property float x
property float y
property float z
property uchar diffuse_red
property uchar diffuse_green
property uchar diffuse_blue
end_header
0.2985618158071107 0.13677230749867966 -1.592094289145868 102 84 58
0.3074392765624581 0.13049478443896392 -1.59138881773714 105 86 58
0.312443696234681 0.12700244707724556 -1.5933338520889762 115 94 66
0.3195548471250064 0.12199432844041463 -1.5937974831147965 110 89 61
0.32419425991881357 0.11876383904287549 -1.5959602154801136 102 82 57
0.32753613291447203 0.11646656453264242 -1.5990173021139484 101 82 57
0.3268661052708463 0.11705563038768435 -1.6048853927014648 93 75 50
0.3408935070737453 0.10706963555478352 -1.600401308527458 102 83 56
0.3479959122102255 0.10206555345203533 -1.6007572840374789 105 88 62
0.3555215972806476 0.09675634693714197 -1.6007865180261254 91 73 48
0.3563775331798294 0.09624662793516059 -1.6055380695703825 117 98 72
0.35916809978557473 0.09434458331844522 -1.6089105853882393 120 100 73
0.36257405917179364 0.09199948453597906 -1.6118361197635587 101 82 58
0.3616514340670213 0.09277000473074079 -1.6178672966869763 103 83 59
0.3666781321013669 0.08925805493738578 -1.6196159038088758 117 95 70
0.3736610451745348 0.08433747293419994 -1.6199311117641595 125 104 74
0.38076005247604794 0.07933279213898978 -1.6201359486510662 119 98 68
0.38976445369490026 0.07295568296586694 -1.6189248773233407 108 87 60
0.3968744274871811 0.06794195756203295 -1.6190637741120562 114 93 65
0.39474170839187606 0.06958341091686052 -1.625959850668962 126 105 76
0.3969534441551906 0.06809654910816929 -1.6296746780323954 113 92 60
0.399647799143628 0.06626204391704876 -1.633029881888722 105 84 52
0.39396216039255416 0.07046312027724619 -1.642591630075719 93 74 47
0.38823855320519046 0.0746922487293244 -1.652217104840997 79 61 37
0.3680539890011417 0.08933898710828533 -1.6726686223961906 98 78 52
0.3560126108530324 0.09812152746645494 -1.6871306464812001 93 74 46
0.3559811805817653 0.09825290321857108 -1.6926393389563832 88 71 42
0.3331268547905221 0.11493832491537254 -1.7209109436677812 80 63 37
0.3337864978002742 0.11457331610662513 -1.7259760029720366 83 65 41
0.33292077221838806 0.1153076430214729 -1.7322065660180606 87 69 45
0.3320342612006319 0.11605719525284172 -1.7384653810356911 82 65 40
0.3315754714408192 0.1164987211517998 -1.7444091417848548 82 65 40
0.3310427363155842 0.11699375245616525 -1.7504201404052915 83 65 40
0.32950413654982036 0.11821406051261901 -1.7572172757424636 78 61 36
0.3272789233117442 0.11992965122188332 -1.7645611926892757 100 82 56
0.32991786887589236 0.11813888922815807 -1.7681509091071406 87 67 43
0.33170261134728074 0.11696389580137911 -1.7724005165016143 83 63 41
0.32839118108908993 0.11946339455447763 -1.7806283472069566 85 65 41
0.3317760504060014 0.11713480515004038 -1.7836360665884656 88 71 43
0.3380238233618431 0.1127415146783135 -1.7843855947074816 90 73 47
0.3416110911730239 0.11026647406840567 -1.78720929236991 96 79 53
0.34397406046238876 0.10867424282047422 -1.7909914225244 93 74 49
0.3421884015587328 0.1100742657315486 -1.7980610163748365 98 77 49
0.34470791399601713 0.10836918010545635 -1.8017218467702976 107 87 56
0.34047074616128686 0.1115381449299977 -1.8107723059528955 95 73 47
0.3393975740591024 0.11242509611939677 -1.8173186256061444 103 82 54
0.3499293321908855 0.10493958916797372 -1.814555675940364 107 86 57
0.3606389393273455 0.09732486829607626 -1.811604480498595 99 78 49
0.34759111471531556 0.10685214843755275 -1.8278137633275071 101 80 52
0.3524507009501226 0.10345835892126848 -1.829575167699305 100 80 51
0.3532740621541358 0.10297711635668388 -1.8346038284020767 101 82 51
0.3517577780251615 0.10418455499953327 -1.8415460209482404 101 82 51
0.35263389889061475 0.10366551759237486 -1.846545927953248 101 80 50
0.3537430857789423 0.10297832442321542 -1.8513584372417486 104 83 55
0.35489276931508157 0.10226195298181329 -1.8561403938118393 91 70 43
0.35678245946219095 0.10101139662093117 -1.8603134970092332 100 79 50
0.3602216206765991 0.0986421208348377 -1.863201132272287 100 79 48
0.3623785037674216 0.09719851540389213 -1.8671457302536083 101 80 49
0.3616988372366805 0.09780309626925682 -1.8734534188754846 102 82 49
0.36240011725663823 0.0974106808775595 -1.8786178881677775 104 84 51
0.3656510271591729 0.09517704665438109 -1.8816477746753315 102 82 49
0.36750789475155937 0.09395008391111787 -1.8858428467864996 103 83 50
0.3694120327179189 0.0926889577182004 -1.8899969773525018 106 86 53
0.37194117259182546 0.09097633999635485 -1.893620507629062 107 86 55
0.37406359568953523 0.08955744281317773 -1.8975850227385043 105 84 53
0.37369956451811037 0.08993482835942995 -1.903665848049893 106 85 54
0.3710796335371317 0.09194230629194544 -1.911685340693359 107 86 55
0.3798771068344027 0.08570058089195909 -1.9099387711886542 108 87 56
0.37853530337284913 0.0867847760494489 -1.9168740149103676 108 87 56
0.37723868458430543 0.08783662915047341 -1.9237859638810608 109 87 56
0.3801379136181999 0.08585642662846865 -1.927083286672155 106 83 52
0.3898657301053554 0.07894068225944903 -1.9244483383225166 105 82 50
0.39152392758459376 0.07785689570118196 -1.9287949226890477 105 82 50
0.39168823738530956 0.0778529829156448 -1.934445715394887 105 83 49
0.39270960500484725 0.07722964659293319 -1.939353845283367 104 84 49
0.3943968745687236 0.07612495184026469 -1.9436804412252926 98 78 43
0.3960211205891678 0.07506582090162889 -1.9480623877915857 98 78 43
0.39808863428405583 0.07368617911097974 -1.9520528209732964 100 80 45
0.3998582895203455 0.07252188247542118 -1.9563050472405015 100 80 45
0.4041205607681462 0.06955497282209336 -1.9583409371623237 102 82 47
0.4067881230723523 0.0677411281032946 -1.9617847621592897 101 81 46
0.4039974024721763 0.0698750530658922 -1.9701041825752348 96 76 41
0.40545827315641547 0.06893412426791551 -1.9746340278593026 92 72 37
0.41458649103094763 0.06244675186183277 -1.972267555745773 92 72 37
0.4131180389522089 0.06362464890115177 -1.9794219514189297 90 70 35
0.410532114520518 0.06561136141330304 -1.9876042873434492 96 75 40
0.40038604255262206 0.07306864649450295 -2.0026710470992595 105 82 48
0.40760476058315287 0.06796202285423453 -2.0019940731190125 110 87 52
0.4141515036839752 0.0633410836204173 -2.00190070894778 108 86 47
0.41586026648921 0.0622209024209574 -2.0062110724430053 109 86 48
0.42688890139715413 0.054355360151857074 -2.001961918478342 114 90 52
0.4301417610048229 0.05211702917270131 -2.0048242674568515 114 89 52
0.41430513461721896 0.06369678996132028 -2.025312732853801 122 95 59
0.4193997322258542 0.06012586663345654 -2.026503073212046 122 94 54
0.4214345274976054 0.05876979516476721 -2.0305180064275055 132 103 58
0.4153603389476685 0.06328482500270433 -2.042088014613262 186 154 100
0.420985851004927 0.05932913213871216 -2.042764810422714 178 146 89
0.4232620708322333 0.057798358502802516 -2.046559606557555 168 139 88
0.4282203188263668 0.054325216079649685 -2.047829587349893 134 108 67
0.43230571654509564 0.05148387401583099 -2.0499045000272176 104 81 40
0.43522874227807806 0.04948417438307934 -2.053065254282059 101 78 38
0.43746352121958354 0.04798287158936004 -2.056871754418563 110 84 45
0.4415892049892979 0.045111717039239246 -2.0588766252239443 113 85 45
0.45059566855691185 0.03870434520740104 -2.0562123301504367 112 84 45
0.4532105028898953 0.03692702182215185 -2.05962179344169 112 86 47
0.44915080392416606 0.03998577959006608 -2.06942929563868 112 85 48
0.4583410225783398 0.033443903083382354 -2.0665200693273675 104 78 41
0.45204156749859786 0.038126299076327586 -2.078515245295466 101 76 34
0.4489277332236982 0.04050082915476644 -2.0874718275087574 120 91 44
0.4457625054389555 0.04291313393264018 -2.0965047718666447 151 118 72
0.448403336477029 0.04111745987898918 -2.099913803408255 148 115 72
0.451479677112265 0.039005974900252094 -2.102892285270517 160 130 82
0.4556754000995244 0.03608282691197118 -2.104767161685326 139 111 67
0.4569938947839762 0.03524542869338804 -2.1094522016380424 114 91 50
0.45765217997308505 0.03488676571349103 -2.1147890540461285 113 91 50
0.4663129101507458 0.0287254384181857 -2.1122312278613995 118 91 49
0.4568457795402427 0.03570931064673932 -2.1275813793609415 118 90 43
0.47217890063037876 0.024708369102211747 -2.1183710313672837 118 90 43
0.4816029283302834 0.01799172156347184 -2.114967139910223 120 92 45
0.481209471598658 0.01839530221648003 -2.121322075764907 121 93 46
0.48119927042054494 0.018521095707982188 -2.1273047599088875 121 92 46
0.48105832325170467 0.01874192597866034 -2.1334281008546547 120 91 45
0.48464485579369276 0.016258607352129945 -2.135808036376835 119 90 46
0.48496898722247606 0.01614218129402273 -2.1414714256181737 124 95 51
0.48927699072761976 0.013135088537317263 -2.1431079617969924 122 93 49
0.4895046610540361 0.013088736293018516 -2.148873008853724 121 92 48
0.4928725013443792 0.010763588894290077 -2.151448259803301 122 93 49
0.49341636046929327 0.010487890000338562 -2.1568976159196254 124 95 51
0.4957103778946422 0.008941952883539966 -2.1605609351805626 126 97 53
0.4960201725337172 0.008836314941037399 -2.166258260374239 125 97 51
0.4912304449119911 0.012432928333924759 -2.1772149272170136 127 100 53
0.48894156775926984 0.014214590859686821 -2.185625947494461 131 102 55
0.4878652679984385 0.015116270262128861 -2.192803924583987 135 104 57
0.5060839158606516 0.0021269985018493587 -2.185993194295374 140 109 63
0.5126240902095478 -0.0025030604726270222 -2.185205978910093 140 110 62
0.519549538952411 -0.007413512060548216 -2.183986932730792 139 109 59
0.5285105237329042 -0.013803126027566281 -2.1805997512295736 147 116 65
0.5289277894062545 -0.013987183703415285 -2.1861662706966003 150 118 67
0.5271419712660401 -0.012570591338732895 -2.1940660582619027 146 114 63
0.5279356145221247 -0.013027696086933882 -2.1992546408285056 152 120 71
0.5229077063471488 -0.009254752905062225 -2.2106290133892856 146 114 65
0.5168954206093336 -0.00476572900449021 -2.2230903965286175 154 122 73
0.5265043233488556 -0.011628015723700424 -2.2189197452534897 151 119 70
0.5319380359787031 -0.015456800230249118 -2.2191719518527933 150 117 69
0.5218368581668624 -0.007994732069525778 -2.2360778882894228 147 116 68
0.5277890412934156 -0.012200367877508361 -2.2357730831117406 133 104 61
0.5339680968116949 -0.01657143250321924 -2.2351979973589735 117 95 56
0.5405919575628084 -0.02126640635590879 -2.234114689433299 106 88 50
0.5452740015926124 -0.024550131056083585 -2.2351092651341844 104 83 46
0.5527404733597896 -0.029858847446644216 -2.2330556815394615 105 85 49
0.5565012661435559 -0.03247353179661985 -2.235011088995456 98 81 45
0.5605373346079403 -0.03528866050757348 -2.236652612823934 86 73 38
0.5650394507861352 -0.038443032233509256 -2.2377684578870456 77 66 37
0.5642234282026497 -0.037729525259282304 -2.244717787862071 78 69 40
0.5639528262305209 -0.037412480791135655 -2.2510800195153733 79 70 42
0.5636816340497254 -0.03709478222830309 -2.2574542406457523 90 83 63
0.566121121920554 -0.03874898994178064 -2.260833389392811 117 109 95
0.5674331953024049 -0.039582986727857455 -2.2654614682973646 147 141 135
0.5667176585843918 -0.038941534537700384 -2.2723524594861986 170 168 166
0.5700788689579317 -0.041266533476669504 -2.274699225110438 186 186 186
0.5722932930872516 -0.042757131715044666 -2.2783212501857104 195 194 195
0.5766190954568025 -0.04578454540640575 -2.279566182066014 199 200 202
0.5819192231165831 -0.04952149412545412 -2.279696522468897 203 203 205
0.13294173151345373 0.24505530803057785 -1.4619271854182136 120 114 109
0.14306179994522367 0.23792536814195464 -1.4614131205974186 104 97 92
0.1512874838350619 0.23214898287845942 -1.4619862379895419 100 91 84
0.16631584147484813 0.22150861399289656 -1.4584763406745762 101 91 80
0.18139849805941638 0.21082828704694032 -1.45487439298016 110 97 85
0.18560328008773108 0.20792465099225282 -1.4577435058338506 105 91 75
0.20937956917344042 0.19143463521519652 -1.4702348694680458 124 106 83
0.20970595035961148 0.19130368316635013 -1.4754101363335281 114 97 72
0.21245588187532366 0.18943924572345563 -1.4790981862359225 118 101 75
0.21138658936049554 0.19030682379071537 -1.4851430687954201 115 98 70
0.20877920112461573 0.19227499154407812 -1.4921549193120527 109 90 64
0.2083434719527164 0.19268982835881632 -1.4978333379319864 112 92 67
0.21384992136993158 0.1888532954686352 -1.4998062775430672 117 97 72
0.217839893620852 0.18610151473371142 -1.5027132782858215 112 92 67
0.2225404283930255 0.18284107188637685 -1.5051622009213184 109 91 67
0.22638962839482707 0.18018959437091647 -1.5081353158735316 106 88 65
0.23011488470218006 0.17762662759492645 -1.5111770373644566 102 84 62
0.2349888445695127 0.17424134826199567 -1.5134780396649197 97 79 57
0.2366799702010527 0.1731338948376216 -1.5177977442662354 96 78 55
0.2384500757184242 0.1719699047826601 -1.522066626282983 97 79 55
0.23694370876965626 0.17315131938851067 -1.5284432663590968 98 81 55
0.24090430989520623 0.17041932173550176 -1.5313040389625403 94 76 53
0.24492245986469552 0.16764592097324765 -1.534116892621422 86 67 49
0.24927009430140556 0.16463641212149108 -1.5367045470308096 78 59 41
0.25009885372975577 0.1641462194680301 -1.5415764549375541 105 86 62
0.25379971998564255 0.1615995119775838 -1.5445709370765142 121 103 73
0.25964300021800973 0.15751844203137078 -1.5461476876922688 114 96 65
0.2607727094782679 0.1568125946377492 -1.5508141864213056 104 86 53
0.26138888033573493 0.15647458276412385 -1.5558230113983231 105 86 54
0.26400401686084224 0.15470493857238574 -1.5595087564573857 105 86 55
0.2666989503981097 0.15287805155380188 -1.5631367931469726 103 84 56
0.26740626162315634 0.15247484679223572 -1.5680895219486704 81 61 35
0.2748729462298061 0.14722954330926227 -1.5685092644221033 101 81 54
0.2776075915475951 0.14537380152682186 -1.572089318738102 110 90 63
0.27336817297476734 0.14851456333147578 -1.5803783606736672 118 99 70
0.2800500060279665 0.14383077983552864 -1.5812871568454647 118 98 70
0.28270831544055014 0.14202957792256368 -1.5849108725204075 108 88 59
0.2858369897833293 0.13989122635765863 -1.5882085448591963 97 79 50
0.285935659678727 0.13992414521577323 -1.5935758120467578 118 101 76
0.29531161660206395 0.13330836632189375 -1.5925702946752325 107 90 64
0.30274353772473983 0.1280852277944 -1.5928697553895126 106 87 60
0.3096556224269301 0.12323416907382631 -1.5935017462745868 108 87 59
0.3129469926331182 0.12097801294137553 -1.596624394029825 128 108 82
0.32101152189316745 0.11530002212570845 -1.5964114301282537 118 99 75
0.3300125796048989 0.10895004643440923 -1.5955127335434778 92 75 51
0.3260895886172435 0.11186529891737801 -1.603650649745307 97 81 55
0.33858824454410813 0.10300680780712587 -1.6002490615696046 116 96 71
0.34597886335093936 0.0978099989643399 -1.6004053862004 103 85 59
0.3501274546087065 0.09493747790603294 -1.6028329630232647 96 78 53
0.35423642526904614 0.09209313823804785 -1.6052765712876869 114 96 71
0.35470785174837743 0.09185733576274774 -1.6103049137539764 114 94 68
0.35588858156162717 0.09111290782769524 -1.614830637672862 111 91 65
0.3618749883299082 0.08692155401467316 -1.615904703569478 100 79 56
0.36553043748340486 0.0844018295565035 -1.6186384834726746 110 89 64
0.37132716685751505 0.08034584518510005 -1.6198131840951868 117 96 67
0.37548082212661277 0.07746822780403093 -1.6221603378857352 119 98 70
0.38812092847616747 0.06850174326959965 -1.6183143418335435 104 83 57
0.39571492775807166 0.06315481815159499 -1.6181022544018597 114 93 67
0.39918612823726457 0.0608671800665008 -1.6262093628316068 120 99 68
0.40326044515687287 0.05804498749046638 -1.6285358018852343 102 81 50
0.39703191516537045 0.06261675784078216 -1.6384788212096408 107 88 61
0.39075893338509976 0.06722115843813414 -1.6484929290652648 77 59 35
0.38444061719495276 0.07185883058907455 -1.6585791913663084 95 75 50
0.37115532943289525 0.08149830068010183 -1.6739138061560235 96 76 49
0.36170108561985453 0.088388965293245 -1.6864471707636222 85 66 39
0.35100241121123926 0.09617406268181714 -1.6999714155869718 83 65 39
0.3322100470366374 0.10987731040309098 -1.7252279470680871 86 68 44
0.3345470547724155 0.10830537322044964 -1.7290198942741788 87 69 45
0.33796863196335497 0.10595453568275234 -1.7319814200255226 86 68 44
0.3355421570989967 0.10780332255365221 -1.7394077823685676 84 66 42
0.3372783213725355 0.10666288774275495 -1.7436596369876523 81 63 39
0.3346829964061747 0.10863352184078875 -1.7512459586662752 81 63 39
0.3326400358773631 0.11020779672130412 -1.7584266515997014 90 71 46
0.33312167926327974 0.10996889370182741 -1.7636693773941505 100 80 53
0.33478510756175367 0.10888112040608108 -1.7679992156135895 87 67 41
0.3295867547435895 0.1127230979256568 -1.7776802691504598 93 73 46
0.3357062186256901 0.1084340590152971 -1.7785408493603856 97 78 50
0.3374420973769751 0.10729433841064034 -1.782819625493962 98 79 51
0.34469150294220396 0.10219270445309003 -1.782756833487855 97 78 51
0.3485301791153338 0.09954157749691078 -1.78536001533518 104 84 59
0.3467678627972239 0.10091553266459755 -1.7923902976984158 90 69 42
0.34405406384180093 0.10297366651164591 -1.8001940303695747 105 84 55
0.33577159142735885 0.1090348179102188 -1.8124602122279179 98 77 50
0.33816871042630164 0.10742023409074289 -1.8162335735331752 97 76 49
0.3455037128445759 0.10225589865105156 -1.8160407987204312 104 83 56
0.3495326894628898 0.09946776756677181 -1.8184806036308656 103 82 55
0.3421496120456767 0.10488425495577317 -1.83012372652325 103 82 55
0.34794259132837324 0.10082787801804613 -1.831139464262193 104 83 55
0.35098185167248097 0.09875119000784996 -1.834371835928019 106 85 56
0.3505559417723952 0.09916620122431574 -1.8404217221394599 108 87 58
0.35270294899509275 0.09773108296523558 -1.8443784002998675 108 86 55
0.3536319309059268 0.09717192768966076 -1.849331626633189 110 88 57
0.35462378845989373 0.09656761961474461 -1.8542368325782927 109 87 57
0.3568567986531586 0.09507061135399753 -1.8581210718473704 106 84 53
0.3612156483002713 0.09204431998499199 -1.8602423863737274 105 84 53
0.36299056480380126 0.09087664805894649 -1.8644956907890635 104 84 52
0.3643836943461457 0.08998364090513603 -1.8690664156823888 99 79 45
0.3641497796292463 0.0902613159877022 -1.874998046787469 97 77 44
0.36596662692392706 0.08906355478344427 -1.879220503155198 104 84 51
0.36758447927254273 0.08800897395782528 -1.8836094356629687 105 85 52
0.3687827435825776 0.0872563519506043 -1.8883524211829956 108 88 55
0.37000393855026636 0.08648727200003381 -1.8930783771989748 108 87 56
0.3692204263309704 0.08716111366102447 -1.899507631020367 109 88 57
0.36968288985219644 0.08693834998244179 -1.9048890773997904 110 89 58
0.37249400634306 0.08502504019111903 -1.9082716489461573 108 88 56
0.3764402575898154 0.08229443927755781 -1.9106761787181101 105 85 53
0.3775230944617552 0.08162510815306878 -1.9155282532026843 109 88 57
0.37344660687273196 0.084670514508836 -1.9248283042500693 110 88 57
0.37663044241534827 0.08248874481074484 -1.927884276859586 106 83 51
0.3809816175320432 0.07946622955033014 -1.9299204495075504 105 82 50
0.39246414250763234 0.07130785068047243 -1.9257425011729294 101 78 45
0.3925638910375919 0.07134628886879008 -1.9314390335679288 102 80 46
0.3938774145829103 0.07051066894277544 -1.9360820882894796 99 79 44
0.3963425916144206 0.06884555405558493 -1.9397165873909292 97 77 42
0.39740520577331656 0.06819068539321124 -1.9445809574828532 103 83 48
0.3989439323726959 0.06719288726073722 -1.9490282352701918 102 82 47
0.4012435510032438 0.06564691964818398 -1.9528025533859636 102 82 47
0.4038613698436459 0.06387162471747393 -1.956290916586741 101 81 46
0.4096436718485198 0.05981607549316734 -1.9569560837513915 100 80 45
0.41225378549518255 0.05804597659028765 -1.9604326421768792 99 79 44
0.4128108281793917 0.057755320876216765 -1.9657433219058082 97 77 42
0.41419792838254066 0.05686655475069785 -1.9703139937799619 97 77 42
0.4148821741844001 0.05648439715286341 -1.9755194638950924 98 78 43
0.4120319312689804 0.058649999173918915 -1.983924790671247 100 79 45
0.4113272996425863 0.05926939352919525 -1.990409134044494 104 81 47
0.41351339843479235 0.05780509349936036 -1.9942777946055057 106 83 49
0.4145954498277396 0.05713670633319423 -1.9991503922083955 108 86 48
0.4158503704185742 0.05634373821620514 -2.003867959121458 105 82 45
0.42099813829111554 0.05274384743721902 -2.0050167630911124 107 83 46
0.4266173336345691 0.048803646802261846 -2.0057129915125533 110 85 49
0.4077560916479434 0.06251734305181864 -2.028975982463065 112 86 49
0.4248307716171012 0.05031576145293554 -2.0190944926675494 118 91 51
0.4226466849918338 0.05200322355217271 -2.027003952566734 122 94 50
0.41374704245879057 0.05853511341376408 -2.041185366306645 167 139 85
0.41926840820646877 0.05466526243571229 -2.041961315251305 185 153 94
0.42280157865097867 0.05222933190048182 -2.044577761558711 173 140 88
0.42638740539249537 0.04975521653786405 -2.047134543789279 152 122 80
0.43153103955997785 0.04615690677646869 -2.048213735764555 110 85 47
0.43612795317309355 0.04295273306535835 -2.04979021455425 101 78 41
0.4380934689548752 0.041647140277701444 -2.0538430900047673 103 78 41
0.4321278936038984 0.04606522159874696 -2.0654285471091827 109 85 44
0.43365135842859404 0.04507902138875372 -2.069920941440178 108 83 43
0.438954842341283 0.041364475942115814 -2.070802371019444 110 85 45
0.442934024742724 0.038605477146075706 -2.072932681758483 112 86 48
0.4512382546628621 0.03272402584721967 -2.0708938129173147 110 85 45
0.4439993776714599 0.03806310338152499 -2.083797974537344 109 84 41
0.44705946262470037 0.035967316910164276 -2.0867971220849926 103 78 31
0.4459094846424527 0.03691125062468012 -2.0938693136911093 137 110 63
0.44778164147793986 0.0356731940960576 -2.098019321609688 147 118 72
0.4501650761262382 0.03406589318121708 -2.1016697009801373 161 130 84
0.45372614028236574 0.03160802207423999 -2.1041647094892793 152 124 81
0.45462164639028807 0.03107517613626906 -2.109262522863262 114 91 51
0.4553919314670663 0.03063286005514196 -2.114487704238599 109 86 46
0.4593499060454111 0.027887955159174277 -2.1165746315762504 113 86 43
0.45761862039521134 0.029252845014968915 -2.124274477601155 119 90 44
0.4700198829677485 0.020407690914106824 -2.117978643035686 118 90 43
0.4745268084767209 0.01726526512778112 -2.1194730620948037 119 91 44
0.48149699023642817 0.012342627568765224 -2.118494777657117 121 93 45
0.4781822776101541 0.014851649598578653 -2.1277725280367026 123 95 47
0.4781721814828102 0.014972993738795876 -2.1337639603021827 120 92 44
0.47909332627875345 0.01442146818508347 -2.138828150703757 116 88 41
0.47981297901514375 0.014015659141502324 -2.1440996853318346 120 91 46
0.4817959976767365 0.012696724137059356 -2.148098658102216 121 92 48
0.4859721168144011 0.009792346994140472 -2.1498712730727556 119 90 46
0.4880949347249626 0.00837215080537132 -2.15371798787019 120 91 47
0.4910224975383383 0.006370060185606402 -2.1567411426156955 122 93 49
0.49324689349794254 0.0048762682779261435 -2.160476209200922 123 94 50
0.4973933998156412 0.001992489006644921 -2.1622364099052724 121 92 48
0.4970003053376113 0.0023913784876800626 -2.1686516368393987 125 98 53
0.4972177177198165 0.002348951911305852 -2.1744488409114107 129 100 54
0.4979902867851139 0.0019051434930812405 -2.1796800325556336 133 102 56
0.5079937869756783 -0.004870905540012793 -2.193424746181461 141 110 61
0.5149866614141703 -0.009815402012245178 -2.1921373938402207 145 114 64
0.52235980130421 -0.01503565817412722 -2.1904190552623732 148 116 67
0.5222161802667786 -0.014816861699756406 -2.1965945046055766 144 112 65
0.5257092974981858 -0.017229884640632936 -2.198934431772276 148 116 69
0.5234950584761244 -0.015512211343433308 -2.2073157444582594 143 111 63
0.5264873038197719 -0.01756277826550015 -2.2101832479034287 152 120 71
0.528299714870933 -0.018759417645015236 -2.2143008462655445 150 118 69
0.5341652556534211 -0.0228903525828566 -2.2140837876691197 149 117 69
0.5351361340586762 -0.023477981013261234 -2.219089659037266 141 112 64
0.5256606575263457 -0.01650169369189597 -2.2353300944476198 135 107 62
0.534854006279777 -0.023042652864548208 -2.2315104911138652 127 103 61
0.5390248576727978 -0.02594728165192864 -2.233075534099471 118 95 56
0.5450862394066234 -0.030221382161718713 -2.232576396762409 110 88 51
0.5502980863027499 -0.03388067244187748 -2.2329744066974553 101 83 48
0.5543557028679573 -0.03670430444506606 -2.234609128276229 96 82 46
0.5579404236617522 -0.03918564422600529 -2.23674621306472 87 76 41
0.562860839312962 -0.04263486379120371 -2.237408000526655 75 64 33
0.5658876060774541 -0.04471247708971393 -2.2401308446920116 67 55 26
0.5654271612806085 -0.0442635081862828 -2.246687360916403 77 65 38
0.5646187579169769 -0.043562160734238076 -2.2536407155556613 81 72 52
0.5682570891221244 -0.04608303023083715 -2.2556828085986123 105 97 82
0.5700338386893602 -0.04725495807221086 -2.2597805470433485 136 131 122
0.5702351567798178 -0.0472850274003237 -2.2656319719525366 164 163 159
0.5666516123697687 -0.044571440163874265 -2.275718656815253 183 183 183
0.5693112011894281 -0.04638300800992781 -2.278845933478966 192 191 192
0.5756220262923826 -0.05084174765381819 -2.277867484462886 198 199 201
0.5772619763803462 -0.05191449278453508 -2.282119162438132 201 201 203
0.12348826357316073 0.24557959279678762 -1.45496892231488 114 109 103
0.13667909859676952 0.23628369515920128 -1.4527047125453296 114 108 99
0.14606278074870205 0.22969892611485532 -1.4526304511542545 99 91 81
0.1637887829648888 0.2171704605231757 -1.4475931679157 96 85 80
0.17173318655407405 0.21160950036644716 -1.448285529000565 96 84 77
0.17557732713456847 0.20896939157158528 -1.4513907639301113 98 84 72
0.17154933144469275 0.21193818030623474 -1.4591899629634115 114 98 83
0.17888289010131458 0.20681160625809022 -1.4602006352177384 112 97 79
0.18238420059292754 0.20441544574884596 -1.4634929171450106 109 94 71
0.20413623628011324 0.18901283898039806 -1.4557496418460634 110 95 70
0.20661853421466675 0.1873418648874932 -1.459602569835056 113 97 72
0.21124255276595766 0.18414435931218587 -1.4621481118943984 104 86 62
0.21562188713304925 0.18112101242764594 -1.4648297893221351 97 80 55
0.218905365303749 0.1788785779368532 -1.468171167701093 105 88 62
0.2199980305474562 0.17819773246277415 -1.4728535327128411 108 91 65
0.22189881719729976 0.17694082918852969 -1.4770392222835655 104 87 59
0.2230639157688245 0.17620840220848882 -1.48167988476633 110 91 65
0.22456809098550357 0.17523426203874826 -1.4861117533207966 112 92 67
0.22932723922285714 0.17193928268692632 -1.4885115277661534 113 93 68
0.23175417919073077 0.17030704601310281 -1.4923589593302011 119 99 73
0.2356438426106322 0.1676316759635144 -1.4952827193284188 114 95 68
0.23835966028269573 0.1657932375722406 -1.498937349623107 112 93 67
0.24163971700958775 0.1635523037047635 -1.5022295932451257 113 93 68
0.24424593281757928 0.16179183363972546 -1.5059428594268913 110 90 65
0.2440820973376241 0.16200707024142486 -1.5114195089482854 104 85 60
0.24274349772024695 0.16306042857222333 -1.5176568301269815 104 85 59
0.24305647668429825 0.1629358816411749 -1.5228462608628406 102 83 56
0.245569080080334 0.1612422493794624 -1.5266229336964985 106 86 60
0.24866296672162758 0.15913383617010424 -1.5300193308149095 94 74 53
0.2520609396456032 0.156808342162578 -1.5332115118372003 78 58 37
0.25389027279279497 0.15560195579707733 -1.5374183079152945 98 78 52
0.2566295273524871 0.15374626833349178 -1.5410289139732583 114 94 63
0.2608251552467548 0.15085121361778464 -1.5436782247684877 114 94 63
0.2623724281052367 0.1498459327749795 -1.548060717772883 116 96 64
0.26378490806879884 0.14893686020769967 -1.55253277646602 109 90 56
0.26681499564025823 0.14687326905820747 -1.5559325521949452 109 90 57
0.2696864479668795 0.14492278947653356 -1.5594315023403895 103 84 53
0.2715866134766549 0.14366552608007543 -1.5635737304073205 93 74 44
0.2734609062582452 0.1424267099761018 -1.5677320941237962 87 68 39
0.27454509910242664 0.14175192818781598 -1.5724209908970577 101 82 52
0.2766668028959932 0.14033646784508397 -1.57641195922726 113 94 63
0.2819981176228146 0.13662934169887625 -1.5782260287172194 121 100 70
0.284273393865786 0.13510400531574335 -1.5821005433818576 117 97 65
0.2877501335472222 0.13272068000617898 -1.585152381337678 105 86 54
0.28801516649197384 0.13263073145973978 -1.590394255645096 106 87 60
0.29682883729010767 0.12643580251982536 -1.5897701719498096 116 99 73
0.3052920640478917 0.12049054201895565 -1.5893537958226782 100 81 54
0.31164345071216887 0.11605306566171786 -1.5903658278244837 98 77 49
0.31711295153222446 0.11224510238681706 -1.591967562272996 124 103 74
0.32611743833252427 0.10591164647036813 -1.5910893298354465 118 97 70
0.3321345819041615 0.10171163825555524 -1.5922635260573266 104 85 60
0.3260381922098579 0.10616540301437519 -1.6019101194364977 106 88 64
0.33101299225237124 0.10270987267534035 -1.6038045714989897 120 100 75
0.3356429186127407 0.09950046431296028 -1.6059264764787884 108 90 65
0.3404934611359497 0.09613315098151287 -1.607877738293108 99 82 58
0.34522386565591723 0.09285140440748857 -1.6098989111993662 112 94 72
0.3500390393250953 0.08950880515546683 -1.6118447111803507 113 93 68
0.3547248204934409 0.08625839911703667 -1.6138677220875233 115 96 68
0.3599688299193807 0.0826087418401299 -1.6154752238824517 103 83 60
0.3645442015220756 0.07943668695958611 -1.6175468320129296 104 82 59
0.36901369098635506 0.07634005611041661 -1.6196806468871512 115 94 66
0.3734384762779161 0.07327512913274717 -1.6218330439696333 122 101 74
0.37920488964391696 0.06925081825492763 -1.6229957670942614 117 95 71
0.39707181600374974 0.056867383063759325 -1.6312770360729734 103 82 51
0.3946896968928206 0.05866866852766103 -1.6383779130186429 101 82 56
0.387977476860537 0.06356706369637513 -1.6487112285193477 71 53 31
0.3896700539129935 0.06245496990321989 -1.6528277682362411 83 62 38
0.37552490030527513 0.07267094420495543 -1.668773404303719 101 80 49
0.360386015110789 0.08359914729222012 -1.685540651751171 89 69 40
0.35397392884041035 0.08828614948494412 -1.695828919042518 86 66 40
0.33540072004383864 0.10177539867499008 -1.720874056390074 87 69 45
0.3357079491561266 0.10165726883531925 -1.7261936205026036 87 69 45
0.3382906051145698 0.0999111264127173 -1.7297866707807725 87 69 44
0.3394767894319284 0.0991641769326822 -1.7344421234433358 86 68 42
0.3373228788278937 0.10080750300440444 -1.7416602551261513 88 71 45
0.338510645047778 0.10005965448600032 -1.7463272185168337 89 71 45
0.3358494404399248 0.1020665918092172 -1.7539660194181068 88 69 43
0.33317823726653434 0.10408107649515941 -1.7616339017950704 100 81 52
0.33047235868472963 0.1061207744558472 -1.7693501482448997 101 82 50
0.3282589288179936 0.10780835165250932 -1.7767044451153613 89 70 40
0.33479915759820583 0.1032296115229103 -1.77723725984014 95 74 45
0.33999027175198676 0.09961630624276782 -1.7788033535241783 97 76 47
0.3404130221841682 0.09941674404544396 -1.7841019026283904 98 77 49
0.3468440802936276 0.09491517295742308 -1.7846662264392752 99 78 52
0.3370030676169549 0.10206518035858073 -1.7980854752493436 102 80 55
0.33755229563122585 0.10177557795128522 -1.8033127083876759 95 74 48
0.3323452764392034 0.10560850930092644 -1.813130310979901 112 91 63
0.3363574466281811 0.10283917244304386 -1.8156162112848904 97 76 47
0.34152345430895303 0.09924317203313415 -1.817165412771336 103 82 53
0.34610781271574903 0.09606348559793765 -1.819164580469315 109 88 59
0.3407353702360377 0.10001609605343972 -1.829179932169319 108 86 56
0.3436969675428385 0.09799887055946896 -1.832487652982541 108 85 54
0.350490801709864 0.09323594022645501 -1.8326783251044294 108 86 53
0.3525868172826552 0.09183847539074172 -1.83666782726614 111 89 56
0.35277218842994307 0.09181001718587928 -1.842215562536022 114 90 59
0.3545561068701547 0.09063620263501981 -1.8464611150183807 113 90 57
0.35486247859405656 0.09052123109051241 -1.8519202955472103 112 89 55
0.35964689811379247 0.08719707016685252 -1.853694729887999 111 88 55
0.36603979887585053 0.08271977862966909 -1.854123033961317 108 88 55
0.3661323478774932 0.08275795240353584 -1.8597532123390605 109 89 55
0.36704284511564034 0.08220995233171169 -1.8647107874299125 102 82 47
0.3659323357252021 0.08311081104120391 -1.8713589714587855 97 77 43
0.368034119026606 0.08170899797211212 -1.8753319984252823 100 80 47
0.36833595417839066 0.08159763234027834 -1.8808142852896421 105 85 52
0.3687937195302934 0.08137459136195296 -1.886172192122355 108 88 55
0.37103637573122794 0.07987180037599023 -1.8900281301322914 110 89 58
0.37449292953849284 0.07749846589111511 -1.8928521934448064 110 89 58
0.3699833526344706 0.08083786218371863 -1.9024391871025244 111 90 59
0.3650674976905508 0.08446922556452599 -1.9124046213104116 112 91 59
0.37178113797048684 0.07976002845098659 -1.9124571794767438 106 86 53
0.3705320366663175 0.08076195839573874 -1.9193149349501186 104 84 51
0.37486637678186857 0.07775894291962085 -1.9213830698459446 109 88 55
0.3784614401528075 0.07528601943572061 -1.924075346688923 105 82 50
0.3902946725077981 0.06690255775013512 -1.9196251414535643 104 81 47
0.39321820685695613 0.06491067838585984 -1.9228587009345255 107 84 49
0.39462222156008653 0.06400897940889994 -1.9274090943279911 103 82 46
0.39509259438960986 0.06377726608121889 -1.932776437838204 106 86 51
0.3964380992229692 0.06291764746416945 -1.9373831291022598 100 80 45
0.39950645256688305 0.060821611486274074 -1.9404772003815018 96 76 41
0.3975092955790539 0.06236107740609112 -1.948029259079414 93 73 38
0.3992479092780074 0.06121946264207487 -1.9522974656817211 100 80 45
0.4021724962320194 0.05922652288169303 -1.955513446807058 101 81 46
0.40616013828049063 0.0564703245735412 -1.9577771027704518 101 81 46
0.406409395807834 0.05639775323053994 -1.9633635161713328 100 80 45
0.406861768116313 0.05617948848071555 -1.968775624096178 102 82 47
0.40659101979489004 0.05648055244754718 -1.9748430838613342 100 80 45
0.40889147400958736 0.054935514814617115 -1.978606371763861 100 80 45
0.4082746667982316 0.05548533833084207 -1.9849999069147783 101 80 45
0.4111195080439135 0.053549358273025344 -1.9882711315036514 105 82 48
0.4166799173694604 0.04966290908657889 -1.989069806533362 106 83 49
0.4197509395000447 0.047564104605135354 -1.992114942944796 106 83 49
0.4314452373501422 0.039270976357224346 -1.9872748295423355 107 83 48
0.43094230834338654 0.03973884706774561 -1.993555980510585 106 82 47
0.42861244966914314 0.04151941120962377 -2.0015274824443408 106 83 47
0.4124341126662795 0.053249917311104816 -2.0222834044913047 108 84 46
0.4268580304065853 0.042994240348208146 -2.0148494543069577 108 84 44
0.42629909515875436 0.043503331891031755 -2.021235883609304 114 89 47
0.4149749831275859 0.05174857106051997 -2.0376431003279105 132 105 54
0.41768428230526833 0.04990989948638147 -2.0410352677152073 189 156 96
0.42226453495176713 0.04672645743368217 -2.0426720584112052 178 143 88
0.42502526312998445 0.04485051839137108 -2.0459994688977643 161 130 84
0.4303866244321682 0.041105118049487965 -2.0468746269201032 125 98 61
0.43515840965340236 0.03778316731241915 -2.048285720308536 102 79 46
0.4314260762298799 0.040574568572420394 -2.057725488812613 96 73 34
0.43086146403128106 0.041089056585595446 -2.0641891117517086 107 84 43
0.42528758226620605 0.04520546668465694 -2.0754316787696663 107 84 43
0.42716725767173047 0.04396307151806819 -2.0796008153732113 108 84 44
0.4362363827501767 0.03755066676740129 -2.076887808034966 111 87 47
0.44770215806461827 0.029413943435689538 -2.071833524512177 106 82 41
0.44026579160675505 0.03487081200362552 -2.084920450718161 110 86 42
0.44346784730307076 0.032676816777378825 -2.0877875619362958 107 83 37
0.4446134867256815 0.0319618656578633 -2.0926370236597887 125 99 52
0.4463848580437029 0.030796839284748412 -2.0968817767319248 152 123 72
0.449609111411456 0.028586580644603565 -2.09971121164367 154 125 79
0.45270608496441184 0.026467735162833295 -2.1026562002852316 147 120 78
0.4558513933863051 0.02431396476910891 -2.1055458119982435 120 97 57
0.4562931856265974 0.024105397340917767 -2.1110821254389913 105 82 42
0.45687220458786665 0.02379820332258195 -2.1164900593905496 106 80 37
0.46836790109573045 0.01574393825367343 -2.1170848500569304 118 89 45
0.4732449180666774 0.012342972279226372 -2.1182127161529687 116 88 42
0.47768048737575525 0.00925943712575572 -2.119762129752388 121 93 46
0.47340345781672594 0.01244758263423526 -2.1299989373527026 119 91 44
0.4821295376833686 0.006275074598574626 -2.1272434929542015 121 93 45
0.47997541457164217 0.007935328742547348 -2.1353778677522013 117 89 42
0.4779228833530826 0.0095228274997472 -2.143431398130078 119 90 45
0.4810352894790448 0.007391538502776601 -2.14628812493394 118 89 45
0.4827494568872143 0.0062670146216987355 -2.1505530464151037 117 88 44
0.48206988328962885 0.006866419694346398 -2.157249423174272 121 92 48
0.485655176929946 0.004394352261631401 -2.1596141585937825 123 94 50
0.4889286112156118 0.002146711336291629 -2.1622864407008833 123 94 50
0.4902525602594299 0.0013031955068653067 -2.1669466281090264 124 95 52
0.49349230703983005 -0.0009204158793463257 -2.169640481999411 123 96 52
0.4969203506469286 -0.0032798524403140628 -2.172131211402788 125 95 51
0.49072104032925296 0.0012970237206707258 -2.1845575151387924 130 99 54
0.5007693158712526 -0.005832501500530746 -2.180197161735652 134 103 57
0.5018079105738531 -0.006359954979686916 -2.1911842494389293 141 110 63
0.5064930949925073 -0.009625901201167936 -2.192335801739111 140 109 62
0.5138931836759435 -0.014848973213239608 -2.190625875424855 139 108 60
0.519385054076363 -0.018697181489123693 -2.1908869666070077 147 116 70
0.5192573449110028 -0.018494815566343248 -2.1970448248233687 140 109 64
0.5217653639515911 -0.020192418633733583 -2.200429034534851 137 106 59
0.5238762580079162 -0.02160379706373286 -2.2042287711540203 141 109 62
0.5264129024926987 -0.023322204973597327 -2.207573566536085 148 116 69
0.5214309895113138 -0.01961920444765461 -2.218920116857971 150 118 71
0.5358219316189476 -0.029885971943355183 -2.2096172232125375 152 120 73
0.5381997206524602 -0.03149033773324397 -2.21310357098797 136 107 60
0.5236277109358086 -0.02086984058942648 -2.2347855697495507 138 111 65
0.5312702928651738 -0.02627093943367781 -2.2326443451299025 131 107 62
0.5363634832549172 -0.029833677042634565 -2.233220216947177 120 96 55
0.5417753390550855 -0.03362667519894047 -2.2334307113136034 114 92 53
0.5474822775658336 -0.0376329725426337 -2.2332985552708235 99 80 46
0.5515964380786097 -0.0404904995935276 -2.2348760331021955 97 81 48
0.55397054556591 -0.04209272901936453 -2.238337996996156 88 76 42
0.5598781145585772 -0.04624486656203927 -2.2379283438424755 77 68 33
0.5633303677573547 -0.04862552463732067 -2.240187730465812 68 56 24
0.5625931953034031 -0.04798274023086346 -2.2470462394156914 80 66 36
0.5641963112542951 -0.049028886883617645 -2.25133659027275 83 72 52
0.5686171030728623 -0.052108946070740736 -2.252509675169944 97 88 73
0.5713154442909716 -0.053945881706441656 -2.2555768266291563 122 117 105
0.5612123076066804 -0.04654089685208171 -2.2728773128404 155 154 147
0.5652101289534831 -0.04931559804434754 -2.2745205675873037 177 176 177
0.5681508205549868 -0.05132724802539684 -2.2773318311903337 190 189 191
0.5698207884759989 -0.052421432885694674 -2.2815601399947734 196 196 198
0.5735951682288568 -0.05503536860624994 -2.2834219953388053 201 201 203
0.5754708145859596 -0.056278226160153155 -2.2874115259496905 204 204 206
0.1151669202558619 0.2452828103240371 -1.4473197961344118 133 127 121
0.1272412500748884 0.23680837951011008 -1.4457679228912232 117 108 98
0.13726849112157086 0.229786259830456 -1.4453647886987584 97 87 76
0.15222404986733568 0.21926495982609032 -1.442038019082865 102 91 79
0.15451756803832023 0.2177316982969452 -1.4460973510614368 104 94 82
0.1641860908040288 0.21096241835548657 -1.4458013403868943 95 85 78
0.17140908532417437 0.20592884197591563 -1.446918589046021 91 79 72
0.1735432357518591 0.20450811363719207 -1.4510371360670389 103 88 75
0.1769380632777124 0.20219216887485086 -1.454401171152269 114 98 80
0.1853521583262009 0.19631181682374366 -1.4547505306127557 110 94 72
0.1995739420386085 0.18630656376311067 -1.451577476768677 110 95 70
0.20378968513892126 0.18340657920203038 -1.4543874729140818 110 93 68
0.20686759766933477 0.1813145212618847 -1.4578752943761475 110 94 69
0.2026439620817867 0.1844084595060068 -1.4657963535062117 104 87 61
0.215223783505606 0.17556712017446482 -1.4634889099230854 99 82 55
0.2134690200072985 0.1769075492848714 -1.469912751906971 94 77 50
0.21907535576593068 0.17301896949357998 -1.471826426897432 107 90 64
0.22374871519424416 0.16979289387606625 -1.4742979484611665 105 88 62
0.2283500036349395 0.166617782858615 -1.4768004423684151 100 82 56
0.23232340106403887 0.16388856165203824 -1.4796798444061228 109 90 65
0.23622039685462004 0.1612134425926496 -1.4825963596804592 118 98 71
0.24069809610098897 0.15812550068329675 -1.4851390777791404 117 98 69
0.24550729275687666 0.15480175988758935 -1.487460613182678 115 96 67
0.25008229226250184 0.15164420329299655 -1.4899154251570406 115 95 67
0.2530911011308446 0.14959952216254063 -1.4933481200834897 112 92 66
0.2544668546053856 0.1487154283958098 -1.4978118559983593 110 90 64
0.2490140752221227 0.15268502251505664 -1.5066298055202374 104 84 58
0.24834831243673955 0.15325241997873354 -1.51241760518028 106 85 59
0.24601917224103576 0.15500245197875037 -1.5192839381038505 106 85 58
0.24926454020325756 0.1527898149035873 -1.5225765606082882 106 85 57
0.25154454871078685 0.15126337388984806 -1.526486069403299 106 86 60
0.2544560352461874 0.14928790465882105 -1.5299828526803518 96 76 50
0.2570950126757137 0.14750609595853745 -1.53365125928632 89 69 40
0.25993992685596934 0.14557777010032266 -1.5371804731880145 118 98 67
0.2624314038837296 0.14390068097739894 -1.5409359292609404 118 97 65
0.26384036379098647 0.14299336066815999 -1.5453999283683049 117 96 62
0.2651422443092981 0.14216221350771133 -1.5499357170372998 114 93 59
0.2688566292231294 0.13961523169697793 -1.5528740432129726 106 86 52
0.2729488768395754 0.13679931535211778 -1.5555514038540403 110 91 57
0.2737328693668757 0.13633642158888806 -1.5604254613762678 110 89 57
0.2754956768614798 0.13517730829742644 -1.5646478928649366 102 82 50
0.2778163765788145 0.13362129996024627 -1.5684947676910703 95 77 45
0.2786186285612237 0.1331455220173882 -1.5733625667378552 109 90 58
0.28491929667138816 0.12875778618591008 -1.5745129914346307 118 97 66
0.2873705169838816 0.12710863946419412 -1.5782558544165428 119 98 66
0.2898198963714338 0.12546073532005586 -1.581996135869634 115 94 63
0.2923771545227001 0.12373599665348509 -1.5856588114036292 100 79 51
0.2921501433451108 0.12399259922302011 -1.5912276407032084 107 88 62
0.3010223677798527 0.1177735331026506 -1.5905400963236884 119 99 72
0.3091448220993419 0.11208750123280584 -1.5903364120868966 96 75 46
0.3126369166247165 0.10969668880867631 -1.5933120631936672 130 108 73
0.32013634258745355 0.10445325033329833 -1.5934912945816255 123 99 66
0.32797283051472803 0.0989693837887809 -1.5934074156027422 108 87 62
0.3322313472748954 0.09603214358746878 -1.5957999024469816 103 84 62
0.3360578547896016 0.09340224650229867 -1.5984834098963099 113 93 70
0.33324601359981637 0.09549853439298081 -1.6058371762169266 111 92 66
0.33947220139482964 0.09115992025728956 -1.6068176300084647 99 81 56
0.3434989728775826 0.0883870436881033 -1.609337399926108 107 89 66
0.3506288337057588 0.08340423746644718 -1.6096353767451275 110 90 65
0.35439524916507403 0.08081623636504018 -1.6123106654971866 109 89 61
0.35970404548796964 0.07712958579274617 -1.6138696116500917 108 87 63
0.3629329003353374 0.0749240230921506 -1.6169072058738765 104 83 59
0.36738957663084976 0.07184377779508105 -1.6190506527506066 104 83 57
0.3711405305701954 0.06926598837756301 -1.621691477605605 118 97 71
0.3762067408032121 0.06575108273068994 -1.6233661506617187 115 93 69
0.3671478992072361 0.07229858115570076 -1.635322529595388 111 89 64
0.37664737153257305 0.06581382258665083 -1.644494547108895 109 88 58
0.3945944821957579 0.053119729593532894 -1.6366170627341161 102 81 55
0.3890996655004585 0.05712927696196174 -1.6460354854299957 111 91 67
0.3906391224713341 0.05612640986044795 -1.6502573783015098 85 64 39
0.3787005858217821 0.06472930151927148 -1.6645352028227947 108 86 53
0.3624777030729549 0.07638698642970149 -1.682086009943794 96 75 43
0.3597381779482149 0.07843546739034593 -1.6895983949215412 88 69 39
0.3416859399292301 0.0914966133488096 -1.7141908094527454 90 71 45
0.33715220704838417 0.09482587745045482 -1.723158726546199 87 68 43
0.33976640891536675 0.09305950192611678 -1.7267189430482923 87 68 42
0.3429912709587087 0.09085764077602973 -1.7298082580426324 88 70 41
0.3431010292465498 0.09087684738423757 -1.7352749994261043 90 72 42
0.3325080909251514 0.09852814185027844 -1.7489708668688762 97 79 50
0.3335229840960522 0.09790259855472103 -1.7537816063813967 94 75 47
0.3296852853554628 0.10073785281139241 -1.7623471467121985 93 74 44
0.32413159490773735 0.10479746018601416 -1.772270824219368 108 89 58
0.32821093021654824 0.10198683169300315 -1.7747348773198945 101 82 51
0.3321144661905171 0.0993013898138847 -1.777324087487192 96 76 44
0.33855252952964504 0.0948077491390227 -1.7779173570000397 98 78 49
0.33970639369740463 0.09408339704110372 -1.7826378361242885 101 80 52
0.3403818833005207 0.09370037800832678 -1.7877377694126475 93 73 45
0.33775618422705145 0.09567277750531836 -1.7954523837304721 105 84 59
0.3394662396172579 0.09455188683081298 -1.7997498363250592 96 74 49
0.33027727105500626 0.10120818990669728 -1.8127180909931617 100 79 52
0.33296537270610355 0.0993898237336108 -1.8162617646084398 113 92 60
0.3352356080138344 0.09786957970155341 -1.8201348069989223 107 86 55
0.33814730396144593 0.0958914703911862 -1.8234895832163274 112 91 59
0.337387372261864 0.0965338569001829 -1.82979611208009 114 93 59
0.3422905813577022 0.09313416640953054 -1.8315379758892985 115 92 57
0.34913173460921765 0.08835081668564743 -1.8316922793973056 113 90 55
0.3515515809689871 0.08672328197230789 -1.8354159416329276 113 90 55
0.35302440887232744 0.08577177731804278 -1.8399082784710672 114 90 57
0.3531876148374069 0.08575531669011063 -1.845473238306668 114 90 56
0.3536363322586695 0.08553513041645 -1.8508114085505283 113 90 55
0.3580088857333346 0.08251320773253526 -1.8529246968634565 112 88 54
0.3611182120188492 0.08039311457967019 -1.8560675086062435 110 89 55
0.3670342754914597 0.07626846699042045 -1.8568773481158045 108 87 53
0.371486705941959 0.0731887509100779 -1.85888177239282 106 85 50
0.3736394420186995 0.0717513094521281 -1.8627890020214513 103 83 49
0.36989980928966676 0.07452263728160596 -1.8716210866504628 97 77 44
0.37181040077625166 0.07325834097850928 -1.875741375142492 101 81 48
0.3703663121521832 0.07439051320808127 -1.8826829270532057 106 86 54
0.37206115507910414 0.07328045623554127 -1.8869912619786111 110 89 58
0.37494507488641565 0.07132084327364405 -1.8902927455925882 109 88 57
0.37355619594766226 0.07241407121027937 -1.8972160913798264 109 87 56
0.3760654367211759 0.07072215695322343 -1.9008350033688894 114 92 60
0.37206564716939167 0.07368151809533482 -1.9100103799887422 109 87 55
0.3821607716327624 0.06656852526156684 -1.9071366744834237 105 83 51
0.3846409086793238 0.06489712707618592 -1.9107644223454405 105 83 51
0.3892946238134257 0.06167211561852429 -1.9125138877474215 103 82 48
0.39061763961994844 0.06082755619657479 -1.9171279217669133 84 63 29
0.3920307123259055 0.05991865124509008 -1.9216655370787967 90 68 33
0.3943845896607876 0.05833721008067719 -1.9253858809388298 94 73 38
0.39603078018206317 0.05726164406470166 -1.929720060318234 105 84 49
0.3966059655878024 0.05695181169570762 -1.9349916394374507 91 70 36
0.39800777682344385 0.056051029767729466 -1.9395431798481038 94 73 38
0.39880075828578476 0.055585620252506296 -1.9446321004800886 99 78 42
0.39843339349656 0.0559500606454609 -1.9507503000403452 106 85 50
