ply
format ascii 1.0
element vertex 682
property float x
property float y
property float z
property uchar diffuse_red
property uchar diffuse_green
property uchar diffuse_blue
end_header
0.17567900433800687 -0.2763982301329986 -1.775397486801562 108 87 48
0.1743461558616817 -0.28062353390598627 -1.7781127924835114 109 88 50
0.17510494074137956 -0.27866004040316183 -1.7850621484145095 102 80 44
0.17606079945224895 -0.27611438843791736 -1.7924287056750192 139 118 84
0.17655515179575343 -0.274934819710168 -1.7988718516537123 121 98 59
0.17698600396787842 -0.2739437348343476 -1.8051979375980802 113 91 53
0.1789665577408511 -0.2683703329783302 -1.8147185995410373 112 89 52
0.17427242559750228 -0.2825355432534969 -1.8105225446294915 111 88 51
0.1707431643322826 -0.29325394981118447 -1.8086817576687237 110 87 52
0.17002018107686695 -0.2956741106910876 -1.8126190579510855 110 88 53
0.16969924757566393 -0.2969056937334859 -1.8173898430637005 110 87 52
0.168616200194467 -0.30039000488390266 -1.820574823350644 103 80 45
0.16818238888017695 -0.3019552370821675 -1.825110622358428 104 81 45
0.16775526603561616 -0.3035007813964731 -1.8296619250191226 102 80 44
0.167229472251485 -0.3053379524937741 -1.8340072581543807 110 87 51
0.1669351441398389 -0.3064912989752529 -1.8388412108404995 109 87 50
0.16487137800466178 -0.31287186309878456 -1.8399346134389598 109 87 50
0.16522422500625278 -0.31211337750016394 -1.846137295940414 111 89 52
0.16575161423494222 -0.3108399860101293 -1.852722819672337 111 89 52
0.167657260056887 -0.305497179766708 -1.8622639857922703 110 87 51
0.16742495645935243 -0.30646884809335234 -1.867258902521919 109 87 50
0.1665345323614652 -0.3093837878830647 -1.8708447450492423 107 85 49
0.16807043052664253 -0.30513573650770554 -1.879651522172088 107 85 49
0.16545427665885526 -0.3131450098239076 -1.8795168890716054 110 88 51
0.16405391250920387 -0.3175645815601579 -1.8819898087709022 110 88 51
0.16293741345046198 -0.3211458750894 -1.8850687143105058 109 87 51
0.1622278508675425 -0.3235260120663214 -1.88902713935606 111 89 54
0.16354892557273465 -0.3199147260101509 -1.8974209324642075 112 89 55
0.16066912651613108 -0.328697812730481 -1.8966321037728449 111 89 54
0.1638668941534835 -0.3195517470655084 -1.9091716961670784 110 89 53
0.15971189511912207 -0.3320949294999505 -1.9055514266898093 110 90 53
0.15928514679484201 -0.33364059814222485 -1.910127177868544 109 89 52
0.1577795581927024 -0.33836764054187735 -1.9123126842883635 106 84 48
0.16279973892616267 -0.3238529997520195 -1.928995829699598 106 84 48
0.1610284310238569 -0.32936432543475674 -1.9306062288124253 107 84 49
0.16051639645480187 -0.3311627477583523 -1.935017136725242 108 85 51
0.15833086622626136 -0.3378937791766617 -1.935675439883467 108 85 51
0.15895353151268488 -0.3363475844701551 -1.9426288032838346 108 85 51
0.15620899204628758 -0.3447246624761408 -1.942002330453731 107 84 50
0.1552037899251945 -0.3479753733438406 -1.9452820545111993 106 83 49
0.15438654511749875 -0.35067203432961774 -1.948982329089613 96 73 39
0.1536722978641677 -0.35306510841394856 -1.9529135089525818 106 83 49
0.1537112950113563 -0.35323942504283956 -1.958561072907048 104 81 47
0.15352188329739758 -0.35408683259079354 -1.9636937375723054 102 79 47
0.1528873142119776 -0.35624537771294956 -1.9678097658941558 104 83 51
0.15130969159142302 -0.3611806370390013 -1.9697548872101696 104 83 51
0.1497320019041867 -0.3661154008101435 -1.971686532912832 102 79 47
0.14895497821891684 -0.3686924959890589 -1.9754574974949692 101 78 46
0.15150778487420188 -0.361468323934162 -1.9869521704342263 105 82 50
0.15229711798491052 -0.35943631977122326 -1.9943838714277453 106 83 51
0.1505318813495038 -0.3649226842122053 -1.9958720581402818 106 83 50
0.15040588840167887 -0.3655849021157686 -2.0011803089540456 105 82 50
0.15166150455329291 -0.3621826272898852 -2.0097362703445665 103 80 48
0.14796617606054957 -0.3733459037320072 -2.006665585729745 104 81 49
0.1466974703420395 -0.37736940738921365 -2.009279835623584 103 82 49
0.14602777752755078 -0.379630700622801 -2.013302135826669 96 75 42
0.14629356238398206 -0.37914095769670314 -2.019542715093842 102 82 49
0.1449269149511767 -0.3834517056471402 -2.021909706214913 95 74 41
0.14490727324489927 -0.38380168453898056 -2.0274800800787403 91 71 38
0.144840837348476 -0.38428959016240566 -2.0329455506854193 87 66 33
0.1437901103414681 -0.3876709792982154 -2.0360558027909854 80 57 25
0.14214252875535316 -0.3928061668516899 -2.0377234324886793 100 77 45
0.14230609111161474 -0.3926183157966136 -2.043746174423672 99 76 42
0.1415920001036184 -0.3950097557849827 -2.047655146562773 100 77 44
0.14161879004021477 -0.3952244222967515 -2.053359322846979 99 76 43
0.1402631477612334 -0.3995005117011426 -2.055708300255648 101 78 44
0.14021170037882208 -0.3999453059348086 -2.061227892019444 102 78 44
0.14110000509840892 -0.39763049534082145 -2.0690528150159406 105 81 47
0.13988858894947542 -0.40148261900529614 -2.0717470972844643 108 84 52
0.1384926008137488 -0.40587622448267596 -2.073978638339262 126 103 69
0.13793846084511852 -0.407797702477383 -2.0782749566917307 112 89 57
0.1369088553968074 -0.4111149088397447 -2.0813955264479067 102 79 47
0.1366920030563159 -0.4120462298311545 -2.0865249494754265 99 76 42
0.13425460232984332 -0.4194946499346924 -2.0861379818267056 95 73 39
0.13590090419891643 -0.4149583344363044 -2.095906407920178 97 75 41
0.13525919526039604 -0.4171368089757643 -2.0999849894774774 99 76 44
0.1345788277904612 -0.4194286357673544 -2.10396547936612 103 80 48
0.13422359915530166 -0.4207666135142025 -2.1087614336838776 110 87 54
0.13305949412414325 -0.42447719732297134 -2.1115216145686646 105 82 48
0.13226679214109566 -0.42709814124319473 -2.115212003986171 102 80 44
0.1320307691307515 -0.4280865481674743 -2.1203095994917023 101 78 43
0.13137946074925372 -0.4302927871600366 -2.124356471877045 100 78 41
0.13172459833496905 -0.4295777528485894 -2.130940295060644 100 78 40
0.1277139580137909 -0.44163130735282663 -2.126410990575068 103 82 40
0.1267340467516196 -0.44479960279333575 -2.129596132703628 106 82 40
0.12587421594259807 -0.4476156905970704 -2.133083757697915 115 88 45
0.1249472323372149 -0.4506283293220364 -2.1363942523168227 119 89 46
0.12466701904845268 -0.451745764760366 -2.141369271000795 124 95 52
0.12348349625084311 -0.4555096246866954 -2.144009839028943 134 106 62
0.12472955735459922 -0.4521564738230249 -2.1529472753528673 137 108 63
0.12448227912493937 -0.4531782551961916 -2.1580234733500228 140 111 66
0.12408103103189615 -0.4546511418545075 -2.162702146935546 146 117 73
0.12368362725206501 -0.4561128805221152 -2.1673929600108766 142 112 68
0.1229901986484609 -0.45844139915034005 -2.1713094529725674 139 110 67
0.12184844596436793 -0.46208220779089354 -2.1740449469900476 137 108 67
0.1225771557051705 -0.4602478078114285 -2.181704337058944 140 111 69
0.12008293992312906 -0.46784656702335026 -2.1808608404869965 139 110 67
0.11834092644318005 -0.47324279308055706 -2.181984210999709 145 114 68
0.11789758613377234 -0.47483839181049087 -2.1865424668787954 155 123 77
0.11629203039778334 -0.4798341514574625 -2.1880052961233725 148 116 70
0.11454798298821195 -0.48523425399700193 -2.189083384279726 153 123 76
0.11581684761256678 -0.48182134743244687 -2.1982152999126723 155 126 77
0.11443858389713632 -0.48615109993993405 -2.200263411500568 159 130 81
0.11473173418332057 -0.4855929292809431 -2.206800467441266 152 124 76
0.11136620407524785 -0.4957322477486756 -2.2034720646400903 142 113 68
0.11098254186247161 -0.4971525186445678 -2.208175148875963 148 120 75
0.10817441492962787 -0.5056595356199496 -2.206301133461999 148 121 75
0.10448275055928291 -0.5167471197078874 -2.2019913132345064 148 121 74
0.10814903639777856 -0.5063307645021439 -2.2177086359513236 144 119 71
0.10634350591036759 -0.5119054049180609 -2.2185204005126495 143 119 69
0.10563542072507563 -0.5142729380725972 -2.222323573354525 145 121 69
0.10428032488367266 -0.5185303518697211 -2.2243457554123403 145 122 70
0.10206830531813464 -0.5252900342530825 -2.2239945994008252 135 110 61
0.10067789995856621 -0.5296490532221614 -2.225890141217969 136 115 65
0.1003113808903026 -0.5310176811442922 -2.2306102584052954 140 119 69
0.10052637528015773 -0.5306886276773712 -2.23694810125037 137 115 68
0.10142211371915369 -0.5283728594937809 -2.2451924529542526 135 113 68
0.09878767272357739 -0.5363624129622313 -2.2436016824308793 131 111 66
0.09902941726644336 -0.5359561764710311 -2.2500314701321975 121 103 64
0.09784028969629503 -0.5397260366222385 -2.2524572605685966 106 89 61
0.09682110002555197 -0.5429995738335989 -2.255351902697041 107 92 63
0.09879688410274008 -0.5375351885734203 -2.266687137175195 109 96 73
0.09919051109974479 -0.5366878994271992 -2.27358473405049 134 127 112
0.1001210715870355 -0.534275261646749 -2.2820180412405535 162 160 155
0.09887431024126565 -0.5382134259318303 -2.28428440236267 183 181 181
0.09726388759565731 -0.5432114684085083 -2.2855044578619865 193 193 194
0.09470815243476007 -0.5509648011157438 -2.2840087472637847 202 201 203
0.09403200373574776 -0.5532373300479345 -2.2878667761014495 206 205 207
0.11045770281596795 -0.5056616460011248 -2.3408240623073326 208 208 210
0.110948311079051 -0.5045400418052999 -2.3481608729323242 211 211 213
0.11125726669948752 -0.5039485702520271 -2.3549887354443735 211 211 213
0.1103599217216763 -0.5068724859620642 -2.358339481926971 212 212 214
0.08643957387768046 -0.5768682448855659 -2.2949135265167797 212 212 214
0.10693710213349404 -0.5174620980478903 -2.36029228810783 213 213 215
0.07979957738548979 -0.5968092529989097 -2.2871303920800266 214 214 216
0.19782906385476076 -0.15891427881592646 -1.0977571605762844 190 191 193
0.20872917134710345 -0.12627020320794008 -1.1157718590289314 191 192 194
0.22940947688444446 -0.06413277425899788 -1.14590633419875 192 193 195
0.23518604887346822 -0.04695564931831747 -1.1578965887994823 192 193 195
0.22242822335510298 -0.08567613648448325 -1.1470167563601488 193 194 196
0.23433096055493938 -0.050027673098488046 -1.1666552292643038 193 194 196
0.2380263911443299 -0.039132263746479046 -1.1761816277666377 194 195 197
0.2272161477740193 -0.07197249745801637 -1.167574239734074 194 195 197
0.280937979170226 0.08973455617759712 -1.2400678559741753 195 196 198
0.27749289540010513 0.07908958938239175 -1.2408909528316592 195 196 198
0.2741162363737216 0.06865238035108506 -1.2417706896479368 196 197 199
0.27232951373980296 0.06300850307903483 -1.244646788765332 197 198 200
0.2658474233690419 0.04321532422398722 -1.241502543101416 198 199 201
0.15285666002866238 -0.2975206999584892 -1.1014608042955907 198 199 201
0.15204707849121507 -0.3006434086966446 -1.1140151998682566 199 200 202
0.1520139494628549 -0.3009714582985846 -1.1185140291320128 200 201 203
0.14956288782826413 -0.3085825750826729 -1.1198474373310883 200 201 203
0.1480741474097756 -0.3132943943261671 -1.1224270337404798 201 202 204
0.30406772331289816 0.1482867215840422 -1.491567495965899 203 204 206
0.2953194297077798 0.12173353516952412 -1.484142431076228 203 204 206
0.29297914561531513 0.11442828386145532 -1.486174219881326 203 204 206
0.2857944851422022 0.09257755726893657 -1.4809427828186805 203 204 206
0.289195430408385 0.10251346157299224 -1.491526030602613 203 204 207
0.28281732589285147 0.08308855644631685 -1.4874223241905606 203 204 208
0.27577656400474404 0.06167763311798591 -1.4822526012911188 202 203 208
0.2693302316252859 0.04205456764982729 -1.4779133331433176 205 204 206
0.263167107520738 0.023284782986488395 -1.473940294077403 191 189 187
0.25790516142116593 0.00722262180397637 -1.4712827264633515 158 155 149
0.2521584081631978 -0.010291726176838711 -1.467829227698526 136 128 119
0.24790483032751112 -0.023322879927204943 -1.466617198529534 130 120 107
0.24385743529896456 -0.03573337202826121 -1.465682706456523 129 114 99
0.2397285188807276 -0.04838647208185831 -1.4645829272515423 124 108 90
0.23783577048712778 -0.05432979599724408 -1.4669239507930456 124 108 89
0.2333909950420037 -0.06792690327362283 -1.4652635453050755 121 105 83
0.23096414539097435 -0.07546984226717413 -1.4667231960863485 117 101 77
0.22834291739128942 -0.0835946370920515 -1.467856100394298 111 94 69
0.2264898271160437 -0.08941497290435318 -1.4701787249945313 109 92 66
0.22770261387515284 -0.0860422738187997 -1.477344995135043 118 98 72
0.22635892019531853 -0.09033485495085969 -1.4804658552657772 101 81 52
0.22223466456829022 -0.10296227140099934 -1.479140456368345 113 94 64
0.22368667110919221 -0.09887331077998063 -1.4867053382516389 113 94 64
0.22517099670064733 -0.0946886293888044 -1.4943449183506532 109 90 61
0.21973991537940657 -0.1112295002959155 -1.4908541633518726 106 87 57
0.21891362659534017 -0.11396906841470511 -1.4947611278809978 102 82 53
0.2172545659702427 -0.11920369548112031 -1.4973124725334306 103 84 54
0.21490074044323904 -0.12651920059229038 -1.498718925916236 110 90 62
0.21229405783321698 -0.13459116280648165 -1.4996913749527097 116 96 68
0.2096045852146735 -0.14290994163368154 -1.5005045859064112 102 82 54
0.21086865650263925 -0.1393861269049938 -1.5078048309654466 99 79 51
0.208737650931076 -0.14603107148533517 -1.5095148594352743 99 78 47
0.20846488806403468 -0.14711050315752078 -1.5142885843779856 109 88 58
0.2080121083785464 -0.14872911523792265 -1.5187659656425727 106 85 57
0.2074516938496876 -0.15067004241834053 -1.5230647811073896 111 90 62
0.20615688485060107 -0.15480951530926784 -1.526132980901606 96 75 45
0.20567600698507388 -0.15651213887919324 -1.53056117683859 107 86 56
0.20473997394320506 -0.159577135134635 -1.5342223261794925 117 96 66
0.19944362106323021 -0.1756915715184973 -1.5304976643749635 116 94 60
0.19669634368919836 -0.18417506860272137 -1.53104823369995 116 93 59
0.19492457786903783 -0.18973832458767748 -1.5332361063127815 114 91 57
0.19280820191213421 -0.1963319273821888 -1.534820504153371 98 75 40
0.19139414004437644 -0.20082353308161166 -1.5375919107031926 115 93 56
0.19302479067317863 -0.1962067751024264 -1.5455955726990909 120 98 61
0.194067766175498 -0.19334906954470804 -1.5526092654089985 124 102 65
0.1946938331387506 -0.1917391777291534 -1.5589187958667536 121 98 63
0.19452657762249287 -0.19250239912572353 -1.5638622638890083 117 95 57
0.19335133418742917 -0.19627993115435238 -1.567051237168592 118 96 58
0.1915554576921379 -0.20191273283187056 -1.56914629210183 112 90 54
0.19065853236167393 -0.20485728660566327 -1.572805987130799 96 76 41
0.1899632592134426 -0.20719883347358958 -1.5768170441379161 94 75 42
0.18944334889052597 -0.20901613057256258 -1.5811365064859166 92 73 40
0.18756749004819542 -0.21488601163183008 -1.5830505229420266 92 74 41
0.18595505114402866 -0.21996789669498418 -1.5854178947770525 102 82 49
0.18579939428927106 -0.22069608243948569 -1.5903745718404405 107 86 52
0.18251612106179266 -0.23076933685696216 -1.5897315690944755 111 87 56
0.17872181933208597 -0.242367695855432 -1.5881376462423786 112 89 55
0.17647846162775785 -0.249331066600615 -1.589302801106233 128 105 72
0.17309744400832988 -0.25969157100161416 -1.588389231948438 121 98 66
0.16957635585300282 -0.2704687328730303 -1.5871878258380896 123 100 68
0.16720423413275026 -0.2778128920096804 -1.5880438754454465 115 92 60
0.16437572479280546 -0.2865187631784152 -1.5880442481558825 116 93 59
0.16183738393044778 -0.2943568936474465 -1.588549404897481 131 108 74
0.15910486656444522 -0.30277353738100055 -1.5886736635401975 116 93 61
0.15691666226092305 -0.3095640014953268 -1.5897761302557307 136 113 79
0.15378041967800213 -0.3191832473903262 -1.5891040000485535 138 114 79
0.15269922511450434 -0.32266749777988524 -1.592217174352399 134 108 75
0.15121473421805506 -0.3273549642258298 -1.5945724437735764 138 112 80
0.14994647430524974 -0.3313966315849734 -1.597320461876545 131 108 75
0.14959196139751557 -0.3327115365440738 -1.6017729219392223 139 118 88
0.14992196998724994 -0.33198436784655605 -1.607515064616881 108 87 58
0.1486418327145267 -0.3360608912437533 -1.610229229981045 86 66 37
0.148728240537053 -0.33606087962402764 -1.6155212487484054 81 62 32
0.14781802240467584 -0.3390336411459818 -1.6189281039325436 97 78 47
0.14568195246499815 -0.3456618599582171 -1.6199951254224485 87 68 36
0.15305449690039274 -0.3239357752664996 -1.6392142195579433 105 87 58
0.1570320345472529 -0.3123368812170542 -1.6520202093852918 117 101 73
0.16220704533914398 -0.2971707615758264 -1.6671836471798334 96 80 56
0.1626719102058362 -0.29604880765864694 -1.6733295055532371 93 78 57
0.17108769679948965 -0.2712286191723 -1.694874510364172 88 73 53
0.17420683063299408 -0.2621997012770989 -1.7062457755536866 79 63 45
0.17466533236766008 -0.2611017892465029 -1.7124803210577313 70 57 40
0.17443707131633682 -0.2620508584545076 -1.7173855674714342 59 50 32
0.1727899216485524 -0.26722758964279003 -1.7195143503522474 77 66 48
0.17185886905412023 -0.2702703146855784 -1.7230373616295012 77 65 44
0.17271401393657285 -0.2679920694361191 -1.7300776701190532 82 69 45
0.1727319640933119 -0.2682082712989004 -1.7354792937956147 82 67 41
0.17250003425245758 -0.2691690135581406 -1.7403921198846766 99 83 56
0.17099427463822525 -0.27392326938611383 -1.7427737858568961 114 97 62
0.17048817668095928 -0.275700368698791 -1.7471393188893045 141 119 73
0.17060557941094742 -0.27562116779013757 -1.7527538973468175 106 84 39
0.17018804641074536 -0.27713486092910783 -1.7573022512890106 102 80 42
0.16957204015526434 -0.2792394218313717 -1.7614523859921127 111 89 50
0.16828912774515978 -0.2833288808096142 -1.764253988072777 114 92 51
0.1684325384014133 -0.28317310863368844 -1.769937783142039 115 93 54
0.16689431716045053 -0.28802182861223347 -1.772211012877141 112 91 50
0.16612607414630617 -0.29057893666414214 -1.7760423343427387 102 80 43
0.167152660988035 -0.28779612062167204 -1.7835424995898268 125 106 71
0.16792845450291072 -0.28576034388964694 -1.790547654413087 145 121 80
0.1683008072930805 -0.28492541856289827 -1.7967390062942603 114 91 51
0.16917044107836685 -0.28261207931262944 -1.8039683823542687 113 90 52
0.16580550280032122 -0.29289259038463356 -1.8024478343380321 109 87 50
0.16399932507946444 -0.2985363159108859 -1.8041293413663593 109 86 52
0.16282445152909206 -0.30230224965045477 -1.8071101734979402 109 86 52
0.1622481790283389 -0.3042882084757826 -1.8113338197942843 108 85 51
0.16165086368559567 -0.3063367029887486 -1.8155130522117078 103 80 45
0.16104866307830035 -0.30839968853188204 -1.8196814337019442 102 80 43
0.1600319771795875 -0.31169447449974397 -1.8229754197023424 103 81 44
0.15991904255787404 -0.3123033407441113 -1.8281743686492917 109 87 50
0.16035890636125993 -0.3112699394415798 -1.8345510962203375 107 85 48
0.15874830993263211 -0.31632910176178586 -1.8365791524843813 108 86 49
0.16030966713273953 -0.3119646945843553 -1.8453603315395755 107 85 48
0.16221023792606568 -0.30659403692532444 -1.8548939568148617 111 89 52
0.1612663159576137 -0.3096732436404466 -1.8583547057920473 111 89 52
0.16015928016276199 -0.3132366073025324 -1.8614594567420377 112 90 53
0.16206121562649972 -0.3078647190136082 -1.8710521760242136 107 85 48
0.16376636475925374 -0.30307867586416 -1.8802500499740569 108 86 49
0.16119422504060327 -0.31099241171609165 -1.8801895960628117 108 86 49
0.1598429202842424 -0.31528085617941665 -1.8827619819225396 107 85 48
0.15900884263073867 -0.3180335873155813 -1.8864538311554249 104 84 48
0.1584908477340664 -0.3198480620916487 -1.8908344465736926 109 86 52
0.15881252204845273 -0.31917084231886944 -1.8970600760261183 105 82 48
0.15732454938751445 -0.3238637297172898 -1.899309968723223 102 79 45
0.15875112432266422 -0.3199089741034118 -1.90798779210132 104 83 47
0.156273549485608 -0.3275372856431495 -1.9080394972548311 108 88 51
0.15604183491303453 -0.3285026619448521 -1.9130577212658095 108 88 51
0.15282729399090816 -0.3383149732283792 -1.9114318543990996 106 84 47
0.15468632102133434 -0.33307957409346367 -1.9211125583187096 106 84 47
0.1570471102307021 -0.3263578928175787 -1.931949176535693 106 83 48
0.15382162546882241 -0.3362009311418787 -1.9302644692026456 103 80 46
0.15275664976733053 -0.33963721087489895 -1.933416432527999 104 81 47
0.15240779427900092 -0.3409503883028128 -1.9381810181972712 104 81 47
0.15019072303291592 -0.3478009771995839 -1.9387118907597392 105 82 48
0.14931835007932387 -0.3506653159275494 -1.9422791459176807 109 86 52
0.14893644112576054 -0.3520760607092532 -1.9469607977863834 111 88 54
0.1477040529091705 -0.3560068528153236 -1.9496995435413995 112 89 55
0.14760355644747125 -0.3565838211584219 -1.9550255570287054 108 85 51
0.14750291474194377 -0.35716151608625357 -1.9603571331046392 99 77 44
0.14683106368718024 -0.3594314161764952 -1.9643770242711194 101 81 48
0.14508920820771554 -0.36487021381399903 -1.9659202158595117 102 82 49
0.14281551588176555 -0.37188316695763224 -1.9662141010842589 101 79 46
0.1431280539978415 -0.37123718663942734 -1.9725017998926213 101 78 46
0.14444555254728703 -0.3676164314971867 -1.9811452952955102 100 77 45
0.14498737572094386 -0.3662931651798072 -1.9879987087328235 103 80 48
0.14419220999745375 -0.36892810677506155 -1.991729903716538 105 82 50
0.14592760274302485 -0.36407328019321106 -2.0014113898127626 103 80 48
0.1452051984934647 -0.36649341516521655 -2.0053245719670407 99 76 44
0.14468476312323175 -0.368315812485583 -2.0097133664146547 104 81 49
0.14177454651937832 -0.37720880593698053 -2.0084329523630617 102 81 49
0.14086609962054458 -0.38017832190929585 -2.0118837073625135 98 76 44
0.14091227591263333 -0.38032382251434227 -2.017607215027555 115 93 60
0.13937308041424876 -0.3851587288173858 -2.0195458942610243 102 82 49
0.1394519505082722 -0.3852078139005897 -2.025353227731452 96 76 43
0.14046701762779568 -0.3824889869758827 -2.033421166895348 95 75 42
0.14093189102204579 -0.3813979499679414 -2.040182766469299 88 65 33
0.13948725457853228 -0.3859527372654606 -2.042338818765592 91 70 36
0.1376394854105099 -0.3916985841976853 -2.04350508481681 96 76 41
0.1367291013513715 -0.3946729718213075 -2.04693413539924 96 76 41
0.13632341714238205 -0.3961555693649527 -2.051589421778092 95 74 40
0.13461978600659597 -0.40147367697588165 -2.0530721292007033 99 76 42
0.13417637070165123 -0.40306751729620244 -2.057630118016069 98 75 41
0.13518346508471196 -0.400376181373642 -2.065756794629756 100 76 43
0.13437969524072318 -0.40303513651522255 -2.069438858197097 107 84 52
0.1324058128767347 -0.40914999967501975 -2.0702241191261352 113 91 55
0.13172963814279717 -0.4114313925128639 -2.0742078918325757 123 100 66
0.1310448504769281 -0.413738134811693 -2.0781685769555738 103 80 47
0.13100529161957947 -0.414139679076147 -2.0837360744579043 99 77 43
0.1302182768102476 -0.4167482628194628 -2.0874419935813457 98 75 41
0.13037961602339412 -0.4165572158045152 -2.0935219273916768 100 77 43
0.1299007967896621 -0.41825613834600717 -2.098002561903119 101 78 46
0.12901562851980364 -0.42115434589911616 -2.101460097274052 105 82 50
0.12894864992887897 -0.42163793079298717 -2.1069807441377515 101 78 46
0.12821367792746297 -0.4240928009487833 -2.1108153839858304 95 72 41
0.12681751268526553 -0.42849820632243035 -2.112967601815811 96 73 41
0.12613599073109924 -0.43079492818500537 -2.116928905379065 96 73 41
0.1250634884428674 -0.4342447666703917 -2.1198896923011143 91 68 36
0.12471094066448372 -0.4355709721693855 -2.124687381987001 88 65 31
0.12291798377271523 -0.44114484081887145 -2.12578854021498 93 70 35
0.12290176347712727 -0.44147916693436484 -2.1314478815415887 97 73 35
0.1217482961813245 -0.4451666273445078 -2.134178240756606 110 84 44
0.12119090253284921 -0.4470965684235397 -2.138443463518059 123 95 52
0.1213041567471908 -0.4470498070685825 -2.1444494745699214 129 102 57
0.12105585304058719 -0.44806905466683955 -2.14952364885166 135 107 62
0.11944902923543421 -0.4530917322874322 -2.151056755327911 138 109 66
0.11963589269190361 -0.4528287523916479 -2.1572685812041863 136 107 64
0.11834727628316301 -0.4569131279319913 -2.1596196726156887 142 113 70
0.11827656654375325 -0.45740939809240505 -2.1651642220157066 141 112 70
0.11804436089598526 -0.4583816670737875 -2.1702895271493623 133 104 62
0.11704598558289973 -0.46161053054307877 -2.173393189056094 138 109 67
0.11704402129629356 -0.4619049987147449 -2.179132535606585 142 113 71
0.11566731371352608 -0.46624750777928464 -2.181224903041845 137 108 67
0.11432299653887383 -0.47049408043694835 -2.1833920481759606 138 109 65
0.1114180145257058 -0.47933405728982376 -2.1813772559125377 147 116 71
0.11146758870887576 -0.4794764017758341 -2.1872460714426487 147 116 70
0.11074496803648612 -0.481891652005891 -2.1910487962658545 150 121 74
0.11267340157239576 -0.4765059644189225 -2.201989858480212 154 126 78
0.10963726088458514 -0.4857286988112387 -2.1995584787518987 155 127 80
0.10726486230296685 -0.49299705684083606 -2.1988891969330413 146 118 71
0.10532241303603948 -0.49899943675920333 -2.199361335552738 142 113 69
0.10676513222908214 -0.49504466246603895 -2.20902758021356 146 120 75
0.10338192510341712 -0.5052831798377939 -2.2055524765579806 147 122 76
0.10293629993519421 -0.506882009782109 -2.2100744061735886 147 123 75
0.10256542222771728 -0.5082611513067143 -2.2148028159916096 146 122 74
0.10092852170393062 -0.5133621261840644 -2.216051848764206 145 122 72
0.10085709654547804 -0.5138608774842844 -2.221601953113551 143 120 69
0.09994371876343984 -0.5168344406604499 -2.224831240338429 147 123 72
0.09754857373225932 -0.5241620733187831 -2.2239483110318767 144 118 70
0.09460299868366762 -0.5331056757124031 -2.2215093588029027 141 120 70
0.0952155489049198 -0.5315941750125514 -2.2289489200768795 130 110 60
0.09643668390361988 -0.5282957739145119 -2.2381049614180943 122 104 54
0.09724716342277079 -0.5262048114920554 -2.2461363960175293 125 106 59
0.09355668136639823 -0.5373332732894642 -2.2415506177774156 123 105 58
0.09198215036689546 -0.5422460895977608 -2.2428754308661074 119 101 60
0.09308412111261068 -0.5392997368463938 -2.2517384257238007 102 86 55
0.09228975348636465 -0.5419216905854507 -2.255260055296524 97 82 51
0.09200932647756115 -0.5430348657522499 -2.260235837317798 102 87 62
0.09460408108603931 -0.5357096088149951 -2.2733915986299444 121 113 97
0.09464598921392062 -0.5358782851904672 -2.2793148697101966 152 149 141
0.09435656660188925 -0.537019601503433 -2.284299678590329 180 178 175
0.09429016919483119 -0.5375067742760906 -2.28992731701145 192 191 192
0.0913526345810467 -0.5464168563772172 -2.2873137961781023 200 198 200
0.08959611095054883 -0.5518610917782304 -2.288066809055726 205 203 206
0.08655666860053667 -0.5610669727081883 -2.285097842408547 207 207 209
0.1055408389900535 -0.5056884287629526 -2.3458443190620692 210 210 212
0.10456393041198093 -0.5088512806535579 -2.348949190040549 211 211 213
0.10442710648603236 -0.5095509567143204 -2.3544920167809638 212 212 214
0.10282199327105798 -0.5145549666705747 -2.3557584225041 212 212 214
0.10228108163145652 -0.5164390809180697 -2.3601212115397563 213 213 215
0.07268167183564034 -0.6034814243883047 -2.279300831813517 214 214 216
0.19204575024577736 -0.1622251553839646 -1.0959055177389303 190 191 193
0.19209043519675695 -0.16231707250620098 -1.1006524049257336 191 192 194
0.1930144539230223 -0.15974313515920296 -1.1064893445125308 192 193 195
0.22669607712174644 -0.05785712511455604 -1.1528996327586623 192 193 195
0.21132468248316488 -0.10469243576697446 -1.1386774677453222 193 194 196
0.22921659719632057 -0.05069114835037586 -1.165833134194246 193 194 196
0.2453034972332952 -0.002170227612404707 -1.190919359534321 194 195 197
0.22706762140397668 -0.05768082778590733 -1.1729629209587917 194 195 197
0.26022509116667314 0.04256377522506083 -1.2198034210454267 195 196 198
0.2601289817685709 0.042025554120127206 -1.2247773021403905 195 196 198
0.27571068790719094 0.08899026902424267 -1.2497452765304402 196 197 199
0.2543265411005594 0.023951075379480158 -1.2275572185684522 197 198 200
0.15064706870646385 -0.2906068375842924 -1.1038897914462504 198 199 201
0.14792882734650808 -0.2995003001381642 -1.1139854893247663 199 200 202
0.14781734595939117 -0.3000581966699888 -1.1183847431163356 200 201 203
0.14636284306382902 -0.30468283115769107 -1.1210187213644256 201 202 204
0.30019859766476176 0.15317371821405357 -1.4875771831781717 203 204 206
0.29550068411981695 0.13871759876029655 -1.4861599221092803 203 204 206
0.2832623096534588 0.10149553128055877 -1.473450026122054 203 204 206
0.27836490124985247 0.0864435301825911 -1.4716013844435067 203 204 206
0.2735625842658134 0.07168092112368007 -1.4698478076929329 205 205 207
0.27348741233476315 0.0711902083695869 -1.4751770825499726 204 204 206
0.26659292510272636 0.05011589188679 -1.4701888680818291 202 202 205
0.26005482569851246 0.030120603457719608 -1.4656718267802504 195 192 194
0.2543907393482596 0.012766172998426972 -1.4624211627875079 166 161 158
0.2501611628106857 -0.000256762965466395 -1.4613092814691995 137 129 120
0.24650319716657043 -0.01155299438758195 -1.4610346111193926 124 113 100
0.2400174828167944 -0.03137896018165498 -1.456365702025942 129 114 98
0.23592474124883273 -0.04398268634906066 -1.455333271064873 123 107 88
0.23567852649564958 -0.04498149228992543 -1.4602348450802412 120 103 80
0.23025630428745028 -0.061592427766721136 -1.4570727010709652 117 99 76
0.22763556715282135 -0.06975159552744548 -1.4582380685776142 115 99 74
0.2239841002161327 -0.08101798062875853 -1.4577621543355341 113 96 70
0.22133524709551428 -0.08925939870441502 -1.458831014750147 112 95 69
0.22073833265415868 -0.09131282723109957 -1.4631207224415483 115 96 69
0.21910189183073964 -0.09650024991132489 -1.465760481168461 114 93 65
0.21909694002779934 -0.09676883749377208 -1.4709861508538582 112 90 61
0.21907150610052933 -0.09709946898731858 -1.476185373023616 116 94 64
0.21901640010834766 -0.09751982674243853 -1.4813430713241864 109 88 57
0.2174717625461428 -0.10242953622686057 -1.4841091043012697 112 91 60
0.21591823011060735 -0.10736550722398597 -1.4868495682044436 112 91 60
0.21415866426537022 -0.11292174855001258 -1.489244750926795 106 85 55
0.21317849407385814 -0.11612906922071586 -1.492893998106451 107 86 56
0.21161922935016886 -0.12108076168621418 -1.495593169231265 97 76 46
0.20948427590475374 -0.12776608451728189 -1.497337900848134 105 84 54
0.20751090467124994 -0.133963831986597 -1.4993301713518419 104 83 53
0.20564005091363458 -0.13985202898004556 -1.5014753001913421 104 83 53
0.20653627495297894 -0.1374063487169745 -1.5081854475280403 91 70 40
0.2025828030220203 -0.14956514473063315 -1.5068571068583991 90 69 38
0.20237209256284275 -0.1504526828325521 -1.511727791266497 96 75 44
0.20124982699807392 -0.15408482805693047 -1.5150778733232617 95 74 45
0.20026408435092974 -0.1573056646571223 -1.5186505183431587 102 81 51
0.19916275495233127 -0.16087419131105185 -1.522023522458081 109 88 57
0.19851399331441613 -0.16308024668635662 -1.5261549374814707 95 74 43
0.19732696488518264 -0.16690620326536038 -1.5293725663436049 113 92 61
0.1932097724438896 -0.17954953270142066 -1.527597523658176 118 95 62
0.19170830649351916 -0.18432009908928243 -1.5302466356998032 117 94 60
0.18934955877066212 -0.1916694614786476 -1.531416180394444 120 97 63
0.18775834698598448 -0.19670870986363753 -1.5338839275634353 121 98 63
0.18660774994004678 -0.20042192633131578 -1.5370994293623232 120 98 61
0.18812690213512848 -0.19610450124789913 -1.5449278033780176 119 97 60
0.1891736420685706 -0.19320907423464423 -1.5519600591206002 120 98 61
0.1898970910211363 -0.1912867905975294 -1.5584477481343628 121 98 61
0.18922886377022308 -0.19355004966383976 -1.5625176943324073 120 96 57
0.18907267092609908 -0.19427368149365315 -1.5674842975648344 117 94 55
0.18667938638306888 -0.20172328129507072 -1.568518865098901 107 84 48
0.18583386742446067 -0.20451896557137694 -1.5722645184980735 106 87 52
0.18317199525926275 -0.21277425336798422 -1.5727890608505515 100 80 44
0.18226022583598145 -0.21576820483538867 -1.576399301098354 93 74 41
0.1813960844487224 -0.21861881070391842 -1.5800901874757558 94 77 44
0.18251381676919937 -0.215513624746084 -1.5873232422283678 103 84 50
0.17895338572592898 -0.22646612359282586 -1.5861783235607627 109 88 53
0.17621676005468073 -0.2349417985639456 -1.5864814297968124 134 110 79
0.1728953561294389 -0.2451729950994494 -1.5857019411828386 112 89 57
0.17017466066473794 -0.2535981316806168 -1.585978513460386 128 105 72
0.1678489569823583 -0.2608356157261598 -1.586947633770802 123 100 66
0.16497933182629182 -0.2697056401018358 -1.5869030301986042 122 99 66
0.16311594789099698 -0.27555255020296004 -1.588672818468119 121 98 66
0.15978776622099836 -0.2857971006130512 -1.5877364991658323 116 93 60
0.1573623186492625 -0.29332962356029024 -1.5884302820823402 115 92 59
0.15432290664441897 -0.3027042720591665 -1.5879665214888072 127 104 72
0.15159454066640451 -0.3111437488209529 -1.58804966330375 136 113 80
0.14840188843532076 -0.32097554356545344 -1.5872426776961577 140 116 82
0.1469932497785082 -0.3254514520500176 -1.5897337806507787 128 103 70
0.14592468023176713 -0.3289063033330847 -1.5928511555259348 147 121 88
0.1443111464602298 -0.33399611875289087 -1.5949382981580598 134 111 78
0.14421611090373404 -0.334529178498053 -1.5998741892150736 123 102 72
0.1450728939895342 -0.3322069204418552 -1.6066148789141728 108 87 58
0.146628104506079 -0.3277903109335168 -1.6146970115473251 93 72 43
0.144333860365638 -0.33492150355831274 -1.6154799031713454 106 87 57
0.14477622068206084 -0.3338439204862806 -1.6214650453647894 85 66 35
0.14186612607283422 -0.34282075236441417 -1.6210425791776122 92 73 41
0.141149667468619 -0.3452182271768818 -1.6248050252066715 95 76 45
0.15041414382280066 -0.3176891462565705 -1.6477982732487046 117 98 67
0.15505292665729242 -0.3040339757235641 -1.6619689172125984 112 95 66
0.15281521661949 -0.3109960116692259 -1.6628680314528803 103 87 59
0.16368516847290165 -0.2786671482412666 -1.6892441095165653 103 87 60
0.16613463682614243 -0.2715827381790751 -1.6993281434312208 97 80 54
0.16835736589446748 -0.26517961422975456 -1.7090049631669577 87 72 50
0.16834828615780134 -0.26546594263305257 -1.7143333449145075 61 49 35
0.16756312228582368 -0.26807796499447717 -1.718139685776366 46 37 24
0.1667046754473021 -0.27090940262464813 -1.721798343217922 69 58 39
0.16692139051151964 -0.2705197997937316 -1.72758417357189 71 59 37
0.16665087232964104 -0.27159011058333415 -1.7324107399940154 68 53 31
0.16682025483136792 -0.27134304266925524 -1.7381180462487187 87 71 48
0.16477276382642464 -0.2777354953760506 -1.7393994323707003 95 80 48
0.16389672106418296 -0.2806191507744853 -1.7430130174482157 141 123 78
0.16346018776741145 -0.28218663135894506 -1.7475072255379414 126 103 55
0.16409441029120467 -0.2805484439199745 -1.7541647107323441 108 85 42
0.1617855249800449 -0.287721454063512 -1.754876433013469 100 78 38
0.16091634569611102 -0.2905839360089907 -1.7584909828565352 112 90 52
0.16089644646312057 -0.2909043320914006 -1.7638320826005156 118 96 56
0.1594563010209582 -0.29547541247160286 -1.766276980715305 122 99 56
0.15628897268062358 -0.3052143667757621 -1.765169898167497 119 98 61
0.15852657579997326 -0.2987796869791228 -1.7751444631075484 105 87 53
0.15990518770228074 -0.2949166136328536 -1.78338207980088 148 124 81
0.16080875896321084 -0.29247578613334635 -1.7906610269358565 128 104 61
0.1601298595076103 -0.2947692996080115 -1.7946744107796815 113 90 49
0.15827230733341638 -0.30058794254254584 -1.7962329922481775 111 88 51
0.1582334326515722 -0.3009669002048554 -1.8015719067602747 110 87 53
0.1584727316173789 -0.30051435515539043 -1.8074997222611258 109 86 52
0.15655449309560926 -0.3065132526911924 -1.8089061849842274 113 90 56
0.15605674547352844 -0.3082645313341281 -1.81328770400421 115 92 57
0.15522487847066735 -0.31101464289543296 -1.8169639472266919 106 84 47
0.1538497822139995 -0.3153883197828459 -1.819485449267649 100 78 41
0.15357798131081635 -0.3164640270946478 -1.824341533272721 104 82 45
0.15271919856074803 -0.3192940611253639 -1.8279498037339086 99 77 40
0.15223452919597372 -0.32100600706788873 -1.832354061563289 99 77 40
0.15535957478018764 -0.3119328200349925 -1.8445001621081698 108 86 49
0.15601848156214032 -0.3102295127111305 -1.8513886835106594 112 90 53
0.15657485912644598 -0.3088332280126918 -1.8580714425452471 112 90 53
0.1552008813115095 -0.31320339297896566 -1.8605918310663578 106 84 47
0.15449171154638264 -0.31558754551016455 -1.8645443621565951 102 80 43
0.15327515704387384 -0.3194867907764008 -1.8673906371483633 105 83 46
0.1531278851435971 -0.3201927854762344 -1.8725624121779054 106 84 47
0.15316288684216534 -0.3203548260126814 -1.878138405877997 104 82 45
0.15214927133830514 -0.3236477127921736 -1.881419602050899 98 78 42
0.150500140173578 -0.3288373463061035 -1.8832954624919838 103 80 46
0.14991860689091363 -0.3308398166458335 -1.8875149513267984 103 80 46
0.14600103825009914 -0.3427983544142416 -1.8843451080659963 102 79 45
0.14698994792677128 -0.3401133954612555 -1.8920308032219855 102 81 45
0.1478836150072951 -0.33771358263671836 -1.8995241876157136 105 85 48
0.14644746321914417 -0.3422656143528357 -1.9018308243724835 107 87 50
0.1454262284635674 -0.3455793295887445 -1.9050557272243225 105 84 47
0.14661755499663265 -0.3422930337018815 -1.9132466417948844 105 83 46
0.14586815332526826 -0.3447961044951898 -1.9170863345082816 103 81 46
0.14609818765947052 -0.34437816688739953 -1.9231371887700013 101 78 44
0.1466886509531234 -0.34288596124324405 -1.930015208083038 106 83 49
0.14717643944479303 -0.3417006104033103 -1.9366747157378248 105 82 48
0.14416393411230535 -0.350951212930186 -1.9353679856053219 104 81 47
0.14395780938435418 -0.35183458933274947 -1.9404453273840885 111 88 54
0.14330742553845927 -0.35404235666186123 -1.944508583624643 110 87 53
0.14173684134491185 -0.35899254531139935 -1.9464546626214845 109 86 52
0.14162420179870483 -0.3595974208704624 -1.9517493169134497 108 85 51
0.1415205690069751 -0.36017573863730823 -1.957070564251732 100 78 45
0.141504757256679 -0.3604926919107925 -1.962601370527798 101 81 48
0.13943723579423728 -0.36692210744141746 -1.9633676436587444 105 85 52
0.13791555573027645 -0.3717246471938154 -1.9653869839983344 101 79 47
0.13698329801851203 -0.3747710318053497 -1.9687720925842045 98 75 43
0.13944954698982942 -0.3676961557944792 -1.9801232645686793 100 77 45
0.13972363666223722 -0.36715093242477 -1.9863582129943882 103 80 48
0.13929690451953164 -0.36869289186677956 -1.9909510769409091 104 81 49
0.13927457832491402 -0.36903097008390595 -1.996502182358977 104 81 49
0.13880542498245022 -0.37069950161813314 -2.0010004687279426 104 81 49
0.1381738229683364 -0.3728516110607085 -2.0051134689156545 104 81 49
0.13768018895046594 -0.374593057185936 -2.0095545272197275 102 79 45
0.1355028005560175 -0.3813450970256326 -2.0099688641922784 97 74 40
0.13446446800188916 -0.38470682564813125 -2.013093724416298 114 91 57
0.13557703642035704 -0.3816689324365781 -2.021385770703576 110 87 53
0.13500166426516702 -0.38365349075380634 -2.0256287119558896 100 80 45
0.1344262592256239 -0.3856381325387934 -2.029871277647091 96 76 41
0.13408565612604803 -0.38692441202556666 -2.03468305286551 92 70 36
0.1342737766709713 -0.3866384726490633 -2.040783650092887 86 65 30
0.13356529653993066 -0.38901910207029444 -2.0447074833190957 87 67 32
0.13169746615787695 -0.394846634828171 -2.0457938376985196 86 66 31
0.13210399516564916 -0.39391187905866 -2.052440149429043 95 75 40
0.1303814840031769 -0.3993064644875983 -2.0538637265508375 91 69 35
0.12950524365726374 -0.4021849646812185 -2.057358344792707 92 69 35
0.1295636948397798 -0.40228543376692877 -2.0631598207538038 86 63 30
0.12828830666642604 -0.40634991589439695 -2.0656623101197504 93 70 39
0.12693066718265444 -0.41065831144231796 -2.067950478374045 102 79 45
0.12611293579040728 -0.4133621514321426 -2.071573744677262 125 102 69
0.12555253634662894 -0.41530138789236687 -2.075836702053115 109 86 54
0.1251496362045697 -0.416772804720751 -2.080494354351642 97 78 43
0.12473395484188048 -0.41828227947281366 -2.0851219143049198 97 76 41
0.12542769092699463 -0.416497321028949 -2.0925475457168514 100 76 43
0.12440023562258058 -0.41982386433107904 -2.0956403126539778 101 78 46
0.12453195065672036 -0.41970859267239474 -2.1016640660965553 94 71 39
0.1241026035976822 -0.42125934568341294 -2.106271555789271 90 67 35
0.12369817455976069 -0.4227362177560916 -2.1109442338431004 92 69 38
0.12257023611343734 -0.42636051664774344 -2.113770557869867 98 75 43
0.122332380316532 -0.42734302291905824 -2.118869049390934 95 72 41
0.12155730565434443 -0.42991981033627824 -2.122592004318863 93 70 38
0.12011502994839893 -0.43447598713431945 -2.124593520451233 91 67 35
0.1197304345987349 -0.4358938591667071 -2.12931408415033 92 67 36
0.11821963762274894 -0.44065244797516745 -2.13112084982537 93 69 35
0.11718660474015132 -0.44399338116292236 -2.134154719444773 98 73 37
0.11593716131493007 -0.4479757736751209 -2.136618528957425 111 86 47
0.11572857182739188 -0.44887130632529665 -2.141789454272608 123 97 55
0.11460700808251424 -0.45247395583276273 -2.1445757446624487 128 100 57
0.11359436857512324 -0.4557533057908226 -2.14763990537608 131 102 60
0.11243603177043399 -0.45946422340161636 -2.1503142601897474 129 99 60
0.1099236588092327 -0.46718794656291496 -2.149407976464335 130 101 61
0.1085123543178212 -0.4716472617991844 -2.151386672083893 136 107 66
0.11254219177587022 -0.45998272777923055 -2.1677840392328 131 102 61
0.11324057938203419 -0.4581919728718545 -2.1753867960009297 133 104 63
0.11260875677359457 -0.46034285977063655 -2.17946050082515 137 108 68
0.11237862428238851 -0.46130380977779045 -2.184606906985579 134 105 65
0.10832986279337886 -0.4735751783242448 -2.1795226928414304 132 104 63
0.10511000014399009 -0.48338936382532904 -2.1766166470387662 137 108 67
0.10340742917272346 -0.488708770903031 -2.177761109999946 142 113 69
0.10242266278604314 -0.49190209551167363 -2.180828398374564 146 119 72
0.10675726778419015 -0.47934725070014383 -2.1982977438534057 150 122 76
0.10309723473507224 -0.49046094468943074 -2.1941250518703823 149 121 75
0.10235368409653041 -0.4929403293721326 -2.1978492842256827 151 123 78
0.10072500656523445 -0.4980390601930937 -2.199154355586965 142 115 70
0.09994996670939638 -0.5006110484283104 -2.202780513281615 139 114 68
0.09900425788446938 -0.5036878457077162 -2.205935059119548 143 119 72
0.09799807750592211 -0.5069432658940779 -2.2089175224582593 146 122 74
0.09727903737135936 -0.5093489903945264 -2.212685502470673 147 123 75
0.09609956793371584 -0.5131164104902814 -2.2151775824213686 146 123 73
0.09535586626764929 -0.5155946677256636 -2.2188689191020656 138 115 65
0.0955699010210306 -0.5152407494811196 -2.225220023636245 141 118 68
0.09341708284400749 -0.521885347141949 -2.2249849216131494 139 114 67
0.09099615499117134 -0.5293214381581453 -2.2239774162830432 126 106 58
0.09084269303281935 -0.5300536707603958 -2.229295674356233 118 99 49
0.0904414363138378 -0.5315185624322201 -2.2339235319445456 118 101 49
0.09304580625226908 -0.5241011407300816 -2.2470179341567 122 105 54
0.09337518023530375 -0.5234083412021984 -2.253734634274872 122 104 57
0.08849712569788573 -0.5381018106876211 -2.245723285510333 119 102 58
0.08918219259467021 -0.5363576201786513 -2.2534370431251025 103 88 50
0.08780309817671049 -0.5407115270001328 -2.2552956045345565 94 79 47
0.08663467174585619 -0.5444426365062851 -2.2577429480446662 96 80 53
0.08976785677264365 -0.535470016665755 -2.2724831798553233 113 103 85
0.08935394924584314 -0.5369738288417093 -2.277107060990268 144 141 131
0.0892073601666973 -0.5376884941980817 -2.2825012873712653 171 169 165
0.08895705054689886 -0.5387096353285635 -2.287602474566433 188 186 187
0.08730387128373945 -0.543871874512637 -2.288654903825773 198 196 198
0.08613090168331865 -0.5476160492686619 -2.2910820044890525 204 202 205
0.08188654298323982 -0.5604234866031736 -2.2845809705931415 206 206 208
0.08078154242160804 -0.5639651157962262 -2.287164839590875 209 209 211
0.10008864229801404 -0.5072845599791709 -2.349315578509054 211 211 213
0.0997160150436537 -0.5086722394913643 -2.354176645872599 212 212 214
0.10024176490797967 -0.5074102147500449 -2.3616757479883805 212 212 214
0.09712594736054816 -0.5168887586243863 -2.3584816903216517 213 213 215
0.06551122560916871 -0.6104048068206365 -2.2712279051313415 214 214 216
0.234756753795689 -0.017750413500937368 -1.1536007656010092 190 191 193
0.23483172050631956 -0.017752558940975438 -1.1586358062766369 191 192 194
0.1858941114757947 -0.1671418065311498 -1.1029615497547691 192 193 195
0.19267277794561122 -0.14670176547042862 -1.1160911586651823 192 193 195
0.22297146328308376 -0.05458957684683996 -1.1586820690127442 193 194 196
0.22386660759950844 -0.05209073660366753 -1.1647086272681006 193 194 196
0.2268549975423984 -0.04321460825474943 -1.1733876920675852 194 195 197
0.22019295598607547 -0.06374214818072155 -1.1698944673794935 194 195 197
0.24824843749139122 0.021498454313889304 -1.2104450117484824 195 196 198
0.24742784050550118 0.01876258005358189 -1.2144588276943593 195 196 198
0.2527690499877032 0.034795401332083975 -1.2263639017641594 196 197 199
0.24268933060552755 0.003857713564198839 -1.218493616902431 197 198 200
0.23978384540426512 -0.005226435204038815 -1.2197894060287728 198 199 201
0.14418837589189792 -0.29656952314784746 -1.100831644822454 198 199 201
0.13965107969288904 -0.31144153535658703 -1.1175532860837505 201 202 204
0.29564584921596315 0.15574312302686755 -1.4881397830723293 203 204 206
0.27622925032111156 0.09653343610815979 -1.4647145801564792 203 204 206
0.27144171073702167 0.08174423917739815 -1.4630078297905469 203 204 206
0.2665641319445356 0.06668391179039324 -1.4611187726330155 204 204 206
0.26179400427095845 0.05195196390278023 -1.4593440476729107 204 204 206
0.2576668919177637 0.03917375515841692 -1.45849712964996 204 203 204
0.2517222936276844 0.020881796107062645 -1.45484555874 173 171 168
0.24644679348416695 0.004623010100125002 -1.4521554914853811 145 138 129
0.2417551968061851 -0.00986162301160054 -1.450307524241759 127 117 105
0.23928284933395588 -0.01761098931624483 -1.451826812046993 127 113 100
0.23651765588901547 -0.026247762774833316 -1.4528726242305792 125 108 92
0.23315385520987864 -0.03669921645161078 -1.4529662223819109 121 104 84
0.2274797034783983 -0.05415688267401664 -1.4494355814804383 118 101 79
0.22413841898310005 -0.06453649297689701 -1.4494881661933396 109 92 67
0.22101750079868177 -0.07424634602859548 -1.449854522401894 115 97 70
0.21658877772920837 -0.08792060452459338 -1.448136026660515 119 100 72
0.21467905592613246 -0.09395492272864625 -1.4503478781036219 115 96 68
0.2152649380930161 -0.09242223545368589 -1.4564958393295302 115 96 67
0.21438333869900844 -0.0953389459229318 -1.4603249156273597 116 95 66
0.21268616231236104 -0.10072775724961458 -1.4628496968624038 115 92 63
0.21261454050511563 -0.10118882495057513 -1.4679630927971137 114 91 60
0.21227200842929353 -0.10247122236091921 -1.4726469220773157 113 91 61
0.210705751016978 -0.10746225676039367 -1.4753607684998156 113 92 62
0.209203062673958 -0.1122601232632569 -1.4781659209236127 105 84 53
0.2071017832932674 -0.11887120652385857 -1.4799885778526554 107 86 55
0.20714943082996584 -0.11897082402420744 -1.4852941679134826 110 89 58
0.204555197462124 -0.12707420864228097 -1.4862878768297605 108 87 56
0.2030670924857672 -0.13182583781493645 -1.4890727751933102 106 85 54
0.20142538379476954 -0.13704221861182558 -1.4915940772345913 105 84 54
0.19956497311200713 -0.1429203857566737 -1.4937415667069633 108 87 56
0.20003640965506836 -0.14173614302530302 -1.4997396664684854 108 87 56
0.19934694425222776 -0.1440677858984326 -1.5038183892355483 106 85 54
0.1963785301292028 -0.15329963764179894 -1.5040912422476365 99 78 48
0.1962060483253163 -0.15406531734245554 -1.5090196529378326 96 75 45
0.1950800440718634 -0.15771779641680994 -1.5123496873422897 102 81 50
0.19420547406937877 -0.16060886760545606 -1.5160971686778115 113 92 60
0.19350129583979894 -0.16298403038725057 -1.5201293003807133 112 91 58
0.19179627724826703 -0.1683881358873779 -1.5224599062862196 110 89 57
0.18940138542143575 -0.17587931620323327 -1.5236014360654246 98 77 45
