ply
format ascii 1.0
element vertex 879
property float x
property float y
property float z
property float nx
property float ny
property float nz
property uchar diffuse_red
property uchar diffuse_green
property uchar diffuse_blue
property uchar class
property uchar detection
end_header
-0.0127 0.2661 -1.4435 0.042 0.962 0.269 116 92 51 0 0
-0.0127 0.2693 -1.4471 0.093 0.805 0.586 111 88 46 0 0
-0.0127 0.2717 -1.4510 0.009 0.779 0.627 96 72 35 0 0
-0.0127 0.2711 -1.4565 -0.053 0.931 0.361 101 77 43 0 0
-0.0125 0.2745 -1.4807 -0.117 0.938 0.326 68 43 15 0 0
-0.0127 0.2994 -1.5092 0.160 0.975 0.154 79 55 22 0 0
-0.0127 0.3002 -1.5141 0.160 0.975 0.154 80 57 24 0 0
-0.0124 0.2916 -1.5240 0.180 0.984 0.003 75 51 25 0 0
-0.0122 0.2873 -1.5369 0.088 0.707 0.701 73 52 22 0 0
-0.0123 0.2943 -1.5383 0.075 0.905 0.419 78 55 24 0 0
-0.0125 0.3004 -1.5402 0.241 0.949 0.201 137 111 75 0 0
-0.0121 0.2937 -1.5652 -0.065 0.848 -0.526 74 50 22 0 0
-0.0123 0.3136 -1.5805 0.229 0.752 0.618 112 87 57 0 0
-0.0135 0.3834 -1.6141 -0.037 0.733 0.679 148 128 89 0 0
-0.0135 0.3873 -1.6171 -0.130 0.855 0.501 175 153 110 0 0
-0.0135 0.3890 -1.6213 -0.194 0.815 0.546 143 120 73 0 0
-0.0136 0.3923 -1.6246 -0.160 0.814 0.558 166 145 103 0 0
-0.0136 0.3969 -1.6325 -0.053 0.878 0.477 70 46 21 0 0
-0.0136 0.3993 -1.6363 -0.178 0.830 0.529 73 48 25 0 0
-0.0136 0.3991 -1.6418 0.209 0.857 0.471 74 50 26 0 0
-0.0117 0.3500 -1.7210 -0.213 0.910 0.355 74 57 36 0 0
-0.0117 0.3512 -1.7257 -0.158 0.807 0.569 74 58 33 0 0
-0.0117 0.3538 -1.7296 -0.093 0.909 0.407 81 64 39 0 0
-0.0112 0.3475 -1.7724 -0.228 0.928 0.294 52 32 14 0 0
-0.0111 0.3473 -1.7781 -0.283 0.799 0.531 50 32 13 0 0
-0.0109 0.3495 -1.8047 -0.108 0.907 0.407 106 83 50 0 0
-0.0109 0.3515 -1.8090 -0.185 0.881 0.435 85 66 39 0 0
-0.0109 0.3648 -1.8396 -0.126 0.921 0.369 84 60 31 0 0
-0.0108 0.3642 -1.8457 -0.204 0.888 0.413 84 60 30 0 0
-0.0105 0.3771 -1.9053 -0.132 0.826 0.548 80 57 26 0 0
-0.0105 0.3819 -1.9134 0.166 0.874 0.457 85 62 31 0 0
-0.0103 0.3799 -1.9322 -0.060 0.982 0.180 81 57 28 0 0
-0.0101 0.3848 -1.9577 0.079 0.866 0.493 76 54 24 0 0
-0.0101 0.3871 -1.9618 -0.039 0.815 0.578 83 62 31 0 0
-0.0099 0.4132 -2.0364 0.172 0.984 0.044 106 84 44 0 0
-0.0099 0.4134 -2.0422 0.172 0.984 0.044 108 85 43 0 0
-0.0098 0.4137 -2.0479 0.172 0.984 0.044 129 97 56 0 0
-0.0098 0.4139 -2.0537 0.172 0.984 0.044 118 91 55 0 0
-0.0099 0.4183 -2.0562 -0.004 0.710 0.705 86 62 33 0 0
-0.0099 0.4230 -2.0585 0.052 0.621 0.782 81 58 27 0 0
-0.0101 0.4499 -2.1030 -0.180 0.831 0.526 182 152 104 0 0
-0.0100 0.4534 -2.1122 -0.091 0.944 0.318 92 71 35 0 0
-0.0101 0.5022 -2.2111 0.161 0.863 0.479 86 63 31 0 0
-0.0101 0.5027 -2.2167 -0.035 0.544 0.838 87 64 31 0 0
-0.0102 0.5167 -2.2354 0.249 0.898 0.363 87 67 30 0 0
-0.0092 0.0611 -0.8982 0.034 0.067 0.997 145 143 138 0 0
-0.0072 0.1184 -1.2109 0.098 0.529 0.843 116 94 49 0 0
-0.0084 0.1875 -1.2420 -0.074 0.912 0.403 97 72 40 0 0
-0.0075 0.1688 -1.2903 -0.001 0.952 0.306 55 38 17 0 0
-0.0075 0.1696 -1.2950 0.134 0.989 0.062 59 44 19 0 0
-0.0071 0.1805 -1.3564 0.213 0.786 0.580 189 163 129 0 0
-0.0081 0.2624 -1.4351 0.220 0.856 0.468 101 76 35 0 0
-0.0081 0.2640 -1.4394 0.141 0.798 0.585 98 73 32 0 0
-0.0081 0.2663 -1.4434 -0.053 0.931 0.361 115 90 50 0 0
-0.0081 0.2680 -1.4477 -0.053 0.931 0.361 102 79 40 0 0
-0.0081 0.2697 -1.4520 -0.053 0.931 0.361 94 70 34 0 0
-0.0081 0.2713 -1.4564 -0.053 0.931 0.361 94 70 36 0 0
-0.0079 0.2750 -1.4804 -0.117 0.938 0.326 67 42 17 0 0
-0.0081 0.2935 -1.5020 0.055 0.741 0.670 131 101 57 0 0
-0.0081 0.2966 -1.5055 0.222 0.689 0.690 85 58 23 0 0
-0.0081 0.2981 -1.5099 0.085 0.867 0.490 77 52 20 0 0
-0.0081 0.2990 -1.5147 0.219 0.937 0.272 80 57 26 0 0
-0.0075 0.2841 -1.5334 0.062 0.770 0.635 69 45 15 0 0
-0.0075 0.2849 -1.5382 -0.057 0.742 0.668 74 52 23 0 0
-0.0077 0.2934 -1.5388 0.063 0.864 0.499 75 53 22 0 0
-0.0076 0.2995 -1.5619 -0.365 0.840 -0.401 75 51 23 0 0
-0.0081 0.3360 -1.5942 0.175 0.712 0.679 113 93 60 0 0
-0.0081 0.3404 -1.5970 0.251 0.628 0.737 123 99 63 0 0
-0.0082 0.3468 -1.6039 0.109 0.504 0.857 138 116 77 0 0
-0.0091 0.4001 -1.6358 -0.270 0.893 0.362 73 49 24 0 0
-0.0071 0.3509 -1.7204 -0.213 0.910 0.355 60 43 21 0 0
-0.0063 0.3433 -1.7751 -0.501 0.719 0.482 54 35 19 0 0
-0.0062 0.3527 -1.8026 -0.072 0.994 0.078 109 87 55 0 0
-0.0062 0.3542 -1.8072 0.111 0.898 0.426 72 55 28 0 0
-0.0062 0.3562 -1.8115 0.111 0.898 0.426 40 26 10 0 0
-0.0063 0.3630 -1.8239 0.303 0.842 0.447 71 49 24 0 0
-0.0061 0.3738 -1.8619 0.104 0.939 0.327 97 73 42 0 0
-0.0061 0.3794 -1.8751 -0.146 0.950 0.277 90 69 38 0 0
-0.0058 0.3826 -1.9130 -0.005 0.926 0.377 83 60 31 0 0
-0.0056 0.3852 -1.9284 0.217 0.855 0.471 81 58 28 0 0
-0.0057 0.3874 -1.9326 0.120 0.915 0.386 79 55 25 0 0
-0.0054 0.3892 -1.9604 -0.202 0.902 0.382 88 65 36 0 0
-0.0054 0.3910 -1.9648 -0.202 0.902 0.382 92 69 40 0 0
-0.0051 0.4191 -2.0557 0.052 0.621 0.782 87 63 35 0 0
-0.0053 0.4481 -2.0985 0.020 0.995 0.094 164 135 82 0 0
-0.0052 0.4487 -2.1041 0.020 0.995 0.094 181 150 100 0 0
-0.0053 0.4522 -2.1072 -0.091 0.944 0.318 154 129 87 0 0
-0.0053 0.4538 -2.1120 -0.091 0.944 0.318 95 74 41 0 0
-0.0052 0.4550 -2.1170 -0.084 0.909 0.409 81 59 28 0 0
-0.0052 0.4897 -2.1912 0.097 0.908 0.407 83 61 28 0 0
-0.0052 0.4899 -2.1971 -0.038 0.913 0.407 84 61 28 0 0
-0.0052 0.4998 -2.2132 -0.367 0.769 0.524 85 64 30 0 0
-0.0053 0.5042 -2.2155 -0.219 0.519 0.826 83 62 28 0 0
-0.0053 0.5069 -2.2194 -0.269 0.660 0.701 84 62 28 0 0
-0.0054 0.5102 -2.2226 -0.269 0.660 0.701 85 64 29 0 0
-0.0052 0.5123 -2.2392 0.155 0.787 0.598 87 67 31 0 0
-0.0047 0.0606 -0.8983 0.034 0.067 0.997 147 145 139 0 0
-0.0053 0.1177 -0.9598 -0.214 0.928 0.304 73 53 27 0 0
-0.0025 0.1124 -1.2033 -0.175 0.435 0.883 92 75 25 0 0
-0.0035 0.1644 -1.2269 0.270 0.626 0.732 119 103 47 0 0
-0.0029 0.1686 -1.2853 0.070 0.970 0.233 57 40 22 0 0
-0.0023 0.1717 -1.3502 0.281 0.751 0.598 139 113 69 0 0
-0.0024 0.1825 -1.3606 0.288 0.761 0.581 130 108 68 0 0
-0.0028 0.2083 -1.3793 -0.079 0.905 0.418 151 131 98 0 0
-0.0031 0.2307 -1.4044 0.104 0.931 0.349 191 164 121 0 0
-0.0031 0.2339 -1.4080 -0.050 0.939 0.340 158 126 85 0 0
-0.0031 0.2355 -1.4124 -0.050 0.939 0.340 164 131 89 0 0
-0.0033 0.2752 -1.4803 -0.103 0.953 0.284 70 45 18 0 0
-0.0034 0.2923 -1.5026 0.203 0.781 0.591 123 93 51 0 0
-0.0035 0.2963 -1.5057 0.358 0.677 0.643 84 58 23 0 0
-0.0034 0.2958 -1.5112 0.366 0.868 0.335 80 54 23 0 0
-0.0034 0.2983 -1.5151 0.138 0.981 0.140 82 58 28 0 0
-0.0029 0.2831 -1.5339 0.450 0.792 0.413 73 50 18 0 0
-0.0029 0.2974 -1.5631 -0.519 0.680 0.519 73 48 20 0 0
-0.0035 0.3400 -1.5972 0.341 0.609 0.716 130 106 66 0 0
-0.0046 0.3985 -1.6262 -0.051 0.793 0.607 97 75 43 0 0
-0.0046 0.4023 -1.6292 0.013 0.769 0.639 75 52 25 0 0
-0.0046 0.4028 -1.6342 -0.055 0.960 0.276 78 54 28 0 0
-0.0027 0.3542 -1.7019 0.315 0.913 0.258 93 77 51 0 0
-0.0025 0.3503 -1.7098 0.172 0.902 0.396 79 63 39 0 0
-0.0016 0.3579 -1.8104 0.099 0.941 0.323 38 24 9 0 0
-0.0015 0.3618 -1.8247 0.303 0.842 0.447 75 54 26 0 0
-0.0013 0.3725 -1.8628 0.160 0.939 0.306 94 71 40 0 0
-0.0010 0.3813 -1.9139 0.050 0.931 0.363 80 56 28 0 0
-0.0009 0.3804 -1.9203 0.096 0.846 0.524 83 60 30 0 0
-0.0008 0.3836 -1.9296 0.228 0.942 0.246 81 58 27 0 0
-0.0004 0.4470 -2.0994 0.156 0.789 0.594 177 147 96 0 0
-0.0005 0.4552 -2.1108 0.167 0.814 0.556 93 71 39 0 0
-0.0003 0.4544 -2.1295 0.496 0.721 0.484 86 63 31 0 0
-0.0006 0.4725 -2.1389 0.285 0.825 0.489 83 60 28 0 0
-0.0005 0.4835 -2.1721 0.330 0.775 0.539 82 59 27 0 0
-0.0004 0.4893 -2.1916 0.097 0.908 0.407 84 61 28 0 0
-0.0005 0.5012 -2.2120 -0.367 0.769 0.524 84 64 29 0 0
-0.0006 0.5100 -2.2228 -0.174 0.843 0.508 86 64 30 0 0
-0.0005 0.5111 -2.2280 0.209 0.965 0.158 87 67 32 0 0
-0.0007 0.5275 -2.2505 0.127 0.990 0.059 87 67 32 0 0
-0.0005 0.5290 -2.2677 0.174 0.966 0.190 91 80 60 0 0
-0.0013 0.1155 -0.9188 -0.334 0.826 0.455 88 67 40 0 0
-0.0011 0.1225 -0.9444 0.111 0.985 -0.129 78 61 33 0 0
-0.0010 0.1203 -0.9497 -0.019 0.988 0.156 70 53 27 0 0
-0.0010 0.1210 -0.9541 -0.019 0.988 0.156 69 49 25 0 0
-0.0010 0.1217 -0.9586 -0.019 0.988 0.156 73 53 27 0 0
0.0012 0.1637 -1.2272 0.129 0.778 0.615 123 104 51 0 0
0.0022 0.1855 -1.3643 0.011 0.666 0.746 132 110 67 0 0
0.0018 0.2086 -1.3791 -0.079 0.905 0.418 131 107 77 0 0
0.0014 0.2745 -1.4807 -0.051 0.890 0.454 78 53 22 0 0
0.0010 0.2985 -1.4993 -0.230 0.568 0.790 105 75 37 0 0
0.0011 0.2983 -1.5046 -0.399 0.576 0.714 84 58 25 0 0
0.0011 0.2993 -1.5093 -0.197 0.949 0.245 80 55 24 0 0
0.0017 0.2987 -1.5624 -0.765 0.508 0.396 75 49 21 0 0
0.0002 0.3846 -1.6134 -0.129 0.733 0.667 140 119 88 0 0
-0.0001 0.3972 -1.6217 0.150 0.858 0.492 146 123 85 0 0
-0.0001 0.3997 -1.6255 -0.047 0.793 0.607 93 72 40 0 0
-0.0001 0.4022 -1.6293 0.013 0.769 0.639 72 49 23 0 0
-0.0001 0.4063 -1.6374 -0.019 0.997 0.077 86 62 34 0 0
0.0023 0.3489 -1.7217 -0.002 0.937 0.348 79 63 40 0 0
0.0030 0.3472 -1.7726 -0.006 0.834 0.552 48 30 12 0 0
0.0032 0.3570 -1.8110 -0.155 0.896 0.416 44 28 11 0 0
0.0032 0.3648 -1.8284 0.009 0.935 0.355 74 52 27 0 0
0.0034 0.3632 -1.8407 0.089 0.902 0.423 77 56 28 0 0
0.0034 0.3702 -1.8530 0.293 0.752 0.590 83 63 35 0 0
0.0040 0.3928 -1.9578 0.099 0.949 0.300 89 65 37 0 0
0.0041 0.3943 -1.9625 0.099 0.949 0.300 93 69 41 0 0
0.0047 0.3960 -2.0200 -0.184 0.921 0.342 88 64 36 0 0
0.0044 0.4141 -2.0358 -0.542 0.748 0.383 99 76 42 0 0
0.0043 0.4553 -2.1108 -0.184 0.900 0.394 94 72 40 0 0
0.0043 0.4558 -2.1164 0.114 0.945 0.307 79 58 27 0 0
0.0043 0.4573 -2.1212 0.114 0.945 0.307 79 58 26 0 0
0.0044 0.4654 -2.1387 0.236 0.801 0.551 83 60 28 0 0
0.0043 0.4686 -2.1422 0.072 0.904 0.422 83 60 28 0 0
0.0043 0.4990 -2.2078 -0.173 0.711 0.681 83 63 29 0 0
0.0043 0.5023 -2.2111 -0.173 0.711 0.681 85 65 32 0 0
0.0042 0.5074 -2.2190 -0.282 0.758 0.589 88 65 32 0 0
0.0043 0.5090 -2.2237 0.108 0.936 0.336 86 64 30 0 0
0.0041 0.5272 -2.2508 -0.078 0.972 0.221 91 71 34 0 0
0.0041 0.5284 -2.2559 -0.078 0.972 0.221 84 67 32 0 0
0.0042 0.5295 -2.2611 -0.078 0.972 0.221 79 64 35 0 0
0.0042 0.5307 -2.2662 -0.078 0.972 0.221 92 81 60 0 0
0.0032 0.1101 -0.9112 -0.252 0.714 0.653 127 105 75 0 0
0.0032 0.1145 -0.9144 0.010 0.792 0.611 88 67 41 0 0
0.0035 0.1207 -0.9542 -0.253 0.957 0.141 68 48 24 0 0
0.0035 0.1219 -0.9585 -0.039 0.994 0.101 75 55 29 0 0
0.0037 0.1187 -0.9688 -0.062 0.961 -0.269 86 64 33 0 0
0.0038 0.1173 -0.9740 -0.062 0.961 -0.269 80 61 32 0 0
0.0072 0.0837 -1.1747 -0.572 0.745 0.342 85 70 50 0 0
0.0067 0.1654 -1.3070 0.149 0.935 0.321 60 43 16 0 0
0.0072 0.1587 -1.3305 0.136 0.967 0.217 58 38 14 0 0
0.0071 0.1660 -1.3425 -0.446 0.641 0.625 158 128 70 0 0
0.0071 0.1701 -1.3510 -0.192 0.822 0.536 168 139 92 0 0
0.0065 0.2088 -1.3790 -0.078 0.947 0.312 139 116 90 0 0
0.0058 0.2572 -1.4274 0.310 0.828 0.467 126 101 60 0 0
0.0058 0.2638 -1.4395 -0.119 0.809 0.575 106 81 43 0 0
0.0057 0.2664 -1.4434 -0.027 0.844 0.536 104 80 41 0 0
0.0056 0.2996 -1.5039 -0.268 0.830 0.490 82 55 25 0 0
0.0057 0.3000 -1.5090 -0.158 0.972 0.172 80 55 24 0 0
0.0063 0.2978 -1.5576 -0.331 0.826 0.457 152 124 79 0 0
0.0045 0.3971 -1.6218 -0.047 0.793 0.607 148 126 88 0 0
0.0045 0.3999 -1.6254 -0.047 0.793 0.607 98 78 46 0 0
0.0045 0.4058 -1.6377 0.201 0.965 0.168 95 71 43 0 0
0.0060 0.3676 -1.6827 -0.142 0.818 -0.557 93 74 48 0 0
0.0079 0.3576 -1.8106 -0.155 0.896 0.416 50 33 13 0 0
0.0081 0.3566 -1.8226 -0.111 0.962 0.251 73 54 27 0 0
0.0081 0.3657 -1.8448 0.165 0.953 0.252 81 60 32 0 0
0.0083 0.3684 -1.8656 0.123 0.883 0.453 86 64 32 0 0
0.0089 0.3929 -1.9636 -0.065 0.966 0.251 95 71 43 0 0
0.0089 0.3941 -1.9685 -0.065 0.966 0.251 93 69 41 0 0
0.0090 0.4009 -1.9869 -0.153 0.925 0.348 84 61 30 0 0
0.0090 0.4026 -1.9915 -0.024 0.843 0.537 85 62 31 0 0
0.0092 0.4646 -2.1394 0.148 0.816 0.559 83 60 28 0 0
0.0092 0.4672 -2.1433 0.148 0.816 0.559 83 60 28 0 0
0.0087 0.4953 -2.1684 0.344 0.828 0.442 84 61 29 0 0
0.0090 0.5116 -2.2276 0.023 0.898 0.440 87 67 32 0 0
0.0089 0.5275 -2.2506 -0.168 0.950 0.261 92 73 36 0 0
0.0089 0.5287 -2.2557 -0.078 0.972 0.221 85 67 32 0 0
0.0076 0.1144 -0.9145 0.012 0.773 0.634 93 69 42 0 0
0.0077 0.1169 -0.9229 -0.264 0.956 0.124 80 63 33 0 0
0.0077 0.1175 -0.9274 -0.054 0.971 0.233 84 63 34 0 0
0.0078 0.1173 -0.9367 -0.208 0.970 0.125 77 55 30 0 0
0.0079 0.1178 -0.9412 -0.208 0.970 0.125 74 54 29 0 0
0.0080 0.1221 -0.9584 -0.039 0.994 0.101 80 60 33 0 0
0.0118 0.0877 -1.1782 -0.303 0.776 0.554 81 67 50 0 0
0.0118 0.0933 -1.1860 -0.414 0.754 0.511 74 61 43 0 0
0.0107 0.1466 -1.2144 -0.488 0.726 0.484 140 118 65 0 0
0.0106 0.1505 -1.2177 -0.314 0.636 0.705 149 126 72 0 0
0.0113 0.1640 -1.2974 0.083 0.968 0.235 45 32 15 0 0
0.0114 0.1633 -1.3028 0.101 0.835 0.541 51 36 15 0 0
0.0114 0.1650 -1.3072 -0.267 0.893 0.363 67 51 24 0 0
0.0119 0.1671 -1.3472 -0.060 0.666 0.744 181 150 101 0 0
0.0116 0.1824 -1.3607 -0.149 0.882 0.446 172 152 119 0 0
0.0116 0.1855 -1.3644 -0.005 0.733 0.681 150 133 94 0 0
0.0110 0.2179 -1.3901 0.171 0.804 0.570 154 133 90 0 0
0.0105 0.2504 -1.4205 0.332 0.794 0.510 116 91 55 0 0
0.0104 0.2562 -1.4279 0.200 0.786 0.585 121 97 51 0 0
0.0104 0.2629 -1.4400 0.073 0.824 0.562 99 75 38 0 0
0.0104 0.2655 -1.4438 0.073 0.824 0.562 104 80 42 0 0
0.0105 0.2651 -1.4492 0.256 0.840 0.478 92 68 30 0 0
0.0105 0.2813 -1.4876 -0.027 0.897 0.441 178 146 96 0 0
0.0105 0.2833 -1.4917 0.032 0.934 0.355 188 158 109 0 0
0.0105 0.2850 -1.4961 0.032 0.934 0.355 220 194 146 0 0
0.0105 0.2866 -1.5004 0.032 0.934 0.355 176 150 103 0 0
0.0102 0.3012 -1.5031 0.059 0.535 0.843 81 54 24 0 0
0.0103 0.3004 -1.5087 0.284 0.923 0.259 82 55 25 0 0
0.0090 0.4049 -1.6383 0.201 0.965 0.168 98 77 48 0 0
0.0105 0.3723 -1.6798 -0.094 0.774 -0.626 80 63 38 0 0
0.0118 0.3533 -1.7355 0.156 0.917 0.366 77 58 31 0 0
0.0118 0.3554 -1.7396 -0.052 0.985 0.163 91 70 39 0 0
0.0126 0.3583 -1.8102 -0.155 0.896 0.416 66 49 24 0 0
0.0129 0.3665 -1.8499 -0.021 0.957 0.288 72 51 24 0 0
0.0129 0.3682 -1.8544 0.154 0.916 0.370 76 55 27 0 0
0.0129 0.3707 -1.8584 0.209 0.814 0.541 84 63 34 0 0
0.0135 0.3944 -1.9567 -0.260 0.861 0.437 88 64 36 0 0
0.0137 0.4031 -1.9852 -0.281 0.843 0.459 86 62 34 0 0
0.0140 0.4005 -2.0048 -0.056 0.879 0.473 88 64 36 0 0
0.0140 0.4648 -2.1392 -0.005 0.763 0.647 83 60 28 0 0
0.0138 0.5137 -2.2320 0.171 0.843 0.510 89 70 35 0 0
0.0137 0.5215 -2.2374 0.173 0.724 0.668 90 71 38 0 0
0.0122 0.1241 -0.9438 -0.076 0.979 0.187 71 51 25 0 0
0.0125 0.1222 -0.9583 -0.039 0.994 0.101 77 57 33 0 0
0.0126 0.1212 -0.9680 0.244 0.931 0.272 94 74 46 0 0
0.0165 0.0857 -1.1740 -0.211 0.639 0.740 78 65 43 0 0
0.0165 0.0879 -1.1781 -0.032 0.710 0.704 55 44 25 0 0
0.0161 0.1088 -1.1948 -0.241 0.740 0.629 71 57 24 0 0
0.0151 0.1527 -1.2118 -0.393 0.766 0.509 139 116 64 0 0
0.0151 0.1554 -1.2157 -0.309 0.801 0.513 156 131 78 0 0
0.0150 0.1622 -1.2228 -0.182 0.657 0.731 130 112 65 0 0
0.0148 0.1679 -1.2254 -0.170 0.764 0.622 131 112 69 0 0
0.0165 0.1692 -1.3462 -0.299 0.591 0.749 180 148 102 0 0
0.0152 0.2416 -1.4094 0.165 0.702 0.692 135 109 77 0 0
0.0150 0.2631 -1.4399 -0.086 0.911 0.404 95 71 36 0 0
0.0150 0.2649 -1.4441 -0.086 0.911 0.404 99 76 39 0 0
0.0150 0.2676 -1.4480 -0.132 0.881 0.455 97 73 38 0 0
0.0151 0.2665 -1.4537 0.188 0.896 0.404 93 70 35 0 0
0.0151 0.2832 -1.4866 -0.016 0.926 0.378 186 155 108 0 0
0.0151 0.2849 -1.4909 -0.016 0.926 0.378 184 153 105 0 0
0.0151 0.2861 -1.4955 0.244 0.872 0.424 220 190 143 0 0
0.0149 0.2989 -1.5095 0.356 0.899 0.254 82 55 25 0 0
0.0151 0.3304 -1.5869 -0.376 0.849 0.372 68 52 30 0 0
0.0150 0.3331 -1.5906 -0.297 0.729 0.617 87 71 42 0 0
0.0144 0.3602 -1.6014 -0.151 0.357 0.922 114 96 72 0 0
0.0141 0.3727 -1.6046 -0.131 0.313 0.941 91 73 49 0 0
0.0136 0.4015 -1.6297 -0.100 0.942 0.321 71 50 24 0 0
0.0136 0.4041 -1.6388 0.201 0.965 0.168 88 67 39 0 0
0.0151 0.3734 -1.6791 -0.094 0.774 -0.626 70 52 29 0 0
0.0163 0.3482 -1.7167 0.108 0.968 0.226 66 48 28 0 0
0.0166 0.3499 -1.7377 -0.375 0.861 0.344 74 54 30 0 0
0.0165 0.3527 -1.7414 -0.248 0.884 0.396 76 55 27 0 0
0.0176 0.3651 -1.8452 -0.038 0.956 0.291 69 47 23 0 0
0.0176 0.3666 -1.8499 -0.038 0.956 0.291 65 44 18 0 0
0.0179 0.3659 -1.8674 -0.065 0.938 0.341 78 57 28 0 0
0.0185 0.4005 -1.9872 0.104 0.948 0.301 89 65 37 0 0
0.0190 0.4068 -2.0296 -0.146 0.678 0.721 82 59 28 0 0
0.0189 0.4118 -2.0376 0.335 0.535 0.775 105 81 47 0 0
0.0189 0.4152 -2.0409 0.084 0.712 0.697 107 80 42 0 0
0.0187 0.4256 -2.0508 -0.052 0.532 0.845 97 76 45 0 0
0.0185 0.4335 -2.0565 -0.457 0.593 0.663 86 62 34 0 0
0.0188 0.4724 -2.1573 0.261 0.892 0.369 84 61 29 0 0
0.0186 0.5023 -2.2051 -0.162 0.865 0.474 82 59 27 0 0
0.0186 0.5048 -2.2090 -0.002 0.941 0.338 80 57 25 0 0
0.0186 0.5069 -2.2195 0.005 0.880 0.474 86 63 31 0 0
0.0186 0.5091 -2.2237 0.005 0.880 0.474 81 59 26 0 0
0.0185 0.5274 -2.2507 0.051 0.924 0.378 91 71 42 0 0
0.0167 0.1039 -0.9038 -0.064 0.797 0.600 171 145 109 0 0
0.0167 0.1067 -0.9076 -0.064 0.797 0.600 123 99 66 0 0
0.0167 0.1096 -0.9113 -0.064 0.797 0.600 84 60 31 0 0
0.0168 0.1239 -0.9531 -0.256 0.967 -0.020 71 51 27 0 0
0.0169 0.1240 -0.9578 -0.134 0.985 0.108 77 57 30 0 0
0.0170 0.1240 -0.9671 -0.035 0.997 0.066 96 76 49 0 0
0.0222 0.0546 -1.1760 -0.009 -0.040 0.999 119 109 93 0 0
0.0209 0.1017 -1.1876 -0.184 0.800 0.571 46 33 15 0 0
0.0196 0.1549 -1.2109 0.050 0.979 0.198 133 107 62 0 0
0.0211 0.1708 -1.3506 -0.103 0.909 0.404 158 125 85 0 0
0.0199 0.2360 -1.4019 0.172 0.898 0.405 177 146 112 0 0
0.0199 0.2386 -1.4057 0.290 0.895 0.339 164 134 97 0 0
0.0198 0.2468 -1.4171 0.077 0.805 0.588 134 105 66 0 0
0.0197 0.2556 -1.4282 0.071 0.723 0.687 112 84 46 0 0
0.0196 0.2643 -1.4393 -0.016 0.856 0.517 103 80 46 0 0
0.0196 0.2648 -1.4442 -0.214 0.852 0.478 85 61 28 0 0
0.0197 0.2822 -1.4871 -0.102 0.907 0.408 175 145 93 0 0
0.0197 0.2841 -1.4913 -0.102 0.907 0.408 183 153 102 0 0
0.0197 0.2859 -1.4956 -0.019 0.922 0.386 220 191 144 0 0
0.0196 0.2973 -1.5104 0.356 0.899 0.254 79 52 23 0 0
0.0196 0.3319 -1.5860 -0.289 0.862 0.416 74 56 33 0 0
0.0196 0.3340 -1.5902 -0.223 0.860 0.459 93 77 46 0 0
0.0181 0.4019 -1.6295 -0.100 0.942 0.321 69 48 23 0 0
0.0211 0.3494 -1.7270 0.080 0.944 0.320 56 40 19 0 0
0.0212 0.3535 -1.7409 0.072 0.797 0.599 67 45 20 0 0
0.0224 0.3667 -1.8498 -0.038 0.956 0.291 67 45 21 0 0
0.0227 0.3660 -1.8673 -0.098 0.910 0.403 78 57 30 0 0
0.0229 0.3762 -1.9061 -0.117 0.939 0.325 74 53 23 0 0
0.0232 0.4020 -1.9803 0.005 0.928 0.372 91 70 41 0 0
0.0231 0.4122 -1.9961 -0.092 0.737 0.670 86 62 34 0 0
0.0235 0.4098 -2.0155 0.319 0.935 -0.152 84 61 29 0 0
0.0235 0.4260 -2.0504 0.463 0.550 0.695 93 72 41 0 0
0.0237 0.4484 -2.1164 0.024 0.833 0.553 89 69 36 0 0
0.0237 0.4505 -2.1208 -0.146 0.788 0.598 78 57 27 0 0
0.0237 0.4533 -2.1246 -0.146 0.788 0.598 78 57 26 0 0
0.0236 0.4659 -2.1444 -0.025 0.977 0.213 82 59 27 0 0
0.0233 0.5272 -2.2509 0.051 0.924 0.378 88 69 38 0 0
0.0211 0.1074 -0.9074 0.040 0.811 0.584 102 80 49 0 0
0.0210 0.1148 -0.9143 0.242 0.877 0.416 97 73 43 0 0
0.0216 0.1246 -0.9715 -0.185 0.982 -0.025 90 69 41 0 0
0.0257 0.0896 -1.1724 -0.194 0.860 0.472 81 68 43 0 0
0.0257 0.0919 -1.1765 -0.194 0.860 0.472 62 53 34 0 0
0.0257 0.0941 -1.1806 -0.194 0.860 0.472 69 57 40 0 0
0.0247 0.1376 -1.2031 0.312 0.647 0.695 147 119 71 0 0
0.0236 0.1873 -1.2371 -0.023 0.951 0.308 94 73 46 0 0
0.0236 0.1887 -1.2414 -0.196 0.946 0.259 103 82 54 0 0
0.0246 0.2326 -1.3984 0.048 0.931 0.363 185 153 115 0 0
0.0246 0.2349 -1.4024 0.025 0.939 0.342 172 141 102 0 0
0.0246 0.2365 -1.4068 0.025 0.939 0.342 162 132 94 0 0
0.0244 0.2455 -1.4126 -0.010 0.880 0.475 136 110 77 0 0
0.0244 0.2470 -1.4170 0.045 0.895 0.445 128 101 65 0 0
0.0242 0.2610 -1.4358 -0.226 0.826 0.517 89 67 30 0 0
0.0243 0.2857 -1.4905 -0.043 0.980 0.196 180 151 102 0 0
0.0243 0.2863 -1.4954 0.022 0.994 0.104 208 180 134 0 0
0.0243 0.2889 -1.4992 -0.082 0.905 0.417 146 119 76 0 0
0.0242 0.2971 -1.5105 0.311 0.909 0.276 77 51 22 0 0
0.0227 0.3984 -1.6264 0.185 0.913 0.364 98 75 47 0 0
0.0227 0.4021 -1.6294 -0.038 0.927 0.374 69 46 23 0 0
0.0260 0.3468 -1.7341 0.073 0.958 0.278 53 36 18 0 0
0.0261 0.3475 -1.7392 -0.286 0.879 0.381 60 41 21 0 0
0.0260 0.3510 -1.7425 -0.231 0.904 0.359 63 42 19 0 0
0.0257 0.3667 -1.7545 -0.516 0.578 0.632 89 66 35 0 0
0.0270 0.3535 -1.8134 0.165 0.960 0.226 63 41 18 0 0
0.0270 0.3547 -1.8183 0.165 0.960 0.226 51 32 10 0 0
0.0272 0.3658 -1.8504 0.074 0.948 0.309 71 49 26 0 0
0.0272 0.3673 -1.8551 0.074 0.948 0.309 72 50 26 0 0
0.0278 0.3780 -1.9164 -0.229 0.859 0.457 80 59 27 0 0
0.0278 0.3802 -1.9206 -0.229 0.859 0.457 83 62 30 0 0
0.0277 0.3838 -1.9238 0.132 0.919 0.373 86 64 33 0 0
0.0279 0.4028 -1.9797 -0.240 0.810 0.535 91 70 41 0 0
0.0279 0.4054 -1.9836 -0.240 0.810 0.535 90 66 38 0 0
0.0284 0.4251 -2.0571 0.076 0.808 0.585 84 64 33 0 0
0.0283 0.4283 -2.0606 -0.012 0.963 0.268 84 62 32 0 0
0.0285 0.4485 -2.1164 0.154 0.915 0.372 91 71 40 0 0
0.0285 0.4507 -2.1206 -0.031 0.825 0.565 77 58 27 0 0
0.0285 0.4534 -2.1245 -0.031 0.825 0.565 79 59 27 0 0
0.0284 0.4657 -2.1446 0.068 0.971 0.230 80 57 26 0 0
0.0283 0.5059 -2.2204 0.068 0.793 0.605 76 52 23 0 0
0.0282 0.5108 -2.2284 -0.187 0.842 0.506 84 63 32 0 0
0.0281 0.5220 -2.2433 0.026 0.890 0.455 80 64 30 0 0
0.0281 0.5270 -2.2511 0.051 0.924 0.378 86 67 34 0 0
0.0279 0.5321 -2.2528 -0.077 0.933 0.351 82 66 32 0 0
0.0280 0.5332 -2.2580 -0.075 0.974 0.215 82 66 36 0 0
0.0257 0.1045 -0.9036 0.040 0.811 0.584 150 128 101 0 0
0.0256 0.1086 -0.9070 0.193 0.874 0.446 68 49 25 0 0
0.0255 0.1233 -0.9348 0.139 0.976 0.169 88 67 41 0 0
0.0262 0.1217 -0.9725 -0.257 0.898 0.357 91 70 42 0 0
0.0293 0.1362 -1.2037 0.252 0.842 0.477 144 117 66 0 0
0.0288 0.1526 -1.2020 -0.414 0.827 0.380 162 134 83 0 0
0.0310 0.1496 -1.3398 -0.188 0.723 0.665 119 93 56 0 0
0.0292 0.2324 -1.3985 0.048 0.931 0.363 206 174 138 0 0
0.0292 0.2347 -1.4025 0.156 0.912 0.380 171 141 101 0 0
0.0292 0.2365 -1.4068 0.156 0.912 0.380 144 116 79 0 0
0.0292 0.2404 -1.4152 0.115 0.866 0.487 136 110 77 0 0
0.0289 0.2581 -1.4321 -0.212 0.798 0.565 105 83 46 0 0
0.0288 0.2615 -1.4356 -0.008 0.806 0.592 88 66 29 0 0
0.0288 0.2649 -1.4390 0.067 0.845 0.531 98 74 40 0 0
0.0288 0.2667 -1.4432 -0.176 0.832 0.526 87 63 33 0 0
0.0289 0.2862 -1.4955 0.022 0.994 0.104 197 169 123 0 0
0.0294 0.3657 -1.6894 0.029 0.767 -0.641 73 58 35 0 0
0.0299 0.3546 -1.7017 0.015 0.868 -0.497 63 47 28 0 0
0.0306 0.3499 -1.7377 -0.133 0.959 0.249 61 43 22 0 0
0.0303 0.3670 -1.7543 0.399 0.752 0.524 88 64 36 0 0
0.0315 0.3486 -1.7886 -0.047 0.999 -0.013 74 53 28 0 0
0.0315 0.3515 -1.7979 -0.068 0.867 0.494 76 54 27 0 0
0.0316 0.3546 -1.8071 -0.032 0.991 0.133 85 64 37 0 0
0.0316 0.3553 -1.8122 -0.032 0.991 0.133 60 39 17 0 0
0.0322 0.3553 -1.8462 0.092 0.922 0.376 71 49 25 0 0
0.0322 0.3574 -1.8504 -0.092 0.873 0.478 72 50 26 0 0
0.0323 0.3742 -1.8903 -0.294 0.825 0.482 80 59 28 0 0
0.0324 0.3825 -1.9189 -0.093 0.966 0.243 86 65 34 0 0
0.0332 0.3775 -1.9574 -0.316 0.898 0.307 75 51 24 0 0
0.0332 0.4248 -2.0574 0.076 0.808 0.585 83 64 32 0 0
0.0332 0.4269 -2.0617 -0.060 0.978 0.201 83 62 31 0 0
0.0334 0.4477 -2.1171 0.102 0.814 0.572 86 67 34 0 0
0.0329 0.4680 -2.1307 -0.148 0.953 0.264 80 57 26 0 0
0.0330 0.5066 -2.2198 -0.076 0.892 0.445 78 55 24 0 0
0.0330 0.5090 -2.2239 -0.169 0.811 0.561 75 52 21 0 0
0.0329 0.5268 -2.2513 0.051 0.924 0.378 86 67 34 0 0
0.0328 0.5375 -2.2666 -0.405 0.767 0.498 126 124 112 0 0
0.0327 0.5410 -2.2696 -0.313 0.701 0.641 172 174 172 0 0
0.0299 0.1154 -0.9141 -0.135 0.865 0.483 101 81 52 0 0
0.0298 0.1210 -0.9170 0.115 0.920 0.374 100 80 52 0 0
0.0300 0.1235 -0.9347 -0.168 0.955 0.245 90 68 43 0 0
0.0301 0.1246 -0.9436 -0.051 0.993 0.104 83 61 36 0 0
0.0352 0.0817 -1.1655 -0.558 0.564 0.609 113 99 78 0 0
0.0339 0.1380 -1.2029 0.165 0.842 0.514 148 121 71 0 0
0.0328 0.1828 -1.2340 0.168 0.816 0.554 101 84 57 0 0
0.0348 0.1889 -1.3679 0.108 0.735 0.669 76 54 21 0 0
0.0345 0.2026 -1.3769 0.160 0.756 0.635 99 78 46 0 0
0.0345 0.2045 -1.3811 0.150 0.737 0.659 103 83 48 0 0
0.0339 0.2309 -1.3992 0.194 0.816 0.544 149 119 87 0 0
0.0338 0.2349 -1.4024 0.051 0.926 0.374 147 120 80 0 0
0.0339 0.2359 -1.4071 0.156 0.912 0.380 143 117 77 0 0
0.0339 0.2375 -1.4115 0.164 0.894 0.417 166 138 99 0 0
0.0339 0.2398 -1.4155 -0.016 0.945 0.326 141 111 76 0 0
0.0336 0.2501 -1.4206 -0.146 0.933 0.330 114 88 53 0 0
0.0334 0.2671 -1.4430 -0.124 0.917 0.378 67 42 15 0 0
0.0334 0.2689 -1.4473 -0.124 0.917 0.378 96 72 43 0 0
0.0333 0.2771 -1.4586 -0.443 0.873 0.205 85 62 30 0 0
0.0334 0.2945 -1.5015 0.184 0.769 0.612 75 51 24 0 0
0.0335 0.2943 -1.5068 -0.137 0.743 0.655 75 50 21 0 0
0.0334 0.2975 -1.5103 0.067 0.782 0.619 73 48 19 0 0
0.0319 0.3921 -1.6196 0.046 0.761 0.648 109 89 57 0 0
0.0317 0.4041 -1.6282 0.167 0.874 0.457 67 46 18 0 0
0.0342 0.3617 -1.6919 -0.093 0.730 -0.677 81 68 46 0 0
0.0351 0.3483 -1.7222 0.067 0.983 0.170 65 49 25 0 0
0.0353 0.3500 -1.7376 -0.035 0.995 0.090 67 48 27 0 0
0.0363 0.3478 -1.7891 0.164 0.961 0.222 80 59 33 0 0
0.0363 0.3487 -1.7942 -0.228 0.855 0.466 75 54 29 0 0
0.0363 0.3512 -1.7981 -0.153 0.822 0.549 77 55 26 0 0
0.0363 0.3543 -1.8073 0.032 0.982 0.187 81 62 36 0 0
0.0364 0.3552 -1.8123 0.032 0.982 0.187 54 36 16 0 0
0.0369 0.3775 -1.8937 0.038 0.764 0.644 86 65 34 0 0
0.0369 0.3806 -1.8973 0.038 0.764 0.644 84 63 32 0 0
0.0371 0.3836 -1.9182 -0.196 0.941 0.276 84 63 32 0 0
0.0378 0.3798 -1.9499 -0.249 0.915 0.316 77 53 25 0 0
0.0378 0.3814 -1.9546 -0.249 0.915 0.316 75 51 24 0 0
0.0378 0.3858 -1.9630 -0.150 0.951 0.272 79 55 26 0 0
0.0380 0.4245 -2.0577 0.106 0.835 0.540 82 61 30 0 0
0.0380 0.4285 -2.0665 -0.024 0.958 0.286 81 58 27 0 0
0.0381 0.4510 -2.1205 0.030 0.841 0.541 76 56 25 0 0
0.0381 0.4533 -2.1246 0.036 0.816 0.577 79 57 26 0 0
0.0379 0.4677 -2.1431 -0.024 0.933 0.359 81 58 27 0 0
0.0379 0.4991 -2.2080 0.081 0.925 0.372 83 61 30 0 0
0.0379 0.5039 -2.2161 -0.064 0.775 0.628 81 58 27 0 0
0.0378 0.5101 -2.2230 0.063 0.734 0.676 81 58 27 0 0
0.0373 0.5406 -2.2577 0.157 0.717 0.679 93 84 61 0 0
0.0374 0.5409 -2.2635 -0.272 0.745 0.609 126 124 112 0 0
0.0374 0.5419 -2.2688 -0.207 0.915 0.347 172 174 172 0 0
0.0343 0.1205 -0.9172 0.134 0.904 0.406 88 69 36 0 0
0.0343 0.1213 -0.9215 -0.010 0.957 0.289 100 79 48 0 0
0.0348 0.1214 -0.9493 0.083 0.772 0.630 82 62 36 0 0
0.0376 0.1618 -1.1982 -0.239 0.888 0.393 150 122 74 0 0
0.0374 0.1803 -1.2251 0.282 0.841 0.462 122 102 71 0 0
0.0374 0.1839 -1.2335 0.321 0.875 0.362 100 83 52 0 0
0.0392 0.2018 -1.3773 0.135 0.725 0.676 96 75 46 0 0
0.0386 0.2247 -1.3920 0.229 0.642 0.732 171 144 108 0 0
0.0385 0.2312 -1.3991 -0.137 0.760 0.635 143 114 81 0 0
0.0385 0.2343 -1.4027 0.201 0.928 0.315 165 140 97 0 0
0.0385 0.2357 -1.4072 0.167 0.916 0.365 156 127 84 0 0
0.0384 0.2417 -1.4145 0.029 0.847 0.531 132 102 67 0 0
0.0381 0.2513 -1.4200 -0.056 0.889 0.455 113 87 53 0 0
0.0380 0.2620 -1.4353 0.130 0.871 0.474 92 69 34 0 0
0.0380 0.2644 -1.4393 0.067 0.845 0.531 100 75 44 0 0
0.0379 0.2676 -1.4428 -0.124 0.917 0.378 93 68 40 0 0
0.0382 0.2928 -1.5076 0.041 0.888 0.457 76 50 24 0 0
0.0381 0.2989 -1.5201 -0.470 0.880 -0.065 74 47 19 0 0
0.0385 0.2932 -1.5284 0.300 0.873 0.385 75 47 23 0 0
0.0379 0.3466 -1.6041 0.197 0.484 0.852 154 136 105 0 0
0.0378 0.3507 -1.6071 0.216 0.563 0.798 131 112 78 0 0
0.0363 0.4035 -1.6286 0.167 0.874 0.457 71 50 22 0 0
0.0397 0.3477 -1.7116 -0.109 0.959 0.261 65 51 28 0 0
0.0400 0.3519 -1.7420 0.118 0.993 0.013 78 58 33 0 0
0.0409 0.3498 -1.7879 0.130 0.985 0.110 80 60 33 0 0
0.0410 0.3490 -1.7939 -0.036 0.973 0.227 74 54 27 0 0
0.0411 0.3502 -1.7987 0.203 0.903 0.379 83 61 31 0 0
0.0416 0.3563 -1.8456 0.141 0.919 0.367 71 49 25 0 0
0.0419 0.3851 -1.9229 -0.008 0.915 0.403 86 65 34 0 0
0.0426 0.3864 -1.9626 -0.150 0.951 0.272 83 59 30 0 0
0.0424 0.3954 -1.9736 -0.226 0.698 0.679 86 65 36 0 0
0.0427 0.3972 -1.9956 -0.131 0.989 -0.070 87 63 35 0 0
0.0430 0.4193 -2.0557 0.282 0.957 0.070 86 65 33 0 0
0.0428 0.4240 -2.0580 0.074 0.861 0.503 80 59 28 0 0
0.0428 0.4260 -2.0624 -0.030 0.945 0.327 81 58 27 0 0
0.0428 0.4286 -2.0664 0.205 0.937 0.284 81 58 27 0 0
0.0430 0.4291 -2.0779 0.079 0.779 0.622 80 59 28 0 0
0.0431 0.4369 -2.1017 0.144 0.894 0.424 110 87 44 0 0
0.0431 0.4390 -2.1061 0.144 0.894 0.424 156 125 73 0 0
0.0431 0.4410 -2.1105 0.144 0.894 0.424 176 142 90 0 0
0.0431 0.4431 -2.1148 0.144 0.894 0.424 137 111 72 0 0
0.0430 0.4631 -2.1468 0.014 0.818 0.575 80 57 26 0 0
0.0390 0.1273 -0.9474 0.010 0.929 0.371 82 62 37 0 0
0.0392 0.1289 -0.9608 -0.222 0.947 0.231 89 69 42 0 0
0.0440 0.0967 -1.1646 -0.210 0.729 0.652 87 71 43 0 0
0.0438 0.1639 -1.2975 -0.084 0.985 0.154 24 18 5 0 0
0.0439 0.2025 -1.3821 0.107 0.670 0.734 96 74 44 0 0
0.0432 0.2307 -1.3993 -0.137 0.893 0.429 173 144 103 0 0
0.0431 0.2350 -1.4075 0.201 0.928 0.315 143 110 74 0 0
0.0427 0.2542 -1.4238 -0.073 0.941 0.331 107 81 45 0 0
0.0424 0.2809 -1.4618 0.068 0.997 -0.019 82 59 31 0 0
0.0423 0.3079 -1.5152 0.120 0.970 0.210 74 48 19 0 0
0.0430 0.2952 -1.5273 0.766 0.474 0.435 73 47 20 0 0
0.0432 0.3030 -1.5547 0.186 0.942 -0.278 82 54 19 0 0
0.0431 0.3126 -1.5706 -0.012 0.952 0.307 75 51 24 0 0
0.0431 0.3163 -1.5738 -0.017 0.765 0.644 66 42 14 0 0
0.0426 0.3443 -1.6055 0.353 0.500 0.791 132 113 80 0 0
0.0424 0.3492 -1.6079 0.319 0.545 0.775 119 96 65 0 0
0.0413 0.3880 -1.6220 0.088 0.797 0.597 76 56 30 0 0
0.0408 0.4028 -1.6290 0.167 0.874 0.457 68 47 21 0 0
0.0412 0.3966 -1.6381 0.001 0.884 0.467 71 50 23 0 0
0.0449 0.3507 -1.7483 0.306 0.951 0.044 91 69 39 0 0
0.0458 0.3593 -1.8209 0.315 0.777 0.545 84 62 32 0 0
0.0460 0.3575 -1.8277 -0.194 0.827 0.527 81 60 31 0 0
0.0461 0.3595 -1.8378 0.283 0.857 0.430 73 52 25 0 0
0.0464 0.3559 -1.8458 0.112 0.922 0.370 72 51 24 0 0
0.0467 0.3756 -1.9009 0.049 0.899 0.435 79 56 25 0 0
0.0471 0.4185 -2.0149 0.107 0.994 0.015 75 52 21 0 0
0.0474 0.4137 -2.0245 -0.151 0.803 0.576 75 51 23 0 0
0.0476 0.4144 -2.0358 -0.051 0.986 0.161 106 82 48 0 0
0.0476 0.4180 -2.0449 -0.135 0.991 -0.006 162 132 88 0 0
0.0477 0.4209 -2.0545 -0.299 0.806 0.512 86 63 30 0 0
0.0477 0.4277 -2.0671 0.205 0.937 0.284 77 54 23 0 0
0.0477 0.4292 -2.0719 0.118 0.964 0.239 81 58 27 0 0
0.0478 0.4296 -2.0776 -0.100 0.678 0.728 81 57 26 0 0
0.0478 0.4356 -2.0908 0.007 0.968 0.250 77 56 24 0 0
0.0478 0.4391 -2.1000 0.378 0.926 -0.008 113 88 44 0 0
0.0479 0.4391 -2.1060 0.236 0.968 0.080 151 122 69 0 0
0.0480 0.4390 -2.1121 0.199 0.870 0.452 177 145 94 0 0
0.0480 0.4412 -2.1163 0.199 0.870 0.452 135 109 72 0 0
0.0480 0.4628 -2.1593 -0.154 0.784 0.601 79 56 25 0 0
0.0480 0.4666 -2.1683 -0.058 0.933 0.355 81 60 29 0 0
0.0480 0.4686 -2.1727 -0.084 0.922 0.378 81 60 29 0 0
0.0480 0.4707 -2.1770 -0.132 0.808 0.574 80 59 28 0 0
0.0476 0.4911 -2.1965 0.269 0.889 0.371 80 57 26 0 0
0.0473 0.5174 -2.2351 -0.064 0.851 0.521 80 61 29 0 0
0.0473 0.5199 -2.2391 -0.064 0.851 0.521 85 66 32 0 0
0.0473 0.5226 -2.2428 0.033 0.777 0.629 96 81 48 0 0
0.0472 0.5255 -2.2464 0.033 0.777 0.629 91 75 41 0 0
0.0435 0.1277 -0.9519 -0.222 0.947 0.231 82 62 37 0 0
0.0436 0.1288 -0.9562 -0.222 0.947 0.231 83 63 36 0 0
0.0485 0.1045 -1.1716 0.085 0.638 0.766 82 65 33 0 0
0.0466 0.1778 -1.2212 -0.045 0.851 0.523 127 108 76 0 0
0.0466 0.1840 -1.2385 -0.068 0.992 0.105 97 78 45 0 0
0.0474 0.1724 -1.2585 0.221 0.837 -0.501 53 41 19 0 0
0.0486 0.1618 -1.2984 0.228 0.937 0.265 38 31 12 0 0
0.0478 0.2326 -1.4036 -0.034 0.887 0.461 172 142 101 0 0
0.0473 0.2631 -1.4399 0.130 0.871 0.474 89 65 35 0 0
0.0478 0.3127 -1.5705 0.002 0.962 0.273 67 43 18 0 0
0.0472 0.3437 -1.6058 0.038 0.405 0.914 124 101 69 0 0
0.0458 0.3884 -1.6218 -0.104 0.855 0.508 98 78 53 0 0
0.0458 0.3900 -1.6262 -0.083 0.930 0.359 115 95 67 0 0
0.0458 0.3917 -1.6305 -0.083 0.930 0.359 83 61 35 0 0
0.0459 0.3929 -1.6351 -0.172 0.947 0.270 71 49 25 0 0
0.0458 0.3966 -1.6381 0.001 0.884 0.467 73 52 26 0 0
0.0497 0.3492 -1.7492 0.306 0.951 0.044 100 78 47 0 0
0.0508 0.3579 -1.8275 0.039 0.827 0.561 82 61 31 0 0
0.0514 0.3754 -1.9010 0.049 0.899 0.435 79 56 25 0 0
0.0516 0.3796 -1.9211 0.112 0.988 0.104 80 59 28 0 0
0.0518 0.3858 -1.9456 0.217 0.845 0.489 78 55 26 0 0
0.0518 0.3882 -1.9497 0.217 0.845 0.489 74 50 24 0 0
0.0518 0.3904 -1.9539 0.191 0.883 0.429 75 51 25 0 0
0.0518 0.3922 -1.9584 0.154 0.836 0.527 81 57 30 0 0
0.0518 0.3946 -1.9625 0.027 0.905 0.424 88 64 34 0 0
0.0519 0.3956 -1.9676 0.195 0.869 0.454 86 63 32 0 0
0.0524 0.4146 -2.0356 -0.051 0.986 0.161 102 79 44 0 0
0.0524 0.4220 -2.0537 -0.229 0.832 0.505 93 69 36 0 0
0.0524 0.4253 -2.0571 -0.179 0.870 0.460 82 59 28 0 0
0.0525 0.4294 -2.0718 0.177 0.888 0.424 81 58 27 0 0
0.0528 0.4283 -2.0846 0.258 0.931 0.257 79 58 27 0 0
0.0528 0.4298 -2.0894 0.327 0.830 0.452 77 55 25 0 0
0.0527 0.4355 -2.0969 0.033 0.970 0.239 109 89 49 0 0
0.0529 0.4404 -2.1170 -0.045 0.822 0.568 123 99 61 0 0
0.0526 0.4482 -2.1167 -0.004 0.833 0.553 86 68 32 0 0
0.0518 0.4747 -2.1314 -0.104 0.969 0.222 79 56 25 0 0
0.0521 0.4716 -2.1399 0.047 0.863 0.503 81 56 26 0 0
0.0528 0.4634 -2.1588 -0.168 0.784 0.598 80 58 27 0 0
0.0525 0.4900 -2.1974 0.269 0.889 0.371 77 55 24 0 0
0.0525 0.4905 -2.2031 0.201 0.849 0.489 77 55 24 0 0
0.0521 0.5105 -2.2227 -0.187 0.876 0.445 82 59 28 0 0
0.0521 0.5130 -2.2267 0.038 0.951 0.308 80 60 29 0 0
0.0521 0.5155 -2.2307 0.043 0.872 0.488 79 61 28 0 0
0.0519 0.5308 -2.2541 0.050 0.798 0.600 78 63 29 0 0
0.0477 0.1257 -0.9293 -0.070 0.925 0.375 85 64 36 0 0
0.0479 0.1293 -0.9514 -0.152 0.983 0.105 79 59 34 0 0
0.0521 0.1356 -1.1840 0.017 0.871 0.491 130 104 54 0 0
0.0521 0.1379 -1.1881 0.017 0.871 0.491 119 95 43 0 0
0.0514 0.1594 -1.1991 0.295 0.836 0.463 148 120 76 0 0
0.0514 0.1653 -1.2116 0.140 0.955 0.263 101 79 49 0 0
0.0512 0.1719 -1.2138 -0.201 0.778 0.595 92 73 42 0 0
0.0512 0.1770 -1.2216 -0.036 0.813 0.581 111 94 64 0 0
0.0507 0.1958 -1.2335 -0.022 0.708 0.706 87 68 38 0 0
0.0532 0.1541 -1.2815 0.012 0.784 0.621 36 34 11 0 0
0.0532 0.1571 -1.2853 0.012 0.784 0.621 32 28 9 0 0
0.0538 0.1733 -1.3495 0.086 0.833 0.547 133 107 71 0 0
0.0520 0.2608 -1.4411 0.119 0.832 0.542 92 69 37 0 0
0.0519 0.2738 -1.4603 0.133 0.829 0.543 86 63 33 0 0
0.0521 0.2996 -1.5250 0.084 0.867 0.492 72 48 21 0 0
0.0521 0.3002 -1.5299 0.011 0.931 0.365 73 50 18 0 0
0.0524 0.3130 -1.5704 -0.069 0.983 0.172 70 46 21 0 0
0.0519 0.3417 -1.6070 0.529 0.506 0.682 139 119 87 0 0
0.0505 0.3869 -1.6228 0.150 0.803 0.576 103 84 55 0 0
0.0502 0.3981 -1.6319 -0.132 0.762 0.634 70 48 24 0 0
0.0553 0.3472 -1.7952 0.271 0.918 0.289 82 61 33 0 0
0.0553 0.3487 -1.7998 0.271 0.918 0.289 93 74 45 0 0
0.0554 0.3502 -1.8044 0.124 0.933 0.337 103 84 52 0 0
0.0554 0.3535 -1.8135 0.124 0.933 0.337 45 29 11 0 0
0.0554 0.3552 -1.8181 0.124 0.933 0.337 68 50 26 0 0
0.0554 0.3568 -1.8226 0.124 0.933 0.337 90 69 38 0 0
0.0567 0.3832 -1.9417 0.138 0.918 0.372 78 55 24 0 0
0.0567 0.3850 -1.9462 0.217 0.845 0.489 76 52 24 0 0
0.0567 0.3874 -1.9503 0.217 0.845 0.489 74 50 23 0 0
0.0567 0.3916 -1.9589 0.154 0.836 0.527 81 57 30 0 0
0.0571 0.4266 -2.0561 -0.077 0.799 0.596 84 61 30 0 0
0.0573 0.4275 -2.0673 0.075 0.920 0.385 80 57 26 0 0
0.0574 0.4483 -2.1167 -0.004 0.833 0.553 83 62 31 0 0
0.0570 0.5074 -2.2193 -0.075 0.836 0.543 82 59 28 0 0
0.0570 0.5089 -2.2241 0.019 0.904 0.427 82 59 28 0 0
0.0569 0.5171 -2.2354 0.122 0.864 0.488 78 59 26 0 0
0.0569 0.5220 -2.2434 0.112 0.965 0.238 90 75 42 0 0
0.0569 0.5242 -2.2477 -0.006 0.930 0.368 88 73 40 0 0
0.0567 0.5306 -2.2543 0.050 0.798 0.600 82 67 33 0 0
0.0518 0.1242 -0.9114 -0.201 0.939 0.279 102 79 48 0 0
0.0524 0.1300 -0.9511 -0.152 0.983 0.105 74 55 30 0 0
0.0589 0.1598 -1.3454 -0.095 0.488 0.867 123 93 56 0 0
0.0587 0.1663 -1.3476 0.213 0.720 0.660 127 99 58 0 0
0.0577 0.2123 -1.3928 0.049 0.864 0.501 153 128 90 0 0
0.0577 0.2147 -1.3968 0.119 0.900 0.419 176 149 108 0 0
0.0566 0.2637 -1.4448 0.117 0.913 0.391 80 57 26 0 0
0.0565 0.2733 -1.4606 0.133 0.829 0.543 82 60 31 0 0
0.0550 0.3875 -1.6224 -0.182 0.864 0.470 112 95 62 0 0
0.0549 0.3910 -1.6256 -0.018 0.796 0.605 96 76 44 0 0
0.0550 0.3958 -1.6386 -0.322 0.907 0.271 77 55 28 0 0
0.0599 0.3475 -1.7894 -0.296 0.865 0.406 90 69 40 0 0
0.0601 0.3489 -1.7997 -0.307 0.910 0.280 98 78 50 0 0
0.0601 0.3504 -1.8044 -0.342 0.881 0.326 102 83 51 0 0
0.0601 0.3523 -1.8087 -0.252 0.908 0.334 80 61 35 0 0
0.0601 0.3540 -1.8132 -0.252 0.908 0.334 58 41 21 0 0
0.0601 0.3557 -1.8177 -0.252 0.908 0.334 70 52 29 0 0
0.0602 0.3573 -1.8223 -0.252 0.908 0.334 89 67 38 0 0
0.0606 0.3559 -1.8402 0.283 0.857 0.430 79 58 29 0 0
0.0606 0.3730 -1.8798 0.221 0.942 0.254 80 59 27 0 0
0.0614 0.3775 -1.9284 -0.197 0.908 0.371 77 55 24 0 0
0.0617 0.3916 -1.9706 0.198 0.963 0.182 88 64 35 0 0
0.0616 0.3996 -1.9822 -0.269 0.899 0.345 87 64 34 0 0
0.0616 0.4015 -1.9867 -0.220 0.907 0.358 86 62 34 0 0
0.0616 0.4038 -1.9908 -0.087 0.932 0.352 83 59 31 0 0
0.0624 0.4680 -2.1672 -0.135 0.866 0.482 80 59 28 0 0
0.0616 0.5202 -2.2389 0.121 0.977 0.178 88 70 36 0 0
0.0617 0.5215 -2.2439 0.125 0.894 0.431 87 72 37 0 0
0.0617 0.5236 -2.2482 0.125 0.894 0.431 87 71 37 0 0
0.0589 0.0538 -0.8955 0.221 -0.031 0.975 177 176 175 0 0
0.0568 0.1308 -0.9509 -0.194 0.974 0.113 90 70 43 0 0
0.0572 0.1333 -0.9733 -0.205 0.978 -0.051 98 78 45 0 0
0.0635 0.0726 -1.1590 0.859 0.499 -0.116 182 183 186 0 0
0.0621 0.1046 -1.1566 -0.188 0.798 0.573 95 79 57 0 0
0.0622 0.1048 -1.1615 0.103 0.857 0.505 98 80 46 0 0
0.0611 0.1409 -1.1819 -0.044 0.915 0.401 117 89 43 0 0
0.0611 0.1446 -1.1903 -0.124 0.930 0.346 150 122 74 0 0
0.0633 0.1510 -1.3134 0.254 0.958 -0.137 58 40 20 0 0
0.0633 0.1697 -1.3512 0.339 0.788 0.514 124 98 58 0 0
0.0629 0.1867 -1.3690 0.165 0.865 0.474 72 56 37 0 0
0.0624 0.2109 -1.3935 0.249 0.829 0.500 160 133 98 0 0
0.0623 0.2139 -1.3972 0.293 0.728 0.621 196 167 126 0 0
0.0622 0.2194 -1.3997 0.114 0.781 0.615 178 149 107 0 0
0.0622 0.2215 -1.4039 -0.045 0.857 0.514 146 114 74 0 0
0.0622 0.2232 -1.4082 -0.014 0.674 0.738 169 137 94 0 0
0.0613 0.2576 -1.4376 0.179 0.810 0.559 92 69 36 0 0
0.0613 0.2699 -1.4624 0.186 0.916 0.357 75 54 26 0 0
0.0615 0.2918 -1.5187 -0.253 0.893 0.372 77 54 24 0 0
0.0616 0.3101 -1.5614 0.153 0.960 0.234 68 43 19 0 0
0.0594 0.3934 -1.6295 -0.132 0.776 0.617 66 44 19 0 0
0.0594 0.3964 -1.6330 -0.072 0.730 0.680 68 46 19 0 0
0.0595 0.3971 -1.6378 -0.322 0.907 0.271 82 59 31 0 0
0.0644 0.3486 -1.7775 -0.288 0.885 0.367 82 61 33 0 0
0.0646 0.3486 -1.7887 -0.353 0.910 0.215 92 71 42 0 0
0.0651 0.3501 -1.8158 -0.138 0.976 0.171 59 41 20 0 0
0.0661 0.3772 -1.9228 -0.148 0.967 0.206 75 52 21 0 0
0.0668 0.3987 -2.0005 0.106 0.957 0.271 80 57 26 0 0
0.0668 0.4000 -2.0054 0.106 0.957 0.271 79 56 24 0 0
0.0671 0.4050 -2.0312 0.109 0.702 0.704 81 58 27 0 0
0.0670 0.4299 -2.0774 0.099 0.899 0.427 77 55 24 0 0
0.0672 0.4302 -2.0891 -0.065 0.912 0.405 78 56 25 0 0
0.0670 0.4639 -2.1464 0.287 0.855 0.431 77 56 25 0 0
0.0666 0.5156 -2.2368 0.148 0.818 0.556 79 59 27 0 0
0.0665 0.5197 -2.2394 0.121 0.977 0.178 81 64 30 0 0
0.0665 0.5256 -2.2526 -0.121 0.939 0.320 82 66 33 0 0
0.0662 0.5321 -2.2531 -0.229 0.963 0.141 81 67 33 0 0
0.0652 0.5580 -2.2546 0.368 -0.066 0.927 178 179 179 0 0
0.0604 0.1244 -0.8975 -0.279 0.781 0.559 164 140 106 0 0
0.0604 0.1272 -0.9013 -0.207 0.770 0.603 173 148 111 0 0
0.0667 0.0969 -1.1398 -0.333 0.828 0.451 179 181 183 0 0
0.0667 0.0991 -1.1439 -0.333 0.828 0.451 182 185 185 0 0
0.0667 0.1014 -1.1480 -0.333 0.828 0.451 184 185 188 0 0
0.0669 0.0989 -1.1538 -0.031 0.940 0.340 94 87 78 0 0
0.0669 0.1005 -1.1582 -0.129 0.818 0.561 90 74 52 0 0
0.0669 0.1041 -1.1617 -0.093 0.661 0.744 92 74 42 0 0
0.0658 0.1328 -1.1703 -0.177 0.819 0.546 99 75 34 0 0
0.0657 0.1363 -1.1739 0.000 0.798 0.603 115 89 49 0 0
0.0656 0.1418 -1.1815 0.038 0.952 0.303 120 94 50 0 0
0.0648 0.1835 -1.2288 0.006 0.755 0.656 94 75 43 0 0
0.0681 0.1497 -1.3140 0.254 0.958 -0.137 58 40 19 0 0
0.0670 0.2115 -1.3932 0.129 0.777 0.616 117 88 56 0 0
0.0668 0.2189 -1.4000 -0.051 0.834 0.550 175 146 103 0 0
0.0668 0.2216 -1.4038 -0.045 0.857 0.514 132 100 58 0 0
0.0660 0.2448 -1.4130 0.077 0.799 0.596 123 95 55 0 0
0.0658 0.2513 -1.4201 0.102 0.945 0.310 105 78 43 0 0
0.0662 0.2682 -1.4737 0.209 0.780 0.589 68 47 20 0 0
0.0663 0.2736 -1.4865 0.143 0.985 0.101 120 97 64 0 0
0.0663 0.2741 -1.4915 0.143 0.985 0.101 154 125 90 0 0
0.0661 0.3115 -1.5606 0.170 0.673 0.719 59 36 11 0 0
0.0640 0.3939 -1.6292 -0.132 0.776 0.617 64 41 18 0 0
0.0640 0.3973 -1.6377 -0.063 0.956 0.285 84 61 33 0 0
0.0672 0.3537 -1.6969 -0.044 0.877 -0.478 84 70 50 0 0
0.0698 0.3511 -1.8152 -0.267 0.958 0.104 58 40 20 0 0
0.0703 0.3503 -1.8383 -0.280 0.824 0.492 84 63 34 0 0
0.0712 0.3846 -1.9524 0.271 0.865 0.423 72 48 20 0 0
0.0713 0.3913 -1.9708 0.173 0.947 0.270 86 62 33 0 0
0.0711 0.3964 -1.9730 0.254 0.787 0.563 86 62 34 0 0
0.0711 0.3974 -1.9781 -0.012 0.998 0.060 89 65 37 0 0
0.0714 0.4150 -2.0295 -0.426 0.771 0.473 86 63 31 0 0
0.0719 0.4224 -2.0654 0.169 0.909 0.381 77 54 23 0 0
0.0722 0.4294 -2.0958 0.133 0.944 0.304 94 73 38 0 0
0.0718 0.4657 -2.1510 0.168 0.927 0.335 76 55 25 0 0
0.0721 0.4648 -2.1639 -0.247 0.845 0.474 79 58 27 0 0
0.0712 0.5212 -2.2381 -0.029 0.937 0.349 77 60 28 0 0
0.0712 0.5229 -2.2427 -0.029 0.937 0.349 78 62 29 0 0
0.0713 0.5239 -2.2480 0.114 0.955 0.275 82 66 32 0 0
0.0713 0.5254 -2.2529 0.107 0.956 0.273 80 64 31 0 0
0.0711 0.5305 -2.2545 0.234 0.946 0.224 81 66 34 0 0
0.0711 0.5322 -2.2592 0.289 0.900 0.326 81 68 38 0 0
0.0697 0.5606 -2.2523 0.263 -0.035 0.964 180 180 182 0 0
0.0681 0.0514 -0.8962 -0.204 -0.027 0.979 178 178 176 0 0
0.0647 0.1273 -0.8967 -0.285 0.927 0.243 198 173 144 0 0
0.0648 0.1284 -0.9009 -0.285 0.927 0.243 190 166 134 0 0
0.0647 0.1310 -0.9047 -0.182 0.805 0.565 141 117 86 0 0
0.0650 0.1273 -0.9104 -0.209 0.934 0.288 93 67 38 0 0
0.0655 0.1325 -0.9410 -0.319 0.941 0.116 50 35 16 0 0
0.0656 0.1342 -0.9497 -0.428 0.875 0.227 48 36 15 0 0
0.0712 0.1000 -1.1386 -0.427 0.710 0.560 186 190 191 0 0
0.0711 0.1030 -1.1424 -0.427 0.710 0.560 185 188 188 0 0
0.0715 0.0995 -1.1536 -0.151 0.907 0.394 116 108 100 0 0
0.0702 0.1359 -1.1691 -0.000 0.935 0.354 108 83 42 0 0
0.0702 0.1375 -1.1734 0.143 0.840 0.524 119 91 53 0 0
0.0702 0.1416 -1.1816 0.038 0.952 0.303 152 129 86 0 0
0.0703 0.1418 -1.1865 -0.250 0.887 0.388 126 103 56 0 0
0.0694 0.1727 -1.2085 -0.123 0.831 0.542 104 86 56 0 0
0.0695 0.1820 -1.2294 0.177 0.877 0.447 86 67 35 0 0
0.0724 0.1885 -1.3785 -0.144 0.847 0.512 100 82 55 0 0
0.0705 0.2482 -1.4165 0.348 0.787 0.509 115 87 52 0 0
0.0704 0.2557 -1.4282 0.293 0.837 0.462 88 63 33 0 0
0.0707 0.2913 -1.5137 0.241 0.765 0.597 73 49 20 0 0
0.0712 0.3041 -1.5648 0.438 0.818 0.374 64 42 17 0 0
0.0707 0.3222 -1.5810 0.285 0.888 -0.361 93 69 38 0 0
0.0721 0.3041 -1.6075 0.522 0.662 0.539 121 97 54 0 0
0.0685 0.3920 -1.6250 -0.103 0.817 0.567 112 88 63 0 0
0.0686 0.3932 -1.6296 -0.022 0.794 0.607 76 52 28 0 0
0.0685 0.3968 -1.6327 -0.170 0.819 0.548 72 47 21 0 0
0.0686 0.3973 -1.6378 -0.154 0.968 0.198 81 57 29 0 0
0.0737 0.3510 -1.7760 -0.288 0.885 0.367 92 70 41 0 0
0.0736 0.3535 -1.7799 -0.467 0.613 0.637 93 72 41 0 0
0.0746 0.3493 -1.8164 -0.055 0.998 -0.018 57 38 21 0 0
0.0749 0.3511 -1.8321 0.217 0.862 0.457 89 67 35 0 0
0.0748 0.3537 -1.8361 0.095 0.814 0.572 82 60 31 0 0
0.0752 0.3575 -1.8619 -0.071 0.968 0.241 83 62 31 0 0
0.0760 0.3791 -1.9447 0.217 0.845 0.489 75 51 23 0 0
0.0760 0.3815 -1.9488 0.217 0.845 0.489 74 50 22 0 0
0.0760 0.3839 -1.9529 0.217 0.845 0.489 74 50 22 0 0
0.0761 0.3906 -1.9713 0.173 0.947 0.270 82 59 29 0 0
0.0759 0.3953 -1.9737 0.254 0.787 0.563 80 56 28 0 0
0.0759 0.3971 -1.9783 0.028 0.997 0.065 83 59 31 0 0
0.0765 0.4024 -2.0155 0.274 0.947 0.164 78 55 24 0 0
0.0766 0.4036 -2.0204 0.255 0.816 0.519 77 54 23 0 0
0.0766 0.4052 -2.0251 -0.061 0.526 0.848 78 55 24 0 0
0.0766 0.4209 -2.0606 -0.236 0.915 0.327 78 55 24 0 0
0.0765 0.4296 -2.0718 0.164 0.971 0.175 77 53 22 0 0
0.0766 0.4650 -2.1516 0.168 0.927 0.335 74 53 25 0 0
0.0768 0.4640 -2.1584 -0.188 0.940 0.283 75 54 25 0 0
0.0767 0.4695 -2.1660 -0.206 0.732 0.649 74 53 24 0 0
0.0761 0.5133 -2.2266 -0.192 0.775 0.602 67 49 23 0 0
0.0760 0.5295 -2.2554 0.234 0.946 0.224 77 62 31 0 0
0.0760 0.5309 -2.2603 0.240 0.964 0.112 83 70 42 0 0
0.0691 0.1320 -0.9044 -0.066 0.814 0.577 145 121 93 0 0
0.0694 0.1303 -0.9141 -0.177 0.972 0.153 90 68 39 0 0
0.0698 0.1341 -0.9405 -0.321 0.932 0.167 50 36 17 0 0
0.0757 0.1058 -1.1463 -0.458 0.760 0.461 157 155 154 0 0
0.0748 0.1359 -1.1691 -0.000 0.935 0.354 120 91 52 0 0
0.0749 0.1413 -1.1817 -0.162 0.835 0.526 100 79 46 0 0
0.0742 0.1659 -1.2014 -0.011 0.760 0.649 77 62 30 0 0
0.0739 0.1789 -1.2158 0.001 0.874 0.487 88 69 40 0 0
0.0740 0.1799 -1.2253 0.242 0.838 0.489 87 70 40 0 0
0.0786 0.1348 -1.3361 -0.025 0.983 -0.183 125 98 55 0 0
0.0770 0.1895 -1.3779 -0.195 0.867 0.458 110 92 62 0 0
0.0774 0.2643 -1.5497 0.415 0.865 0.282 75 51 18 0 0
0.0759 0.3024 -1.5658 0.347 0.835 0.427 59 38 15 0 0
0.0759 0.3137 -1.5859 0.672 0.741 0.006 92 70 36 0 0
0.0759 0.3195 -1.5986 0.343 0.897 0.278 128 104 61 0 0
0.0756 0.3264 -1.6000 0.051 0.513 0.857 138 113 65 0 0
0.0731 0.3960 -1.6332 -0.022 0.794 0.607 69 44 20 0 0
0.0774 0.3483 -1.7278 -0.300 0.707 0.640 70 51 26 0 0
0.0796 0.3381 -1.8068 -0.482 0.846 0.227 112 92 65 0 0
0.0794 0.3496 -1.8218 0.055 0.986 0.159 85 64 40 0 0
0.0797 0.3502 -1.8328 0.082 0.816 0.572 86 64 32 0 0
0.0796 0.3593 -1.8494 0.136 0.940 0.314 79 56 26 0 0
0.0805 0.3760 -1.9238 0.185 0.906 0.382 82 59 28 0 0
0.0805 0.3786 -1.9277 0.224 0.766 0.603 79 56 25 0 0
0.0805 0.3797 -1.9327 0.185 0.906 0.382 76 53 22 0 0
0.0807 0.3802 -1.9440 0.206 0.918 0.339 75 52 22 0 0
0.0808 0.3819 -1.9485 0.206 0.918 0.339 74 51 21 0 0
0.0808 0.3836 -1.9531 0.206 0.918 0.339 73 49 21 0 0
0.0809 0.3885 -1.9671 0.038 0.991 0.131 81 57 29 0 0
0.0810 0.3892 -1.9724 0.038 0.991 0.131 81 57 29 0 0
0.0811 0.3915 -1.9824 0.150 0.956 0.254 83 60 29 0 0
0.0818 0.3973 -2.0252 -0.590 0.756 0.284 76 52 23 0 0
0.0818 0.3992 -2.0297 -0.381 0.870 0.311 74 50 21 0 0
0.0815 0.4217 -2.0660 0.132 0.882 0.453 79 56 25 0 0
0.0817 0.4625 -2.1597 -0.001 0.819 0.574 71 49 24 0 0
0.0817 0.4650 -2.1637 0.005 0.910 0.414 74 52 27 0 0
0.0807 0.5207 -2.2324 -0.127 0.905 0.407 66 50 26 0 0
0.0810 0.5173 -2.2415 0.107 0.934 0.341 68 52 25 0 0
0.0809 0.5280 -2.2568 0.339 0.913 0.226 77 63 34 0 0
0.0809 0.5293 -2.2618 0.367 0.929 0.044 82 71 44 0 0
0.0776 0.0403 -0.8901 -0.572 0.101 0.814 176 177 177 0 0
0.0739 0.1319 -0.9181 -0.193 0.981 0.026 82 61 29 0 0
0.0742 0.1332 -0.9362 -0.218 0.958 0.187 71 53 25 0 0
0.0743 0.1340 -0.9405 -0.304 0.919 0.251 67 51 24 0 0
0.0744 0.1364 -0.9490 -0.304 0.919 0.251 55 40 19 0 0
0.0793 0.1383 -1.1681 -0.078 0.876 0.475 121 94 57 0 0
0.0793 0.1405 -1.1722 -0.078 0.876 0.475 136 111 74 0 0
0.0791 0.1536 -1.1916 0.056 0.778 0.625 96 75 41 0 0
0.0831 0.1455 -1.3468 -0.426 0.629 0.651 128 100 60 0 0
0.0828 0.1513 -1.3493 -0.030 0.953 0.300 121 96 58 0 0
0.0817 0.1890 -1.3782 -0.128 0.820 0.558 116 95 63 0 0
0.0798 0.2449 -1.4129 0.022 0.920 0.392 133 104 65 0 0
0.0798 0.2467 -1.4172 0.216 0.875 0.433 114 87 48 0 0
0.0798 0.2491 -1.4212 0.267 0.939 0.217 105 80 38 0 0
0.0799 0.2617 -1.4510 -0.184 0.962 0.204 75 51 24 0 0
0.0803 0.2623 -1.4715 -0.248 0.896 0.368 77 54 26 0 0
0.0805 0.2994 -1.5568 0.078 0.981 0.179 68 47 23 0 0
0.0805 0.3042 -1.5647 0.365 0.927 0.089 58 37 14 0 0
0.0808 0.3036 -1.5757 0.325 0.753 0.572 73 47 22 0 0
0.0806 0.3076 -1.5788 0.500 0.678 0.539 74 49 20 0 0
0.0807 0.3092 -1.5832 0.256 0.738 0.625 80 57 25 0 0
0.0806 0.3128 -1.5865 0.105 0.951 0.291 92 69 36 0 0
0.0806 0.3141 -1.5911 0.010 0.648 0.762 132 110 73 0 0
0.0805 0.3175 -1.5945 -0.159 0.642 0.750 96 75 37 0 0
0.0804 0.3213 -1.5976 -0.156 0.424 0.892 131 108 65 0 0
0.0826 0.3336 -1.7205 -0.052 0.942 0.332 60 44 27 0 0
0.0823 0.3430 -1.7256 -0.051 0.977 0.209 59 42 22 0 0
0.0822 0.3469 -1.7287 0.253 0.731 0.634 74 55 29 0 0
0.0843 0.3496 -1.8275 0.105 0.931 0.350 83 63 31 0 0
0.0844 0.3504 -1.8326 0.133 0.744 0.655 82 62 30 0 0
0.0841 0.3590 -1.8382 -0.271 0.803 0.531 82 59 30 0 0
0.0842 0.3598 -1.8433 -0.025 0.979 0.201 81 58 27 0 0
0.0844 0.3595 -1.8492 -0.095 0.970 0.225 81 59 28 0 0
0.0855 0.3709 -1.9216 -0.141 0.946 0.291 80 57 26 0 0
0.0854 0.3766 -1.9292 0.040 0.772 0.635 78 55 24 0 0
0.0852 0.3831 -1.9361 -0.085 0.670 0.738 76 53 22 0 0
