ply
format ascii 1.0
element vertex 699
property float x
property float y
property float z
property uchar diffuse_red
property uchar diffuse_green
property uchar diffuse_blue
end_header
0.15687838815252247 0.16323306063272086 -1.066497070229814 71 54 29
0.15692566654880716 0.164631645628522 -1.0707511605700788 74 57 32
0.1571603755278966 0.16380231919032973 -1.0758251197277537 66 48 25
0.15844481098525803 0.1505031126760183 -1.0855069366446752 64 45 23
0.15861783088904827 0.15042242608262724 -1.090342774538989 62 43 21
0.15898666723373037 0.1480208716605681 -1.096049041517349 51 33 13
0.15906674129287876 0.14904962767792068 -1.1004878748639892 65 44 22
0.1589861606324737 0.15198356549989633 -1.1042147655129266 65 44 20
0.15831167382845898 0.16194959467130526 -1.1052871343716337 66 46 22
0.1584637968538918 0.16212230367338615 -1.1100418916741837 67 46 23
0.158534137034438 0.1632647008404377 -1.1144338908743616 68 47 26
0.1586727761598373 0.16360108911510024 -1.1191366882916962 67 45 25
0.15787005612463528 0.17505748553152484 -1.1195781734121324 76 55 30
0.1581361287543058 0.17388683400468546 -1.12485431470064 82 61 34
0.1584728006609295 0.17188784818277164 -1.1304616747376535 89 68 42
0.1588801642671647 0.1690611454885273 -1.13640420024871 86 65 39
0.1592241186743431 0.16698788479818644 -1.1420687850842608 83 63 37
0.15943398765964598 0.16649839348343348 -1.1471261002136792 83 63 37
0.16014925543269412 0.16006784615332875 -1.1545312605066402 96 78 54
0.16084880098038315 0.15383366313623653 -1.1618872190176326 107 91 69
0.16156243382529145 0.14744532687247852 -1.1693322480258803 92 78 61
0.16215882109619434 0.14244473448331157 -1.1762522215697422 101 89 74
0.1624208388991911 0.14137585425132765 -1.1816212196639888 102 92 75
0.16377291952205694 0.12753388977149577 -1.1921383735212976 114 106 87
0.16439242160749729 0.1222948916055 -1.199234497459159 122 113 96
0.16591800899956877 0.10645969846548897 -1.2106534171273935 81 69 53
0.16646274194377117 0.10212266466332004 -1.2174497598945515 67 54 39
0.1670790424346921 0.0969578683717836 -1.2246064967185601 39 26 13
0.1675272450996957 0.09376665876496182 -1.2309773048767032 43 29 16
0.16805225129837906 0.08968616352900166 -1.237732886459803 55 41 26
0.1687276195506851 0.08386016191945495 -1.2452324514511566 98 90 81
0.16982826954654334 0.07308750069051329 -1.254816271965671 182 181 178
0.17054985542592677 0.06674838816975304 -1.262592856307726 197 198 199
0.1714829174579335 0.05795914209195563 -1.2714257787950511 198 200 201
0.17205173780915986 0.05550697968619772 -1.2828095704854692 199 201 201
0.17684339758029333 0.03378434536119912 -1.3765044311321717 90 79 66
0.17514431133383973 0.055427362954125314 -1.3720586198870208 95 77 55
0.17408584034165064 0.06968887382348782 -1.37089648392221 131 107 71
0.17214284824543155 0.0940803645475613 -1.3650725935725028 150 123 78
0.17138400244215024 0.10486587355066157 -1.365397639821566 85 64 29
0.17072554531560818 0.11448916967019351 -1.3662259438950717 97 79 50
0.17020458458661641 0.12252788833363476 -1.367758468660568 142 120 88
0.17030797198544378 0.12341601672457975 -1.3725810401485683 112 91 60
0.17024481592971702 0.12620968392343146 -1.376522149058732 97 79 53
0.16971380427536809 0.13434685995132983 -1.3779673285419944 84 68 44
0.16880464414143626 0.14679219107256225 -1.377372889217339 100 85 60
0.1687374612469793 0.14961826365101355 -1.3812644688823543 102 86 59
0.16933687217935653 0.1448446754579068 -1.3887404786205124 130 111 82
0.16891766816015588 0.15168394867893548 -1.3907389533067984 115 93 65
0.16840921725549773 0.15953240138017938 -1.3922403910658683 156 129 97
0.16987015124575613 0.14497098832374156 -1.4044195551088037 147 119 82
0.16969061954487827 0.1490802082973064 -1.4077117327913589 158 133 95
0.1695509942318916 0.15273328253728707 -1.4112160532335492 165 140 99
0.1690244383756511 0.1607761073938182 -1.412595286618409 160 134 94
0.16850002779903972 0.16878614496004574 -1.4139688606560485 159 133 92
0.16843162541273982 0.17161907249264113 -1.4178393330069299 156 130 87
0.16804356044250593 0.17807162002448496 -1.4199397735292332 154 126 86
0.167956630303862 0.18110954964544446 -1.4236977612238468 140 115 82
0.16696064257777185 0.19442796135021084 -1.4223952770926818 82 63 36
0.16696537036796666 0.19641988116302322 -1.4266439799795883 80 62 35
0.16672745023009716 0.20115245823161465 -1.4295348384977271 105 83 51
0.16658618484201185 0.2047903681176133 -1.4329604361278752 129 103 69
0.16667983854231908 0.20577658092955237 -1.437704064206009 103 77 46
0.16688772637366184 0.2054769146597959 -1.443095964186654 89 68 40
0.1665882121146635 0.21089502446399677 -1.4456211718790049 80 59 34
0.16634456436805403 0.2156796216493692 -1.4484538195868202 74 52 29
0.1661787136902136 0.21958542947343207 -1.4517216340297423 77 58 30
0.1661207694034244 0.22227596743942207 -1.4556005327392927 88 70 39
0.16559355034434234 0.23023545529340833 -1.4567885550020907 101 84 51
0.16592849200888662 0.22851157119348392 -1.4629137948925628 102 84 51
0.1659626029749618 0.2301665354148565 -1.4673164399903929 76 55 26
0.16598290472787153 0.23197683035810734 -1.4716404853560667 89 69 41
0.16646067617256444 0.22866498236440508 -1.478617155504112 78 57 29
0.16687170155407158 0.2261077349978562 -1.4852218003673576 83 61 31
0.1671185518385471 0.22539286055177993 -1.4908830610658348 132 106 69
0.16658680679428262 0.23338147270323567 -1.4920003493241212 146 119 76
0.16621375809948447 0.23958966527942316 -1.4940305117050998 139 112 72
0.16577961166140484 0.24647355313082797 -1.495689066762725 132 107 74
0.16519090873095357 0.2550736347664163 -1.4964218562256197 69 48 24
0.1655686217896758 0.25289741669124605 -1.5028499415778263 72 51 28
0.16614586205608617 0.24850601380983905 -1.510473909127728 72 51 26
0.16631033154275068 0.24871598414824803 -1.51566255127982 71 49 24
0.16677775813373008 0.245560740723689 -1.5226634139483837 75 53 25
0.1680331668958089 0.23365961452638656 -1.5343921238634644 77 54 27
0.16803484078820904 0.2356960568891634 -1.5386444414946712 68 48 22
0.168544732596274 0.23209512353364947 -1.545953012947741 70 51 19
0.1681481110045868 0.238550709526402 -1.5478123343192194 145 121 78
0.1676986328578382 0.24558539525272438 -1.5493389134374067 155 125 77
0.16743774710312898 0.2505254576613219 -1.551994104731061 154 124 82
0.16685041334541018 0.2590719565442462 -1.5526558667845989 90 66 32
0.1665614759884149 0.2643110736376914 -1.5551173741360222 78 58 31
0.1663509217148394 0.2686798927011101 -1.5580485202978889 80 60 28
0.1664065877300824 0.27010732787883845 -1.5626046727294387 85 65 30
0.1662974366505689 0.27335330417947906 -1.5661496822920715 85 65 32
0.16676286206587365 0.2702657707771802 -1.5732324632847476 86 66 34
0.1671130585379558 0.26845467618496904 -1.5796187220824591 85 65 33
0.1663665661751968 0.2787169938833591 -1.5792208868253672 92 71 39
0.16655038266355196 0.27873789996504306 -1.5845786012128784 97 76 45
0.1665776969941938 0.28048140209591677 -1.5889675128402807 105 86 60
0.16660959969956832 0.28217500741262086 -1.5933860806365898 102 83 51
0.1667699159313848 0.28246028176761456 -1.598610096190898 120 98 60
0.1660910315153681 0.2919486836412471 -1.598569332002368 128 104 65
0.16602166268138308 0.29474871709327805 -1.602343957368044 145 119 81
0.1656568946102836 0.30078148256777054 -1.6042513893771901 138 117 79
0.16487119726905522 0.3114130206400011 -1.6034822467035035 140 122 91
0.1643468631783125 0.3191749203050542 -1.6043457896505298 133 112 83
0.16401218460912284 0.32485677854353406 -1.6063987843578635 146 125 90
0.16350182393480392 0.33245083502159595 -1.6073198444737542 119 97 68
0.16394732810379634 0.3296111813583281 -1.6143383660027 145 122 91
0.16289009556789166 0.34315680403284005 -1.6117341957545173 125 99 68
0.1623763432574435 0.35076649291307693 -1.6125894665637333 124 100 67
0.1628165581229722 0.347986224834268 -1.6195776545683271 134 113 77
0.1614911463718096 0.3644135597686039 -1.6151686581068627 147 124 86
0.16163083506970882 0.3648990024393547 -1.6202095009163742 117 95 53
0.1610015585890148 0.37373649639793904 -1.6202593169916495 85 62 34
0.16131414843994704 0.37234428179201984 -1.6264229951752824 66 44 21
0.1617096216304007 0.37005851168800075 -1.6331384134525702 77 53 25
0.16205958309448093 0.3682722525403211 -1.6395691465784907 88 69 35
0.16213478012775034 0.36946632029575105 -1.6442082345198232 86 67 33
0.16178940376211065 0.3752114259281456 -1.6460824958551261 91 69 36
0.16462809511994886 0.34653131083088673 -1.668949905373271 113 92 59
0.16619552384617714 0.3316291371497356 -1.6835046290904274 78 62 34
0.16802771813801384 0.31389449379566664 -1.699867136301674 62 48 25
0.1691639539970706 0.3036959162493205 -1.7116649332093983 64 49 30
0.16958693916705533 0.3012029103906043 -1.7187479797324061 55 40 21
0.16986884626897397 0.30023613112105063 -1.7249027948636464 78 61 43
0.16969624064587976 0.30416518876972154 -1.7280233040009945 63 46 29
0.1695940019008803 0.3073348136122734 -1.7316105492119915 61 43 23
0.1698953648765556 0.3061659859560086 -1.7379107805839877 81 62 38
0.17024476894932863 0.3044862380546464 -1.7445452743071899 87 68 38
0.16995923304089972 0.30962456999794646 -1.746897069934478 91 71 41
0.16979531899290076 0.3134544076382482 -1.7500640480539655 101 80 50
0.17054520122860126 0.3074921061720693 -1.7594366134455668 103 82 51
0.1706624764371327 0.3083139928129671 -1.7645239675309545 91 70 39
0.17104411802548475 0.3063099209802156 -1.7714210051000425 81 60 29
0.17111622993187117 0.30762055721234627 -1.7762115325984829 79 58 27
0.17134213710254206 0.3072897560964051 -1.7820601399852753 84 62 31
0.171911119942599 0.30330112426736233 -1.790276825160727 86 65 34
0.1712738671286611 0.31218569869935336 -1.7901932175009343 74 53 26
0.1712858877216011 0.3141410485239206 -1.794577278963299 65 45 19
0.17159420090477087 0.3129415924268227 -1.8010152291043033 97 77 48
0.1719719744850271 0.31100807945210307 -1.8079460915657082 95 74 43
0.17147471604084524 0.3183842609869917 -1.8087961979997949 76 55 26
0.17143301171386974 0.3209125692975633 -1.8128097331262654 83 62 34
0.17164526882330391 0.3207441710648821 -1.818598941616562 85 65 39
0.17160533787952717 0.3232544541300537 -1.8226265389832648 80 60 35
0.1713456739518259 0.3280932837585716 -1.8251080766227383 80 60 35
0.17147173921034545 0.32884237903913127 -1.8302993046983502 79 59 34
0.17141595562192485 0.3315181960406914 -1.8342102849986173 78 57 30
0.17153778952341137 0.3323147288946031 -1.839377102383439 77 55 30
0.17167847718535859 0.3329140335474144 -1.844681878060931 76 54 30
0.17219917060790638 0.3295029807129489 -1.852694728091475 76 56 30
0.17214576003952456 0.3321579999952217 -1.8566313841654467 80 60 33
0.17208774509076372 0.3348607428866191 -1.8605334350634548 82 62 35
0.17216160633095737 0.3361732396388853 -1.8653783805786273 78 58 31
0.17353393305743173 0.3238177971699067 -1.879549591508818 76 56 29
0.17353218813567148 0.32593856815628613 -1.883877146820922 78 58 31
0.17270877273060217 0.3366959394433898 -1.8822772515514397 76 56 29
0.1731998257006573 0.3336342752847056 -1.8901543871004771 77 57 30
0.17327338891844934 0.3349620810207588 -1.8950223191420732 77 57 30
0.1740892347573214 0.328506977510211 -1.9052847299473834 76 56 31
0.17434934763946322 0.327888451615208 -1.9115283395573863 72 52 27
0.17277848631484502 0.34644555904249186 -1.9044194192323292 66 48 25
0.17301220405815707 0.34609688546641565 -1.9104569532784037 64 46 25
0.1737747052043348 0.3402239055482252 -1.9203787509406023 59 41 21
0.17357710091278775 0.34439288458037426 -1.9232717718755046 57 39 19
0.17351328486123793 0.3471621942790657 -1.9271435164831097 54 36 14
0.1732835480869137 0.35166109551618396 -1.9297885870851674 58 40 18
0.173636235291597 0.3500862499479466 -1.9367345584021443 60 42 20
0.17362246774234005 0.3523334096597041 -1.9409754219850774 62 44 22
0.1736188343356146 0.35447493336159464 -1.9452912176423258 59 41 19
0.173874037975196 0.3539250956810554 -1.95153468600852 60 42 20
0.1739290342047976 0.35545953087558496 -1.9562923584502943 60 42 20
0.17396532833084208 0.3571890560341218 -1.96091204328782 62 41 20
0.17400162168696517 0.3589192178190022 -1.965533020082167 63 42 21
0.1735507553372955 0.3656996575229433 -1.9664946113163522 66 45 24
0.17355978448135947 0.3677095239386359 -1.9709047242231865 66 45 24
0.17363893451236345 0.3689938746529538 -1.9758444776722306 63 43 22
0.17374589710727278 0.36999193090993593 -1.9809973454387801 56 39 20
0.17395598032945964 0.36992619827430806 -1.9869356391642778 52 36 18
0.1736512618495789 0.3751792630297277 -1.9889696707950646 49 34 17
0.17359158615488982 0.37789934151879756 -1.9928594923836205 47 31 16
0.17370492253949868 0.37883493480940783 -1.9980676958823365 45 29 15
0.17384642794322133 0.37948223950994503 -2.00349520305775 45 29 14
0.17471262237607318 0.37267285988222854 -2.014481958922682 45 29 14
0.17425060406809878 0.379537700695163 -2.015295354508341 45 29 14
0.17427466296821575 0.3813999201794724 -2.019835217848283 42 26 11
0.17461763139024705 0.3799878646400259 -2.026836251767193 44 27 11
0.17456534615910063 0.38263684364564116 -2.030792974705445 65 47 25
0.17461585374384442 0.3842311587691214 -2.0355444830007516 82 62 33
0.17448741973468293 0.3876594434281115 -2.038908326286435 88 65 32
0.17461722682482483 0.3884423116282878 -2.0442774583012504 115 91 54
0.17452690708840987 0.3914787803663198 -2.047934429168836 109 84 51
0.17421433508810327 0.39678522989728326 -2.049851602125911 70 48 24
0.1737281185008671 0.4038598935618825 -2.0503985168171246 58 39 18
0.1745156582839186 0.3979296530320603 -2.060926033286319 53 35 16
0.17402658053321757 0.40502814306488377 -2.0614394110350407 51 34 16
0.173831034556171 0.40912838905842763 -2.064250053800907 50 33 16
0.17426037631338687 0.40686448530169317 -2.0719898298629436 49 32 16
0.1746798426264866 0.4047080166455449 -2.0796658673618684 50 33 17
0.17500340594654112 0.40353306685552015 -2.086595323493767 49 32 16
0.17510036846822905 0.4046645713956588 -2.091734549591674 68 51 33
0.17515290104514325 0.4062485224260083 -2.0965232099893676 69 52 33
0.17524927524135955 0.4073888542115214 -2.101663648734486 70 52 27
0.1752719607581539 0.4092773224191756 -2.1062179908530663 94 74 43
0.1752783465692279 0.41133119902046567 -2.1106425311786814 112 88 57
0.1752990504593072 0.41324039711752936 -2.1151823735794517 114 89 60
0.1750109240303056 0.41827121537617595 -2.117237325865061 103 82 56
0.17450029931329614 0.42554432749165716 -2.117488211703147 60 43 20
0.17412278956069654 0.4314660247328268 -2.118797969167431 48 30 14
0.17568789022824197 0.4177955052295076 -2.1358279436804013 48 31 15
0.17395283110842566 0.4373971393837634 -2.1261279523714234 49 32 16
0.17387026886067142 0.4403363667207247 -2.1298084701662066 49 32 16
0.17458541936927552 0.4352508158010895 -2.139986777975375 48 31 15
0.17457581500835456 0.4374606812462929 -2.1442710206298115 48 31 15
0.1743087314951868 0.44225602004257825 -2.146448260883086 52 34 19
0.17406304359807737 0.4468323979583807 -2.1487920865455528 47 30 13
0.17407990874093326 0.44877255209698586 -2.1532848459236242 50 34 18
0.17396196398912125 0.4520634992966723 -2.1566684457099563 52 36 21
0.17387538936881414 0.4550385781619228 -2.1603069665531267 50 34 19
0.17376193803805343 0.4582811039565387 -2.163720522934086 53 37 22
0.1737924046708806 0.4600836096014327 -2.1683223785257306 55 39 24
0.17403355520817362 0.4597829129323206 -2.174673852656736 50 34 19
0.17372851085134786 0.46493564839470913 -2.1764913480659973 48 32 17
0.17372430974245676 0.46708435433416934 -2.1808055567724063 48 32 17
0.17366822182637232 0.46974987831560544 -2.1846864899062433 50 34 19
0.17369348201560683 0.4716048863436186 -2.1892461983339286 53 37 22
0.17355299374027588 0.47510868173708015 -2.192417405368945 51 35 20
0.1736748014825114 0.4760038840596865 -2.1977871543483944 53 37 22
0.1737265594738136 0.4775965973680892 -2.202571508069674 66 49 34
0.17364793618086544 0.480483641127198 -2.206258185139864 69 51 37
0.17383212796194333 0.48076431769626954 -2.212163006257347 60 42 27
0.17387935635659846 0.48240454934466137 -2.2169144932256626 60 43 27
0.17408800297794486 0.4824481538679695 -2.2230369612421113 58 43 24
0.17323444622264914 0.492998399172282 -2.2201380306019667 56 41 22
0.1736072078796475 0.49141877990434707 -2.227654545889374 61 46 27
0.1733362846346096 0.4961996654470696 -2.2296909341568383 63 47 29
0.17323628437919117 0.4992902459592419 -2.233179724400862 66 50 32
0.17313822849588084 0.5023600857209289 -2.236681914825398 70 55 34
0.17291772648016407 0.506634188081685 -2.2391299208646185 62 48 29
0.1729735780169774 0.5081855615211386 -2.2439472886003853 57 44 26
0.17305937504762645 0.5094434726554271 -2.249024641640742 62 50 31
0.1732334064697244 0.5098360550544179 -2.25486671578382 62 52 31
0.17335806488262967 0.5107161072060218 -2.2602876090075927 66 58 37
0.17344559029257442 0.511962389908885 -2.2653909283590044 96 87 74
0.17373560409292785 0.5112259304542666 -2.272255586545914 142 138 132
0.1640185760347984 0.06110288866389152 -0.9304541087341375 177 177 179
0.16304821952921983 0.07469665341569742 -0.9309696089020003 158 155 152
0.16212495815469052 0.08771188151515535 -0.9316277057515621 113 104 94
0.16149345420675149 0.09722559716385182 -0.9333395777134309 98 83 65
0.16109622247437624 0.10393130264755363 -0.9359050203711811 92 77 54
0.16088878145477903 0.10836547373553079 -0.939168808700084 89 73 50
0.1606497366834678 0.11317336656313198 -0.9423069569524233 85 69 47
0.16046535943406237 0.11732588481598427 -0.9456440299822254 87 70 50
0.16054210557225906 0.11836502040482239 -0.949966491652499 90 75 56
0.1604023213744809 0.12198300739178564 -0.9534659682512543 90 75 56
0.16039568777655602 0.12401483583960327 -0.9574707988150148 88 73 54
0.16037524460624167 0.12621076948188747 -0.9614223884606112 88 74 54
0.16022543142345105 0.12994338299143499 -0.9648738050978769 92 77 58
0.16044494996903272 0.12928878326463228 -0.9697526738816705 87 69 49
0.16074810937460446 0.12764533060334055 -0.9749645087231058 90 71 47
0.1606976762265846 0.13019913708839082 -0.9788035485656257 87 69 44
0.16103349113421273 0.1281756266882348 -0.984157795737731 88 71 46
0.16126154422103717 0.12743345647103727 -0.9890981488891745 86 68 43
0.1610928570421831 0.1313895329884074 -0.9924750969641865 78 60 35
0.16094522299389144 0.1350940255772693 -0.9959303225785439 79 58 34
0.16100094380027735 0.13639315278980657 -1.0001926465878956 73 52 28
0.16072428174387 0.14161837791782517 -1.0031244944926414 71 49 25
0.1605762124894909 0.14532170261836252 -1.0065649591211558 70 47 23
0.1608408275597543 0.14415577573165184 -1.0116684059941095 70 47 24
0.1606853649221376 0.1479448904941622 -1.015076097166924 75 53 29
0.16071997886243042 0.14949294348261433 -1.0192531330311052 72 52 26
0.16094029238931823 0.14885596064490608 -1.024190918767922 68 48 23
0.16092550802089986 0.15098766420499388 -1.0281705491458624 72 52 27
0.1608114147684147 0.15428643282513532 -1.0317403436136752 76 56 31
0.16070726027682614 0.1574666944539359 -1.0353476294238115 79 59 35
0.16064366253165965 0.16016929031207544 -1.0391201249681785 83 63 39
0.160405139113123 0.16492281560562166 -1.0421608704609493 72 52 28
0.1602399871723828 0.16881252994906487 -1.045501194165016 71 52 27
0.1602140030634906 0.1710694169137854 -1.0494213256950693 77 59 34
0.16011324825140016 0.1742012248723706 -1.0530250978872053 74 56 31
0.16077622056323287 0.16839703906066 -1.0598616352847725 63 45 21
0.16080934672929345 0.16996663322834155 -1.0640409038223593 78 61 35
0.16154597074703733 0.16331807332826087 -1.071225083965401 73 55 30
0.16094942174242993 0.17224564777451756 -1.0727193299219195 65 47 24
0.16119616114437346 0.17132532469040296 -1.0778223319906757 68 50 28
0.16148394717396025 0.16993038494517293 -1.083110738696278 64 44 22
0.16142050220516138 0.17263222912590542 -1.0868860186785436 58 39 20
0.16137791108159474 0.1750903043076153 -1.0907500483160772 66 45 23
0.16188942234303852 0.17110066561118592 -1.0970329210755771 70 48 24
0.16206478449702444 0.171027653364845 -1.1018588883354594 71 51 26
0.1630521795323909 0.16152216045376133 -1.1102639003165367 73 53 30
0.1616315612764432 0.17999282608776185 -1.1080657857298009 68 47 26
0.1620816310479457 0.17673447423502509 -1.1141141539679347 69 50 28
0.16238781128158525 0.17515177043976715 -1.1195370850931625 94 75 49
0.16300378918434763 0.16998410876377346 -1.1263535530644957 97 78 53
0.1635074713585102 0.16612659453863798 -1.1326869078030584 92 74 54
0.16386401341104775 0.16397977692395582 -1.1383749061112094 101 84 65
0.16428464061809006 0.161097562812964 -1.144363953007425 99 82 64
0.16469544084835183 0.15833560565480959 -1.1503222923061152 98 82 64
0.16549532187030322 0.1510870336798888 -1.158063411773493 91 77 59
0.16601603179772453 0.14707285559875766 -1.1645566936217597 96 84 68
0.16666485308240742 0.1415895395158901 -1.1716538150477933 107 97 83
0.1678232935467682 0.13024348366388833 -1.1811145923396484 98 89 77
0.1680116454164434 0.1300878023506577 -1.1861385934569657 100 89 74
0.1701615528752966 0.10736046590244358 -1.2002488763529635 107 97 80
0.17068263477490028 0.10339974204754715 -1.2068630280398092 64 53 38
0.17110768260392434 0.10055099982147075 -1.2130466047511406 40 26 11
0.17165900735830583 0.0962587589427421 -1.219834873234544 74 60 45
0.17210213293346224 0.09321707636182125 -1.2261333111868593 52 41 28
0.17254016774507816 0.0902408344385584 -1.2324223271635244 51 41 32
0.17343912165457598 0.0819889425883763 -1.24090450628837 110 103 97
0.17450127922847114 0.07188212627877055 -1.250190269606687 187 187 185
0.17517591640369598 0.06622742772561896 -1.2576663438797877 197 200 202
0.17605805193192284 0.05821022553187488 -1.2661555596543732 198 200 203
0.1771762075116251 0.04750946186792232 -1.2758047732905302 199 200 203
0.17787378258940767 0.041630096334857314 -1.283468162020178 199 200 202
0.18275730008726385 0.02210613339617251 -1.381766996203294 89 80 69
0.18123746990426526 0.04138114975010454 -1.378413263225612 90 77 60
0.18001083971047352 0.057327465193339755 -1.3765108755706454 112 94 67
0.1778482830108138 0.08379585109689858 -1.3697620255039993 125 104 69
0.1774978360014491 0.08983435689346475 -1.3722782816846997 110 90 62
0.17603383054032037 0.10839186304788756 -1.3690280845592162 80 62 39
0.17555691044735627 0.11583200617360045 -1.3708476928814823 116 96 68
0.175361551234708 0.12010229931941324 -1.3741161584583224 103 84 57
0.17534748017926471 0.12233484586544768 -1.3783241419072048 117 99 73
0.17494295884537747 0.12894634611734535 -1.3804882998373476 85 69 42
0.1746749255821914 0.13402176329511595 -1.3833558673829711 103 88 62
0.1744575671093543 0.13852542897117115 -1.3864816221053142 108 92 66
0.17372201354627081 0.1488252498319403 -1.3868629325401722 105 85 58
0.174591956484771 0.14115770984727571 -1.3957277303655118 111 92 66
0.17459909977264887 0.14314664182339049 -1.400035012823018 96 77 50
0.17449326533100043 0.146397471464908 -1.4037402542435176 100 80 51
0.17432470027619454 0.1503467481446954 -1.4071066352713684 119 95 64
0.17422878057449714 0.15348323618861698 -1.410857282466661 147 118 84
0.17378872514800484 0.16045340161452537 -1.4127531880223947 141 113 78
0.17362325051032365 0.16435879537443182 -1.4161167114678215 145 116 81
0.17343438029458524 0.1685219644013758 -1.4193482575932463 148 120 84
0.1730016188078209 0.17539438570336907 -1.4212494448616781 127 102 67
0.17307500760217126 0.1766353310093685 -1.4258931026727235 86 64 33
0.17175457472300334 0.19335545606283644 -1.4229255790079844 96 77 48
0.17165306759926272 0.1965285458972123 -1.4265931946352257 110 89 59
0.1718427817885502 0.19647075515254836 -1.431857874223951 124 99 62
0.1717376775655868 0.1996828741193054 -1.4355039514188725 124 97 60
0.171658319899394 0.20260827540515586 -1.4392889964006723 91 69 38
0.17132546496980064 0.20833742863394938 -1.441666090953234 74 56 29
0.17161151298806038 0.20721803463626326 -1.4474738183479117 79 60 35
0.17142237231436017 0.21135368813679378 -1.4506409052579627 68 48 25
0.17138286732553307 0.21383420878477605 -1.4546388377573571 89 71 43
0.17128818232010595 0.21692296594056315 -1.458326022386147 107 87 57
0.17135386415471052 0.21824214244508083 -1.4629124084458056 103 82 50
0.1712044632640408 0.22193208335525338 -1.466287462117846 104 83 52
0.17093577980496952 0.22693295205327024 -1.4689827318128326 91 72 42
0.17112984750091356 0.2268385541639117 -1.4742954143527331 83 64 33
0.17141766405074768 0.22571661824537848 -1.4801480855446594 74 54 26
0.17240111957482934 0.21695710033693022 -1.489980766796904 98 76 42
0.17191847963377385 0.22430789186959993 -1.491453655243858 151 124 83
0.17153227313286745 0.23059319872128592 -1.4934644082773278 148 118 76
0.17103029701599978 0.23814149858363187 -1.4947961491547184 146 117 79
0.1708389902843586 0.24227876351626776 -1.4979050905249263 110 86 52
0.1703136370398896 0.250069582482512 -1.499073893528706 74 53 28
0.1713244553737681 0.24309312929266635 -1.5133628231594378 72 52 26
0.17182168340855658 0.23970633773479177 -1.5204844453673099 71 50 24
0.17278727329283583 0.23121552503098597 -1.5303646408098093 74 52 25
0.17270974812253126 0.23411688780486795 -1.5341520823042616 79 56 28
0.173435021555998 0.22826762957842361 -1.5426636614998288 68 49 20
0.17343343831324243 0.23034591416721084 -1.5469076888468187 95 73 34
0.17299177948659916 0.23721347268488974 -1.5485463411351525 169 140 93
0.17251792744601285 0.24442416661352379 -1.5499795038178699 148 118 69
0.17214819098810535 0.25049596847019945 -1.5520170534428073 143 117 75
0.17163013261011434 0.25817258015849703 -1.5531571894277687 81 57 25
0.1713242941098124 0.2635381985658844 -1.5555507621394848 79 59 30
0.17138334273450043 0.26494247321373343 -1.5601245199628186 82 62 30
0.1716635981022101 0.26395089443449266 -1.5660316288302945 87 67 33
0.17144719288913707 0.2683413009938947 -1.5689507033463341 87 67 34
0.17164980923332795 0.268194758480903 -1.5743983790061888 87 66 34
0.17124471377153835 0.27462172122554823 -1.576165413340111 88 68 35
0.17143065154155263 0.2746570532166334 -1.5815150985699842 95 74 43
0.17159471597958154 0.2749315092018592 -1.5867375159940644 90 69 41
0.17162138620666348 0.2766907707688091 -1.5911249868146689 106 88 62
0.17177569378464128 0.27707459670688467 -1.5962962189841883 118 97 65
0.1716971902461621 0.27996870838081467 -1.6000409310399524 117 93 56
0.17089853657834034 0.2906132307530189 -1.599342870101221 134 107 70
0.1705965485091629 0.29590301235905 -1.6016892105759124 137 110 75
0.1704683594187267 0.2993200478057977 -1.6051030434314377 150 127 90
0.16973255655377653 0.3092609227485765 -1.6047365217229157 141 119 90
0.16928214783957812 0.3161272691066019 -1.6061243574131845 131 111 79
0.16905606063753023 0.3205808336819855 -1.6088990038250468 137 117 81
0.16860484014746138 0.32744345010385434 -1.61025610446799 132 110 83
0.16821144122150025 0.33367977404861954 -1.611961655936307 118 95 68
0.16755268267078827 0.3427493650359151 -1.6119835226548065 117 93 62
0.1678390604174416 0.3417026586148223 -1.6179506129315657 125 104 71
0.16748341328697414 0.3475203053481121 -1.6198635065541878 129 110 76
0.16620732292842896 0.3631596073503365 -1.6159238935276898 126 105 70
0.16640660557231227 0.3630383558714792 -1.6213291544824908 121 100 62
0.16574399235704831 0.37210879990938894 -1.6212433892345954 83 62 34
0.16704131792541735 0.36028981056230913 -1.633669625240882 64 42 19
0.16640178850995088 0.3691091303991617 -1.6337207150997013 74 50 22
0.1666783306862714 0.36817408984703537 -1.6396391244698099 91 72 39
0.16779962986217906 0.3582644946090297 -1.6510102862319347 86 67 34
0.1665321996636355 0.3737437492029574 -1.6469861518287285 104 83 47
0.169390565224429 0.34541501928732177 -1.6696423265954343 116 96 62
0.1712621426730659 0.32759683220360125 -1.6859848361968859 80 63 37
0.1728497354858699 0.31281785869784706 -1.7005401097216766 64 51 27
0.17400380272071905 0.30265489150611535 -1.7123183197084022 52 37 18
0.17436093882778145 0.3009429810947107 -1.718920695375866 58 43 24
0.17464149684731928 0.3000464787425832 -1.7250326026127372 67 50 32
0.17472723915753796 0.3012128146534441 -1.72987287217568 64 47 28
0.1747727335964414 0.30280547525276047 -1.7344507449849735 73 55 32
0.17511890699494082 0.30122681228218806 -1.7410169903492143 91 71 43
0.17516941529824603 0.30277052740745164 -1.745636143927326 87 67 38
0.17510512919108465 0.3055243143721057 -1.749494747440789 96 76 47
0.17516744265319395 0.30694454191939613 -1.7541940808518621 96 75 45
0.1756825357513893 0.3036034587735314 -1.7619170282933871 112 91 60
0.1756797561510437 0.30571346992453574 -1.7661925780812635 91 70 40
0.1761201156111517 0.3031695691230411 -1.7734397887140598 86 66 37
0.17597081864012404 0.306820672355375 -1.7767376421801448 79 59 30
0.17627117300165404 0.3057542813150305 -1.7830607548372748 85 65 35
0.17676261926049697 0.3026903721283685 -1.7906846274627166 84 64 35
0.17620607577258604 0.31060717557616785 -1.791228269740536 82 61 33
0.17617189376398365 0.31304999802879885 -1.7952994665008721 83 64 36
0.1765209734809992 0.3114854969971079 -1.8019774169551541 105 85 56
0.1769061726105336 0.3095492517323156 -1.8089132394407936 89 68 38
0.1764624873180116 0.31627160323024983 -1.8101947182781093 80 59 31
0.1762880891497105 0.3201780937424197 -1.8133072621736377 83 62 35
0.17629053282109253 0.3222386717468479 -1.8176290291383794 83 62 37
0.17609641418163313 0.32634649659175097 -1.820597415186101 81 61 36
0.17614890323797605 0.3278848551925504 -1.825261726741895 83 63 38
0.176341427543792 0.32796786365670866 -1.8308967227778628 80 60 35
0.1766566228332773 0.3267792889910448 -1.837388859024638 79 58 31
0.1769725617134757 0.3255880372483069 -1.8438965731151726 76 54 30
0.17680962798703517 0.3293702261311314 -1.8470779476006434 76 54 30
0.17731286292917542 0.3262435430514551 -1.854906827405928 75 54 28
0.1782503448586716 0.3186263956379247 -1.8657923249364115 77 57 30
0.17818498471100927 0.3214049497070647 -1.8696715599136497 82 62 35
0.1781947142857022 0.32340582237602855 -1.8740768812199942 77 57 30
0.17806282262412015 0.3268706144693765 -1.8774841934135644 79 59 32
0.17816259603207474 0.3279408217157666 -1.8825242738648285 79 59 32
0.1782624635668243 0.32901168241524487 -1.8875683740939349 77 57 30
0.17822857450685814 0.331463423488057 -1.8916662898785435 76 56 29
0.17793859788396613 0.3365533253024654 -1.8939410137571597 76 56 29
0.17810188043712225 0.3369720006824944 -1.8994388676403196 75 55 30
0.17826537121394356 0.33739116712574246 -1.9049436441583492 72 52 27
0.1785200113437238 0.33687596233147643 -1.911106905922932 68 48 24
0.17902864868786356 0.33375578737834277 -1.9191025325607498 66 46 23
0.17855272432913058 0.3407493102841627 -1.9200287083355452 64 43 22
0.17853905576936943 0.34299437518225245 -1.9242739484406597 65 46 25
0.17857751652452883 0.3447050343099044 -1.9288957244416487 60 42 20
0.1784517483497214 0.34809808587656144 -1.9323287654522667 54 36 14
0.17840598149818976 0.350670585112896 -1.9363388074460617 60 42 20
0.17832823160327604 0.3535694041394684 -1.9401146218948042 63 43 22
0.1782643029948739 0.356325825594587 -1.9439888077487535 62 42 21
0.17828973265981143 0.3581690620772052 -1.9485143715127082 64 43 22
0.17779305549266342 0.365338506329804 -1.9492146476927676 64 44 23
0.17822063623809617 0.3630795282042582 -1.956687203545115 64 43 22
0.17833624637608242 0.3640046904715435 -1.961877388676234 65 44 23
0.17835886803777193 0.3658780456894504 -1.9663854195454002 69 48 27
0.1783220040042073 0.368356696929652 -1.9704544424197437 70 49 28
0.17845217808243144 0.3691375593164884 -1.9757601490987367 64 44 23
0.17855223277658197 0.3702263285269521 -1.9808465185842956 56 39 20
0.17860200800871437 0.37182680981947114 -1.9855620165794647 53 36 18
0.17883853351817344 0.3715350356098311 -1.9916722933680897 51 36 17
0.1787743948267086 0.3742925034852545 -1.9955426767256097 47 31 15
0.1789060762008879 0.3750670764302854 -2.0008781797726107 47 31 16
0.17911278386084117 0.3750850281990786 -2.0067814308784455 49 33 18
0.17969697291701497 0.371291767940234 -2.0155321098497683 50 34 19
0.17937765032445985 0.3766308454233947 -2.0174882418804208 46 30 15
0.1795159506881412 0.37734777553645305 -2.0228926291604066 43 27 12
0.1797987655656441 0.3766100345243971 -2.0293962202662152 41 27 10
0.1797739021886079 0.3789762119725042 -2.0335737002121674 61 43 23
0.17964960869567279 0.3823428512135828 -2.0369940844073686 81 59 30
0.1796732320447701 0.3842198723638909 -2.041538107782235 99 76 41
0.18090639034514472 0.3739419288255227 -2.055323584396144 112 88 51
0.18131602770065267 0.3719531578920581 -2.06284454760361 97 73 45
0.18107823061267242 0.3764671284375729 -2.065411536358624 56 38 17
0.17899754577480695 0.3994537899223266 -2.053800907484104 53 36 18
0.17983573062294012 0.3931666136013343 -2.064613093443038 51 34 16
0.17910450607495743 0.40260244876509943 -2.063334249604286 51 34 17
0.1787523091473361 0.4082356843890945 -2.0649644878821953 49 32 15
0.17949635345239043 0.40290750160801825 -2.0750841140020415 49 32 14
0.17971474385044814 0.40284040463039017 -2.081143397001451 51 32 15
0.18043026794757833 0.3978163503351705 -2.091081271953544 54 35 18
0.18057714551383136 0.398473221906952 -2.096605130741276 74 55 34
0.18060158272281934 0.4003522497757024 -2.101176392099762 73 55 32
0.18062601940594358 0.4022317124664262 -2.1057485358773 83 63 35
0.18055478635332753 0.40506317020829186 -2.109570279716824 111 89 55
0.18060458586533065 0.4066906657102295 -2.114342216014425 119 94 61
0.18059435929320453 0.4089150809318308 -2.118642522311148 121 95 66
0.17951965902864392 0.4217016386459055 -2.114530992855267 93 72 47
0.17994302161688586 0.41961850060730355 -2.1222467220703662 59 41 20
0.17869060339717016 0.43414347299436695 -2.116679262645022 47 29 14
0.18122832592960542 0.41113117540344113 -2.1412073636499764 47 30 13
0.17901831262774393 0.4351178622672557 -2.127990246329417 54 37 20
0.17868491909624137 0.4405232245900057 -2.129683848069422 50 33 17
0.17960665058283112 0.4335291635283711 -2.141408224272674 48 31 15
0.17972106672672894 0.43451549174601833 -2.1466907530218826 49 32 16
0.17936227702883376 0.4401689934090116 -2.1481757166129696 52 35 18
0.17934232239302444 0.4424789676765739 -2.152376516274948 53 36 19
0.17914407968001694 0.4465435658349405 -2.155138657326918 50 35 16
0.17898889470126159 0.45018157654620783 -2.158242394620933 52 36 19
0.1788879666447912 0.4532839700542979 -2.161780547632146 51 35 20
0.17871659173642984 0.45707653322967134 -2.1647437773236233 50 34 19
0.17859276824315576 0.46039987368102464 -2.1680881439792707 52 36 21
0.17856035389982047 0.4628251736873604 -2.172173344622256 51 35 20
0.17874894339403558 0.4630851844969836 -2.1780619537047508 49 33 18
0.17866825130735584 0.46598380731560424 -2.1817538661050047 48 32 17
0.178606002934288 0.46870081857371476 -2.1855944048684655 48 32 17
0.1785949707333288 0.4709164210467956 -2.1898536611596886 49 33 18
0.1784479685830536 0.47445944249932925 -2.1929935913626397 47 31 16
0.1786676316211366 0.4744231179635422 -2.1991524960322244 48 32 17
0.1784594480838919 0.4785608386798427 -2.201783427272767 63 45 31
0.17854225684508923 0.47986110359541073 -2.2068168344340267 70 53 37
0.17847578694025437 0.4826154736275043 -2.210614666730244 63 46 30
0.17880332044782643 0.48153760422838887 -2.2176854146932716 67 51 35
0.17888929280192498 0.4828119634852305 -2.2227551406409907 52 37 20
0.17862007098207558 0.48753593244446397 -2.224863693728194 52 36 19
0.17848704438743002 0.490934570334731 -2.2281022748832093 54 38 21
0.17822276821935454 0.4956032095212618 -2.2302369976321827 61 45 29
0.17808844180828626 0.4990092432190046 -2.2334539537365985 63 47 32
0.17797336456647178 0.5022269244610793 -2.236828483220399 66 50 33
0.17782035370883872 0.5058095659706887 -2.2398796549035564 63 49 31
0.17785667721664986 0.5075608012638644 -2.2445245145571455 53 41 24
0.1779441882981424 0.5088185781566007 -2.249603687356 61 52 33
0.17818779650658484 0.5085723351530846 -2.256008928489137 62 55 35
0.17823419903796708 0.5102303558489696 -2.260747455977461 66 59 40
0.17839659210049402 0.5107723488436202 -2.2664745575208882 104 97 84
0.17869004971032262 0.5100560617889853 -2.2733244557238277 151 148 143
0.17882277994130763 0.510889478721176 -2.2788111609296346 180 181 183
0.17882257930104453 0.5130017919835905 -2.2831646504865226 192 194 198
0.16839237385035621 0.06519428398154137 -0.9338830817474734 178 176 179
0.1673956586130323 0.07888209564549364 -0.9343482259350466 152 145 142
0.1666085685176897 0.09009382805821564 -0.9355463168267747 110 99 87
0.16616463003596507 0.09726803474860457 -0.9379767389814024 102 87 68
0.16594153926142952 0.1018464462572386 -0.94120584598607 102 86 64
0.16569948905170795 0.10664353828602391 -0.9443577954431256 95 80 56
0.16561919172386272 0.1095432362986849 -0.9481025840674859 96 80 60
0.1655389351013926 0.11244124793579657 -0.9518450278373762 94 79 58
0.16555828035471487 0.11417353981202433 -0.9559579483236441 90 75 56
0.16551906958488047 0.11659033118771639 -0.9598513568362423 91 75 57
0.16544014954416894 0.1194702006059743 -0.9635936161928981 89 74 54
0.1652551622241188 0.12358651067952586 -0.9669311403983176 84 68 49
0.16551249002168048 0.12254233503803597 -0.9719474739800665 82 65 47
0.16582803288745301 0.12082382604095193 -0.977194792244281 88 70 50
0.16586039445751496 0.12240791411458857 -0.9813646617891625 90 73 51
0.1660936684467855 0.12165447065360924 -0.9863105292264326 77 60 37
0.16632736933629264 0.12089972469082394 -0.9912656052597724 85 68 44
0.16606340060477492 0.12593242940694482 -0.9942928733434875 81 64 40
0.16609701345026734 0.12750496915669823 -0.9984737851092907 85 68 44
0.16588169975078312 0.1319671575085714 -1.0016798260445336 91 73 49
0.16568305690450494 0.13623268178697978 -1.0049446738806345 82 63 40
0.16555980981776575 0.13962127063816338 -1.008501269597106 80 60 37
0.16555072060055354 0.1416857046168702 -1.0125070868518677 78 58 34
0.16563555111749997 0.14266290344601096 -1.01688696549147 80 61 35
0.16567447940716926 0.1441724246095366 -1.021085982049752 76 56 31
0.16575605226404883 0.14518963531990564 -1.0254576322782465 73 53 30
0.16586317127559097 0.14591304714780484 -1.0299350066828676 73 53 30
0.1658950965583554 0.14750619961996603 -1.0341114194702814 70 50 27
0.16591798259056442 0.1492041647827843 -1.0382521865526022 73 53 29
0.1658485812286114 0.15196645686467714 -1.0420171166063659 75 55 31
0.16574192950543468 0.15515685839696758 -1.0456272730948004 77 56 33
0.16563412301910238 0.15835893435316384 -1.0492293368733903 72 51 27
0.165525553917725 0.1615681460328775 -1.0528248716187782 76 56 31
0.1654161438009075 0.16478537700910867 -1.0564135155514498 79 60 35
0.1654686957511364 0.1661400610384915 -1.0606727199758716 69 50 25
0.16541706466844672 0.168691813681756 -1.0644984669302657 77 58 33
0.16557648239431888 0.1688212097594739 -1.0692076658726357 76 57 32
0.16529198515684285 0.17404318768386645 -1.0720533839327677 68 50 27
0.1653487510992891 0.1753504036538811 -1.0763320826896767 74 56 32
0.16577294239506354 0.17245123828233277 -1.082171148423508 76 55 32
0.16605828821218938 0.17114751222178803 -1.087432743092162 69 49 27
0.16594931228313867 0.174357414842448 -1.0910183668732927 69 49 25
0.1663643501768474 0.17157752144919858 -1.0968484366861737 81 59 35
0.16682482147944844 0.16828528328411874 -1.1028875200593846 77 57 32
0.1666717529298405 0.1720018960351975 -1.1062898672167312 80 61 39
0.16710106275198644 0.16907465085537177 -1.1122136320331917 82 64 44
0.16761095283289495 0.16523579697554758 -1.1185020793308516 90 74 51
0.1679722035901917 0.16309769878142172 -1.1241574218962138 90 75 51
0.1685058341000847 0.15900343497604308 -1.1305804755216575 89 74 55
0.168976079265052 0.15563838936092245 -1.1367417042474228 104 89 74
0.1693618095233757 0.1532412266872793 -1.1425447080686875 89 76 64
0.16992250162753925 0.14886297390404785 -1.1491359528733016 95 83 71
0.1704542504217015 0.14482197546146686 -1.1556164623684764 96 85 73
0.17120168753838902 0.13834296148163988 -1.163077400222842 98 88 76
0.1719804533800486 0.13152052350072357 -1.170702815513224 103 94 82
0.17241402272844025 0.12862006059442632 -1.176800527857547 97 89 77
0.17308403384306675 0.12305018713653698 -1.1839795859215267 101 92 81
0.17495926333179093 0.10385875091438024 -1.196640207459741 93 81 67
0.17536881984696578 0.10126309668349043 -1.2026976363816801 63 52 35
0.17576956778817387 0.09877334568567214 -1.2087280973784675 39 27 10
0.17618326398345624 0.09614371235762253 -1.2148307787004098 52 39 22
0.1767760992801063 0.09149991151878634 -1.2217698607320104 73 62 47
0.17726761007264208 0.08800749440793082 -1.2282608878759493 108 100 92
0.1784607115624094 0.07661992034621351 -1.2380137062832681 140 135 133
0.17924756538465286 0.06982382709711193 -1.2459188479687024 188 187 188
0.17989022960811676 0.06466194545355136 -1.2531775926913324 198 199 202
0.180177936431035 0.0635001200134852 -1.2587977301353757 198 200 202
0.18074835633908623 0.0591670736269318 -1.2657533088487236 198 200 201
0.18108963312887533 0.057415137356337465 -1.2716487509985603 198 200 201
0.18718681149309824 0.029432523232850172 -1.383818917753626 95 86 71
0.1859828528749259 0.04488988714642095 -1.3821598623903082 93 81 63
0.18357448476257016 0.07365166306907645 -1.3743874759943664 97 82 61
0.18260944544760482 0.0864212171872965 -1.373840844889441 91 75 56
0.1816293757407527 0.09934182597802665 -1.373187023215516 101 85 68
0.1807860357789604 0.11073791895703711 -1.3731980376133297 91 75 54
0.18022726103934172 0.11898194104546067 -1.3746356119828014 100 84 58
0.17970474611546827 0.12681761402331193 -1.3762411250956377 96 79 50
0.18010680258465045 0.12446080470978443 -1.3825823181129258 88 71 41
0.17978370469778973 0.13009241011046724 -1.3851975064495128 97 81 54
0.179462121633025 0.13570236426463522 -1.3878102377131865 118 101 74
0.17910384618210384 0.14171067266187537 -1.390222356259932 99 81 54
0.17931928691731894 0.14141167125067644 -1.3956088425525723 98 82 55
0.1791411384218159 0.14543623489521162 -1.398947653374028 98 82 56
0.1789131882327848 0.1500043185379506 -1.4020200434607357 92 75 48
0.17878438125643462 0.15348220638125598 -1.405605941383361 114 93 64
0.1786556942437936 0.15695681487029833 -1.409188416577205 125 100 70
0.178527127191498 0.16042814678645456 -1.4127674746867385 123 99 67
0.1784486203842508 0.1633499861269595 -1.4166078362774348 130 106 74
0.17815362427726003 0.16863679619003824 -1.4192947526398578 117 94 63
0.1781725325457763 0.17049063035535483 -1.4236462478081624 109 84 55
0.1778908080821587 0.17562593060655213 -1.4263904074559204 121 97 68
0.17762399797159603 0.18059422429165245 -1.429205614168873 120 95 66
0.17666597704881662 0.19309158079573507 -1.4282929881965747 125 101 67
0.17657319077627204 0.196151018063351 -1.4320193217743253 120 97 62
0.1767451759116686 0.19632755444138056 -1.4371759712733052 97 76 44
0.17665346804180249 0.1993745141073227 -1.4409066127229735 71 51 25
0.17631037750143852 0.20515195832052396 -1.4432655741693596 71 53 28
0.17603760283411032 0.2101604978348247 -1.4459976062668818 76 58 30
0.17623816821398988 0.2100282286266797 -1.451313566149914 87 69 41
0.17600783099662373 0.2145718442209063 -1.4542689611112467 122 102 74
0.17611853487394055 0.2154163056540419 -1.4590959643731418 110 89 61
0.17592424776495622 0.2195651144870573 -1.462241393439495 119 96 67
0.17595514339618848 0.2212743065038864 -1.4666285133905623 104 80 53
0.17657100868825104 0.21665880161441992 -1.4742677130982038 95 74 44
0.17667355378152846 0.21759940721081023 -1.4790657213739762 79 60 28
0.17693118097357602 0.2168671763907274 -1.4847339648065117 82 62 29
0.17733967428570446 0.21451121977131382 -1.4912562824373543 147 121 77
0.1769571225135939 0.22069051834028564 -1.4933446970884097 153 123 81
0.17657305011410274 0.22688028250511844 -1.4954123301544926 143 111 70
0.1760719858789624 0.23432366097407997 -1.4968062411505567 146 117 80
0.17604977480295078 0.23660758263927367 -1.5008992327196375 87 63 30
0.17550051987990165 0.24455724191812284 -1.5019947869343848 81 59 32
0.1754696569364887 0.24692939170476297 -1.5060287121075118 76 55 29
0.17645619553328631 0.23837925307743196 -1.5158794213959592 71 51 25
0.17692326631355101 0.2354169799712419 -1.5227831463766446 71 51 24
0.1778250197036626 0.22780245375380725 -1.5322015220467038 73 53 24
0.17786300237353936 0.22945444624285316 -1.5366681182256858 76 55 27
0.1787086729214976 0.2224616644775524 -1.545806429512782 68 48 17
0.1782919499954839 0.22898478764660024 -1.5476519876730641 136 110 64
0.17770240696287606 0.23734861644795502 -1.5484793609544614 173 143 93
0.1773968713057698 0.24266995278560738 -1.550943818617204 152 127 79
0.17708378132904753 0.24806719496968305 -1.5533543716939617 110 88 49
0.17662118104297653 0.255054120836789 -1.5548783992239879 84 62 32
0.1765069155626936 0.25832161777308627 -1.5584354490271828 81 60 30
0.17645066356417974 0.26096956637299873 -1.5623308920909558 86 66 34
0.17681067236521586 0.25918700004186895 -1.5686851176456322 90 70 36
0.17675929506663357 0.2617846797789057 -1.5726126876692186 89 69 36
0.17655363094674614 0.26602105257244835 -1.5756217428097596 90 69 36
0.17761132427753346 0.256839644328541 -1.5861528501485587 91 70 37
0.17724365484823582 0.2627984753142685 -1.5882011255352226 88 68 37
0.17614668146106877 0.27648417243490175 -1.5858681701572024 98 79 52
0.1757235517749981 0.2830135399690528 -1.587548083777029 99 80 54
0.1765109769813244 0.27672012379988015 -1.5965062103120176 120 101 68
0.17489376663642867 0.29587833143801834 -1.590966851581146 127 103 66
0.1757631016935962 0.2887248874286226 -1.6004331256961137 149 121 86
0.1753687200931348 0.2949345532869731 -1.6022545471626541 141 116 80
0.17530053922055552 0.2976947672923146 -1.6060491994474093 150 127 91
0.17457723774217707 0.30736425089080455 -1.6058430054469366 138 114 85
0.17383693275931852 0.31720172687952525 -1.6055095830991513 126 103 72
0.17363786001984222 0.3213271555606622 -1.6084734233620626 132 109 74
0.17335194395083403 0.3263635258161077 -1.6108966816102483 136 112 83
0.17287005644860357 0.3334565040194888 -1.612102056889815 135 111 86
0.17241065803937997 0.34030567068598916 -1.613431097876733 129 107 75
0.17244429500705058 0.3419701656253859 -1.6178023927215543 159 137 103
0.1720158676199675 0.3484839369131783 -1.6193025072885097 120 102 69
0.1711273668155254 0.3598153080046715 -1.6179215686740114 120 100 68
0.1717510909011297 0.35528776914932597 -1.6259612380503317 90 69 36
0.17173505595394412 0.35746840313876566 -1.6300132394157736 68 47 19
0.17189804770233977 0.35777577243281905 -1.6351892030217212 69 47 23
0.17157279593466374 0.36319012665749917 -1.6372961659937846 78 56 26
0.17195962843675675 0.36116041978479907 -1.6438879749978847 96 76 44
0.17225871485615402 0.3600527653389698 -1.649936968953082 89 69 38
0.17135558578786822 0.3714904285224952 -1.6483676964626557 107 86 52
0.1742647542329553 0.34317670867041417 -1.67101947813399 105 85 54
0.1759786898089635 0.327357519528704 -1.6861427896019858 86 68 44
0.1774399400117128 0.3141950000539564 -1.6997058346895226 67 51 28
0.17868438119837773 0.3033101264543762 -1.7119263673754697 76 61 38
0.179546008991953 0.2964229968731789 -1.7217273031727849 69 53 31
0.1794276992567907 0.2997254978550662 -1.7252438741921092 73 56 36
0.17952414999759797 0.30079768782149446 -1.730143529746741 63 45 24
0.1796706022561649 0.3013529592785922 -1.7353700552226883 76 56 31
0.18029959756694935 0.29691086642233133 -1.7437328915125434 93 74 44
0.1804217822723265 0.29772579330201765 -1.7488188809143326 91 71 42
0.17969590837998384 0.3073162826117035 -1.7483780339463424 95 75 46
0.18016364318587136 0.30455628162040876 -1.7557175658265243 94 74 44
0.1805457760366528 0.3026878748647029 -1.7625111920262901 113 92 61
0.18042114192128583 0.30605638964618087 -1.7659877231749683 85 64 34
0.1803174772749122 0.3092067147078072 -1.7695984349006288 85 65 36
0.18034378608315454 0.3110158840298032 -1.7740640021969247 81 61 31
0.180613375062538 0.3103200173958186 -1.7801405882748227 86 65 36
