ply
format ascii 1.0
element vertex 681
property float x
property float y
property float z
property uchar diffuse_red
property uchar diffuse_green
property uchar diffuse_blue
end_header
-0.35612793021848543 0.09948336743660119 -1.9031849728670072 94 75 43
-0.3580221091859521 0.09838405054250576 -1.9074991341854255 98 77 46
-0.35869386983659013 0.09820609130131297 -1.9128769390565075 96 75 44
-0.3591151399396711 0.09821731695219912 -1.9184797059189695 94 73 42
-0.3613870460089176 0.09683352239658408 -1.922469227753025 93 72 41
-0.3632111919873324 0.09578728744801954 -1.926849716510948 92 71 40
-0.3573910843379406 0.10050736276696254 -1.9379670156154178 94 73 42
-0.3547968689120552 0.10279585579670666 -1.9462742970894162 95 74 43
-0.3598668128069016 0.09930205134748607 -1.9478095814887184 95 74 43
-0.3670882608941568 0.09418335084095486 -1.9474134269525458 94 73 42
-0.3623249266636405 0.09811075625082388 -1.9576809089259224 94 73 42
-0.36773892660784707 0.09435538974898036 -1.9588761313605771 95 74 43
-0.3709283021750998 0.09227905933892852 -1.962048767879892 94 73 44
-0.3724977536793325 0.0914259908309902 -1.9666726385203377 94 73 43
-0.3756139232203307 0.08940439184806184 -1.9699008885330032 97 76 45
-0.3757927969853059 0.08960209822826704 -1.9757832494622298 94 73 41
-0.38201409771687705 0.08523316096980377 -1.976183525852871 86 66 33
-0.38459465645933344 0.08361528066420801 -1.979878174900694 83 63 29
-0.3860756676184399 0.08282859542530716 -1.984573991940938 83 63 28
-0.38570258035888966 0.08344428144284208 -1.9909721597561876 79 60 23
-0.38657740666026225 0.08311664757101192 -1.9962346379016493 80 61 26
-0.3885250071262451 0.08197763239785355 -2.0005126014533885 80 60 28
-0.3881710961324214 0.08258028923092767 -2.0069199460219753 95 75 43
-0.3874942764895714 0.08342803668396392 -2.013639286891383 98 78 45
-0.3864172211186009 0.08457956871333047 -2.020745374192089 94 73 42
-0.38395614880528467 0.08678002280375485 -2.0291603903913753 96 76 44
-0.386845885449593 0.08492918204886152 -2.0325873310552347 98 78 44
-0.3901723857763511 0.08274714847211856 -2.0355979843060874 82 61 30
-0.39447588469190137 0.07982438287150706 -2.037679524156999 91 71 35
-0.3983837626284098 0.07720067096622224 -2.0401210492432424 120 101 59
-0.40389393123560785 0.07336176075246431 -2.041031771729405 101 82 45
-0.40940544450542876 0.0695206808314977 -2.041920329766941 101 82 49
-0.41269574478387455 0.06736284279556823 -2.0449063902598996 114 92 57
-0.42192831068440984 0.06069745991999881 -2.042199827067207 104 81 47
-0.4149156524856968 0.06635396916508238 -2.0550373046012402 97 74 40
-0.4223103446903681 0.06108104862707317 -2.0540611000492968 94 71 37
-0.4235485238455838 0.06047886848732076 -2.0589950543371778 90 68 34
-0.4168551809376654 0.06589777034287614 -2.0716103637763257 87 67 35
-0.4200357951116719 0.06382238691055914 -2.0746879108184277 84 63 36
-0.42061943047138034 0.06371879074692044 -2.080286596740515 80 60 32
-0.42197079986907077 0.0630324306710063 -2.0851426444642387 80 60 31
-0.4219207641137329 0.06341093348345472 -2.0913742292340327 75 58 27
-0.4271376818924874 0.05978765567510452 -2.092442137239179 85 69 35
-0.42995264511385056 0.05798893609391109 -2.0958572070327532 118 98 61
-0.43415933626981607 0.05513187653343549 -2.0978911607138317 133 109 71
-0.4382662131318151 0.05234995220652594 -2.1000102117732915 143 120 79
-0.4393796276946149 0.051843957644161665 -2.105091735394067 117 94 56
-0.4379642103822731 0.053261887976821576 -2.112698675859719 95 72 37
-0.4465057286022057 0.04710496393224001 -2.1103683233162753 87 63 28
-0.4480003552863988 0.04630875411994928 -2.1150656880768848 87 63 27
-0.4348400001930936 0.056667867442122655 -2.134504890012391 95 71 35
-0.4543751051924957 0.042139100539226926 -2.1210511282940665 95 73 36
-0.4534444956066229 0.043189510679288445 -2.128197875745731 89 67 30
-0.45680023891818755 0.04097600277208374 -2.131011793211773 85 62 26
-0.4601461972030989 0.03876945056984238 -2.133826608644028 85 61 25
-0.4612050578070431 0.03830517369896663 -2.138966484986346 87 63 27
-0.4604465890334493 0.039226250371836635 -2.1459709316304094 89 65 29
-0.45890407886175966 0.04074586813057157 -2.153795505016922 89 65 29
-0.47266679536380346 0.030596468832135904 -2.1458840499127665 89 67 30
-0.47142439340870085 0.03188690363381108 -2.153393270756985 89 67 30
-0.4730668848538848 0.030977686721750552 -2.157933669982909 88 65 29
-0.48039865833808015 0.025727686340501765 -2.156567291970387 88 64 28
-0.4846167639658219 0.02285206456700062 -2.1584104800048376 88 64 28
-0.49248984481266456 0.01718574637056247 -2.1564219347180247 88 64 28
-0.4954642204850129 0.015257492516511706 -2.1595279327880785 87 63 27
-0.4995239425602049 0.012500028966280108 -2.1614868130062876 91 69 32
-0.49646059557929995 0.015182514393622448 -2.170935871847056 92 70 33
-0.5002670580922767 0.012618221406274666 -2.1731565984078944 92 70 33
-0.5034236446004713 0.010549862559138812 -2.1760537626937837 91 67 31
-0.5044598191497314 0.010101713056602901 -2.1811957380425233 90 66 28
-0.506079734653684 0.009207561656879304 -2.185720366343314 89 66 26
-0.5092227029561154 0.0071488715888880505 -2.1886185670346174 89 66 25
-0.5094237611631327 0.007339755016671223 -2.1946613494888 92 68 29
-0.5110821724245427 0.006416324378289262 -2.1991476824661462 93 69 31
-0.5167391463165153 0.00243342838628674 -2.199325352034296 97 73 35
-0.5203807679691139 -8.37344948395602e-06 -2.2016576920235527 96 72 34
-0.5229009858838624 -0.0015923721746311514 -2.2051942424686355 95 71 33
-0.5296195868983054 -0.006391153120129944 -2.204162761594703 95 71 33
-0.5330320564477974 -0.00865966631281151 -2.2067048904596205 95 71 33
-0.5347047384814085 -0.009596050590504501 -2.211138903894099 95 71 33
-0.5360235869216285 -0.010261296320512536 -2.2159615613316617 97 73 35
-0.5330092416164506 -0.007605672486513726 -2.225550866545078 98 74 36
-0.5363194146221013 -0.009796227993024265 -2.2281975306143003 99 75 37
-0.5369165390630477 -0.009907250297068737 -2.2338342470137036 98 74 37
-0.548360782274818 -0.01833603258870309 -2.227452477116763 95 73 32
-0.5474154669197416 -0.017265000494321503 -2.23478521013951 95 73 34
-0.5452251026905965 -0.015237825769041868 -2.2435231809149787 84 61 30
-0.5426717044882776 -0.012930695179523666 -2.252691989453564 68 43 26
-0.5408123528390191 -0.011154773370713411 -2.261109927971283 61 41 27
-0.5393778551159367 -0.009703752725140957 -2.2690731891176137 88 73 60
-0.5408578727647965 -0.010489639621615865 -2.273770769747229 119 111 102
-0.5428829510858186 -0.011694055042159868 -2.2778541429911936 151 147 144
-0.5448043288671615 -0.01281887969438894 -2.2820537114716344 176 173 172
-0.5444831676542001 -0.01222054812975043 -2.2888022341240046 189 189 191
-0.5449361792170095 -0.01221649319665935 -2.294681589055812 196 196 198
-0.5492267860985611 -0.0151621639683589 -2.296181995650183 201 201 203
-0.5487983357310289 -0.014480042481207267 -2.3030769704421257 204 204 206
-0.5500578780425895 -0.015095393831904558 -2.3080455494232037 206 206 208
-0.5774562824134746 -0.03581889965345236 -2.2828828473926976 208 208 210
-0.5758490428996808 -0.03423257959745568 -2.2910890366007357 209 209 211
-0.5770264739172555 -0.03478826089648762 -2.296088775848902 210 210 212
-0.5757040794645369 -0.033419312741639895 -2.3039984668550293 211 211 213
-0.5735651775951691 -0.0314205542131083 -2.3128799913356195 210 210 212
0.7334210980354765 0.7726812547586978 -0.0443219512349618 176 176 176
0.7320001516077163 0.771946418063703 -0.04916783746529568 176 176 176
-0.09967036752367764 0.24461875217877885 -1.145994368463391 189 190 192
-0.1957338563579029 0.17439313996071815 -1.106031432183213 190 191 193
-0.20452623122888547 0.16821441264128967 -1.106824505124299 190 191 195
-0.13968610847248114 0.2160989217648716 -1.142460749959162 191 192 196
-0.13959247437172423 0.2164511225771739 -1.1475758556801687 191 192 196
-0.1462489108300462 0.21184591783312892 -1.1494736024881298 192 193 196
-0.15247570466951482 0.20755518268317782 -1.1515569975933828 193 194 196
-0.1580357122879833 0.20375330079743414 -1.1539430091235034 193 194 196
-0.20454788574369748 0.16985723618672624 -1.1364879062978315 193 194 196
-0.21062862607576888 0.1656660184511757 -1.1385023159849947 194 195 197
-0.2177125643836304 0.1607363453556216 -1.140008436229839 195 196 198
-0.22225893362516308 0.15767101001316772 -1.1427363954324332 195 196 198
-0.1420225766096584 0.2172337265103605 -1.192345637032553 196 197 199
-0.168858548107795 0.19778187042413684 -1.1841537646843638 197 198 200
0.044676655579844016 0.36662828146952736 -1.5009877393315367 201 202 206
0.04475082238624439 0.3670107192493638 -1.5068902585284518 201 202 206
0.027896181342413784 0.3548609096936163 -1.5029465845971606 202 203 207
-0.002900393593315731 0.3323840757967473 -1.490787806890785 202 203 207
-0.019056777639505862 0.3207421033254465 -1.4870878834596737 201 204 207
-0.03859713128060338 0.30659002779134237 -1.4813306709724026 200 204 206
-0.06888606405581277 0.2844706543873593 -1.4691390121002943 201 202 205
-0.08399178602989743 0.2735941405968919 -1.4658294727512398 196 196 198
-0.09730633937390021 0.26404167056753425 -1.4635269672145812 161 160 155
-0.11052487298013114 0.2545574623123029 -1.4612298465891769 125 121 114
-0.12098208405416155 0.24711742914136947 -1.4605386390521236 112 105 95
-0.13012581254559902 0.24064910173152418 -1.4605996873285518 105 96 83
-0.138798172681944 0.23452847448556705 -1.4609125384895734 100 90 74
-0.1485133486966448 0.22763262529418474 -1.460560999301688 96 84 67
-0.1530367793532325 0.22458623924678714 -1.463337507692135 96 82 63
-0.16181794068276184 0.21838003336861905 -1.4634970208028606 94 79 60
-0.17046213024757356 0.2122736895098108 -1.4637087043339518 96 80 58
-0.1730510219339843 0.2106600313223197 -1.4676212217773996 101 84 59
-0.18450661927682827 0.20246387499870158 -1.4660447328479214 103 85 59
-0.1941390293542351 0.19561893117981252 -1.465555898749893 102 84 59
-0.18982611635971347 0.19912804382694596 -1.4737228453270652 103 85 62
-0.1925425066064268 0.19741773126291146 -1.4775206276822193 103 85 63
-0.196534706475121 0.19475941299511615 -1.4805131285062725 103 85 64
-0.20142869350230802 0.19143049328945685 -1.4829271678774343 104 87 65
-0.20387549031699848 0.18991937632731362 -1.4868749176110072 91 76 55
-0.2065962076940538 0.18820449747978982 -1.4906458008272645 82 67 50
-0.20489945482098265 0.18977333131350815 -1.497227467121387 85 70 54
-0.22797440724231616 0.17292454591313744 -1.4879819056020176 94 78 60
-0.23488945916266135 0.1680876995437582 -1.4890102427236624 101 85 62
-0.2325230863206988 0.1701529734349294 -1.4959943687349138 104 87 62
-0.2379269840258592 0.16643884415852775 -1.497973596889724 103 85 61
-0.22529074848855069 0.17614664130760235 -1.51164353184204 106 88 64
-0.2289294367047805 0.1737466374603276 -1.51478104924439 99 81 58
-0.2259826705733008 0.17624783595264926 -1.5222148152358348 97 79 57
-0.22857138762616197 0.17462938780351614 -1.526039431708388 91 74 51
-0.23152977220274734 0.17273548446263956 -1.5296169546784786 76 60 37
-0.2341115517557102 0.17112174043506553 -1.5334378842081093 78 61 36
-0.23515493263341752 0.17065366710083155 -1.53827536874364 93 76 49
-0.23731799098540735 0.1693516561576273 -1.5423712765151694 98 81 55
-0.24116748456991177 0.16679296018649797 -1.545339050017379 98 80 56
-0.2434909875797377 0.16537096326705406 -1.549319989415393 81 65 42
-0.24450420525879274 0.16492549278725532 -1.5541799068395454 90 73 50
-0.24512098072066085 0.16477578880509275 -1.5593112606154953 99 79 53
-0.25097592840495864 0.16072055422878884 -1.5608993975602297 100 80 49
-0.2587943603653009 0.15519989467434112 -1.561133091001593 104 85 52
-0.26392636531093266 0.15168147699121137 -1.563170845939414 106 87 54
-0.2625092739908088 0.15304814493613747 -1.569676888393816 110 91 59
-0.26289824185835736 0.15306801742257614 -1.5749574225801288 113 94 62
-0.2712634288189713 0.1471354224680024 -1.5747447090749114 132 112 79
-0.27902305639850067 0.1416530766263688 -1.5749192456869718 134 112 79
-0.2866706774343869 0.13625273762880186 -1.5751426375612294 133 110 79
-0.2934790078289038 0.13147753297000017 -1.575922426566191 123 99 70
-0.29789511065930063 0.12848763870736427 -1.5783505806355083 112 91 62
-0.30188306962844985 0.12581685187437355 -1.5810663282901167 114 94 62
-0.30994832279383977 0.12009915454652484 -1.5809003197585838 130 106 75
-0.3130971302689456 0.11805368263287261 -1.5841774568848472 133 107 75
-0.3172106049022075 0.11528682942341134 -1.5867638814526654 134 109 74
-0.32196121522687826 0.11204304364980011 -1.5888855158774289 139 114 80
-0.32673740619418823 0.10877931341955135 -1.5909742513748326 146 119 84
-0.33150086330763223 0.1055242787732738 -1.5930573128440175 138 111 76
-0.3375305613015858 0.10132131793672286 -1.59421535791872 140 115 77
-0.3427294351538311 0.09773872018525342 -1.595951645971299 146 122 85
-0.34789118000111185 0.09418295374175137 -1.5976978121185983 137 112 79
-0.3561244561304376 0.08832758257306228 -1.597196363829382 155 131 95
-0.3589376239065882 0.08652745021306793 -1.6006126950236004 154 129 98
-0.367057502228606 0.08075413185964708 -1.600143308519385 146 122 88
-0.3750612677767217 0.0750659867024118 -1.599727429396893 150 123 89
-0.37878857175191954 0.07257887862673937 -1.6024287331031137 93 68 38
-0.38377383181618047 0.0691489164531622 -1.60419085715729 96 75 48
-0.38409516428892915 0.06921231455087368 -1.609393656160767 107 86 57
-0.381403238877542 0.07153409645373235 -1.6168444948901506 99 78 48
-0.3811749718645218 0.07201062807351952 -1.622479118333253 95 74 42
-0.375198165408985 0.07679699908800106 -1.6324276639826163 88 67 38
-0.37754509758840143 0.07534463105788144 -1.636161935822083 105 84 54
-0.38006785757207295 0.07376023834722994 -1.639760651482809 96 75 44
-0.36238959938445503 0.08732748158779535 -1.6586329797460855 103 82 54
-0.34522701180131804 0.10051335738851971 -1.6772121613498818 119 99 74
-0.35562651577707205 0.09302373765629252 -1.6749032026153121 120 100 76
-0.3418929794714842 0.10364299949920106 -1.6909849605268623 118 98 73
-0.3097823937587003 0.12806084744325963 -1.7212297022698329 116 97 72
-0.31134361825814444 0.12720879980902058 -1.725754919110863 112 94 69
-0.3124232661425523 0.12671844080490152 -1.7306529301016644 94 77 53
-0.31378259121562196 0.12601823892840952 -1.7353381781832506 106 90 66
-0.3142730575917069 0.12597084376530487 -1.740700482804175 111 98 76
-0.3176114000109931 0.12378412205335776 -1.7438505882451272 96 83 68
-0.3153543362760545 0.12580177912383209 -1.7513669233854232 85 71 54
-0.3135096702950465 0.12751063703034515 -1.7585807004118932 70 56 34
-0.31318773847136794 0.1280758100277592 -1.764615106321108 77 63 37
-0.31282328643105345 0.12867356990234274 -1.770694091970555 76 61 37
-0.313520916616591 0.12847321805750303 -1.77594314799687 93 78 58
-0.31362233849684273 0.12872165604179017 -1.7816717496306678 90 77 56
-0.31331975847693594 0.12927453863944965 -1.7877313153135306 92 80 59
-0.3151440818808408 0.12822757173283425 -1.7921008336861188 96 84 62
-0.31934061052902635 0.12539520884151525 -1.794566937617923 91 77 54
-0.3205007934158058 0.12484784591820788 -1.799464896236492 72 56 34
-0.32126078357518134 0.12460198957897137 -1.8046894900778692 67 51 29
-0.32230190184834456 0.12414473443194751 -1.8096918574721317 85 69 43
-0.3233867093714775 0.12365480033653037 -1.8146628000671767 101 84 57
-0.32336435382520656 0.12399917537668462 -1.8205404204977804 100 83 55
-0.32702614133079283 0.12156806375478432 -1.8234139149541229 100 83 55
-0.3291241969833018 0.12031492559411106 -1.827561080131258 99 80 54
-0.3297094464450435 0.12020206162985456 -1.8329523063835946 104 84 59
-0.33083769273185876 0.119680171032473 -1.8379015767489528 100 80 55
-0.3321532469456334 0.11901723786696444 -1.8426993246575425 99 79 52
-0.33353233632030305 0.11830653441281136 -1.8474469565210137 98 78 52
-0.33534973703029036 0.11726530482428568 -1.8518314587427012 98 78 53
-0.3351802105680306 0.11772329363634298 -1.8578781215121993 103 83 57
-0.33712516294680794 0.11658610259506813 -1.8621609571220945 99 79 53
-0.33983935575915664 0.11486822546709619 -1.8657955901234349 100 80 53
-0.3411762674420174 0.11418991235001974 -1.8705886227067752 100 80 53
-0.3424377116831724 0.1135687336643236 -1.875448206801446 101 81 54
-0.34226992926942923 0.11402719747524706 -1.8815254498030662 100 80 53
-0.3453100485395396 0.1120628989773394 -1.8848785486935795 101 81 54
-0.34800912716209614 0.11035592240647327 -1.888516814138392 100 80 53
-0.3504537295804676 0.10884100080335221 -1.8923687159544795 97 77 49
-0.3522397335782977 0.10782371844662139 -1.8967840827630718 96 77 46
-0.3555666151781254 0.1056414895466822 -1.8998694477634621 97 78 47
-0.3584521899519003 0.10379251834426928 -1.9033288803293666 99 80 49
-0.35916827609147833 0.10358409393093998 -1.9086672077744127 93 72 41
-0.3584052875303643 0.104494910367492 -1.9153004219728644 94 73 42
-0.35988289885135594 0.1037111817489382 -1.9199891368919304 94 73 42
-0.36207818346876103 0.10238442928303002 -1.9240504742681017 95 74 43
-0.35286345058288804 0.10969432867382439 -1.9381456471815148 96 75 44
-0.3559826002335564 0.1076696360294789 -1.9414189931919372 96 75 44
-0.36251319403566684 0.10306123262260805 -1.9416661254185204 95 74 43
-0.36675804432175413 0.1001826238955966 -1.9439167546283447 95 74 43
-0.3668930901018057 0.1004166876522131 -1.9498139476571255 94 73 42
-0.36700846733678627 0.10066617501529795 -1.9557380217607867 95 74 43
-0.36864246958305774 0.09976527835471052 -1.9603108521340562 95 74 43
-0.37217109537016524 0.09742828343997345 -1.9631819784858386 95 74 45
-0.3733303751001974 0.0968871391173502 -1.9681797489023622 98 77 47
-0.3774188815173922 0.09412489016237627 -1.970532398966686 104 83 52
-0.377509731250211 0.09439409385871883 -1.9764986256298647 100 79 48
-0.3830866947294362 0.09050186733247476 -1.9774831122678636 89 68 37
-0.3850233809492406 0.08937069257678387 -1.9817689116417072 89 68 35
-0.3858569934034579 0.08907666004690737 -1.9870638491615034 86 66 32
-0.3862751978477806 0.08909827561331507 -1.9927457532515755 84 67 32
-0.38813865774831996 0.08802300720900813 -1.9971045110592538 88 71 37
-0.3875061206016635 0.08884322974645101 -2.003768797197265 92 74 42
-0.38331680312091704 0.09236585846129891 -2.013742478270024 96 77 45
-0.3870014491412652 0.08990829122019775 -2.0164321256659887 98 78 44
-0.3862205831413912 0.09084342854137992 -2.0232740669859552 96 76 43
-0.3835170135403665 0.09324073034923033 -2.031928479402342 101 81 49
-0.38750635258834204 0.09055150073446672 -2.034331770015612 92 71 40
-0.3905678118630033 0.08856711575543055 -2.037595735204137 85 65 31
-0.3935238378860438 0.0866625284162913 -2.0409522637872937 106 86 51
-0.39890427762900443 0.08291339165188685 -2.0420082074938484 117 97 63
-0.40361872761649314 0.07966983906216196 -2.043676159153139 93 74 40
-0.40746977756701724 0.07708241372141236 -2.0461496862827007 126 105 70
-0.4117465944796353 0.07417027126083248 -2.0482051697534533 110 87 53
-0.421591918112801 0.06701796832969717 -2.0449137138980924 102 79 45
-0.414818496431517 0.07251783659635166 -2.0575397677621967 98 75 41
-0.4232498971952439 0.066439953993843 -2.0555663222707494 96 73 39
-0.4337306830376287 0.058798744394952085 -2.0515746768290546 91 69 35
-0.4202000349574761 0.06945037772643761 -2.0708044694330052 89 68 36
-0.42062120187538005 0.06947405509733659 -2.076560768273882 79 59 28
-0.42041732938289234 0.06997463988799907 -2.0829345679088593 84 65 33
-0.42110922261674644 0.06979291591877357 -2.0884442264310024 80 61 29
-0.4180762364387294 0.07245215478269104 -2.097613548985276 77 60 27
-0.426714672230822 0.06621045162496061 -2.0953308755349673 102 85 49
-0.43125242018386295 0.06309505602743273 -2.097054123228097 129 107 70
-0.4351471508594791 0.06046945881004043 -2.0993978521304304 135 111 71
-0.43937373663949175 0.05758990054377294 -2.1014002334113617 138 113 73
-0.43655843581952014 0.06008542893075361 -2.1103971493973193 105 81 42
-0.4366240054027335 0.06038270926290332 -2.116545560011173 93 70 33
-0.4352987025991498 0.06174283294662594 -2.1240967353699243 89 65 28
-0.4630518298038797 0.04089085067388118 -2.102470195255104 91 67 30
-0.46288209773832645 0.04136533517656579 -2.108809353621118 94 70 34
-0.4587730936758572 0.044850995011640526 -2.119138592590478 95 73 36
-0.460728705768216 0.04370282621688837 -2.123360013150303 89 67 30
-0.46429601906740126 0.04132236459958605 -2.125943396755991 86 64 27
-0.46447221010601686 0.04153461331068925 -2.1319713028136316 87 63 27
-0.46611699695183917 0.04062408509608595 -2.136508382189214 89 65 29
-0.46645676495894756 0.040712033094311983 -2.1423837922242006 91 67 31
-0.4694393710010245 0.03877810241067697 -2.145551934792781 90 66 30
-0.47218948978181635 0.03702172864817865 -2.148952770789318 91 69 32
-0.47465551348203067 0.03548253609437102 -2.1526417101426008 91 69 32
-0.4790057025075485 0.032500369717840094 -2.1543735256631837 88 65 29
-0.4816055034917731 0.030857968606635144 -2.1579099790398795 88 64 28
-0.48674167213336517 0.027272287528965378 -2.158797148377134 88 64 28
-0.4937030814034252 0.02228693448042446 -2.1577557487215966 89 65 29
-0.49461924896363857 0.02193291593844615 -2.1630228639660576 90 66 30
-0.49935417163766727 0.018651863214797004 -2.164279179389347 92 70 33
-0.5048458398177645 0.01478959702229976 -2.1647196495801007 93 71 34
-0.5028621169195954 0.016659005602172205 -2.1730448821726895 92 70 33
-0.5054331276050559 0.01503587321941613 -2.1765615061029298 92 68 32
-0.5057553515129953 0.01513785220573971 -2.182465783300734 91 67 29
-0.5083359619093115 0.013507214950528423 -2.1859696986034103 91 67 28
-0.5105604325373112 0.012149681698924109 -2.189849931422995 92 69 28
-0.5115430882554832 0.011745417175084982 -2.1950600320265172 93 70 31
-0.514052170314764 0.010169248997991598 -2.198632693209319 94 70 32
-0.5194095065504106 0.00640509861386801 -2.19912751988724 97 73 35
-0.5235592296516054 0.003567502750038476 -2.200907367176108 96 72 34
-0.5279246740722505 0.000563330217539626 -2.20243866506311 96 72 34
-0.5322450342526248 -0.002407073564853368 -2.204003220644304 95 71 33
-0.5357263438063478 -0.004733296230927941 -2.2064679488232324 95 71 33
-0.5378382493042632 -0.006007084263838003 -2.2104210627785346 95 71 33
-0.5365866436435124 -0.004693993346747194 -2.2180639847559616 97 73 35
-0.5371549595029007 -0.004779923985488155 -2.223722623921759 98 74 36
-0.5418983928408407 -0.00807809999491138 -2.224780373279032 99 75 37
-0.5435838354198524 -0.0090237043645654 -2.2292047334094476 99 75 37
-0.5454238720072555 -0.010088281426353318 -2.2334581726194167 97 74 35
-0.5440849566881483 -0.008705068755286427 -2.241250038656974 90 67 38
-0.5426244685254724 -0.007227126142061224 -2.2491972428342795 76 52 33
-0.5410754294024556 -0.005679825248727843 -2.257264015846161 65 40 28
-0.5391827560797331 -0.0038665670873221925 -2.2657375979581293 69 50 39
-0.5411814996378306 -0.0050511458000607745 -2.2698537861671926 104 92 82
-0.5412951714182458 -0.0047826238527121645 -2.2760967844990994 135 129 124
-0.5433277754375234 -0.005993113273718931 -2.2801781780514365 163 163 161
-0.548177979834176 -0.009376715784343959 -2.2810596057794887 182 182 180
-0.5490737719565968 -0.00971091195282342 -2.286423343118405 191 191 193
-0.5501795206941766 -0.010206785539484897 -2.291553184544571 199 199 201
-0.5526679140347803 -0.01176949109508757 -2.2951047286359163 202 202 204
-0.5561626991184379 -0.014109319980975366 -2.297496673189022 204 204 206
-0.5617688280910536 -0.018079972937151356 -2.2974474409198096 207 207 209
-0.5754530166563463 -0.0282907014971841 -2.288049290107976 208 208 210
-0.5722132759114554 -0.025432240792923888 -2.298164701429048 210 210 212
-0.580387352211972 -0.03139100190022298 -2.295064088264425 210 210 212
-0.5760403038427218 -0.027675202951308153 -2.3064963252879784 211 211 213
-0.5780144267966261 -0.028843599959843147 -2.3105902546346853 211 211 213
-0.838799942464932 -0.21620370444087883 -2.2608295493704587 214 214 214
-0.8397519172489976 -0.21661044581346448 -2.2656068652100156 214 214 214
-0.8428444738151282 -0.21869016468246238 -2.2675591062666363 214 214 214
-0.8460763823105975 -0.22087941590624172 -2.2693163170060973 214 214 214
0.7330346318469847 0.7789814702566566 -0.044225085793533125 176 176 176
0.7252690067980697 0.7737389517149064 -0.04897135095903937 176 176 176
-0.12083808931414386 0.23493350801121374 -1.1371806043987962 189 190 192
-0.21454448844672608 0.16621537534860584 -1.098244500803689 190 191 193
-0.21959172882688932 0.16277616838778214 -1.1007678448784433 190 191 195
-0.15192279131145142 0.2129029368590342 -1.1377486694907797 191 192 196
-0.1610622610195237 0.20645574014423915 -1.1384479478782683 191 192 196
-0.1572556608160675 0.20954665931597796 -1.1453076960656903 192 193 196
-0.1692881879820578 0.2009652666287052 -1.1445824550067967 193 194 196
-0.17806657680051718 0.19478014934302584 -1.145383929903237 193 194 196
-0.1772572790024608 0.1956618891046057 -1.1508016334598792 194 195 197
-0.22731687350244006 0.15903496878402865 -1.131473356854912 194 195 197
-0.223889025498494 0.16184298963246996 -1.1380850088048051 195 196 198
-0.22646340038870522 0.16022493585611502 -1.1417718718416203 195 196 198
-0.22540318350743777 0.16128802946516727 -1.1472470537692945 196 197 199
0.056189570738609196 0.38201656005665163 -1.5150477628365033 202 203 207
0.048407402492924856 0.3765705937576799 -1.5164145728142997 202 203 207
0.020510381438156644 0.3561788198345911 -1.5059877954505647 202 203 207
0.0022865582307144416 0.34296833480536676 -1.5011245764579644 201 203 206
-0.01511769135454788 0.33036278221704757 -1.496670841642491 202 203 205
-0.057465183476717474 0.2992120657201123 -1.477385452205925 202 203 207
-0.06991860261615601 0.2902760963285886 -1.4756757958058897 202 202 207
-0.08734657583844918 0.2776383600377076 -1.4709515451352306 201 202 202
-0.09945834528958619 0.2689503866620385 -1.469338940413056 184 183 182
-0.10896875448374499 0.26219479083215425 -1.4692428341289416 152 148 144
-0.11879748740548779 0.25520038800560724 -1.4689198100228305 126 120 113
-0.12751230186869894 0.249032797041401 -1.4692348057261766 109 100 91
-0.13550060120327484 0.24340412627584523 -1.4699599432537178 108 98 87
-0.14198728298592145 0.23889161962873032 -1.4715730257938995 101 89 76
-0.1659634091124229 0.22135697926630157 -1.4624546990442717 101 89 75
-0.17101912591742147 0.21790530993715715 -1.4648644090289156 98 85 68
-0.16444599239677904 0.2231135391452104 -1.4744340690395512 97 82 62
-0.17390517859912086 0.21638158466947396 -1.4741138209149933 102 86 64
-0.18368525064311214 0.20940856092762072 -1.473558831982717 112 94 73
-0.1825773955079864 0.21054666396454177 -1.4797602571053379 106 88 66
-0.18486976721376036 0.20915138800270092 -1.4838459110098832 103 85 63
-0.19029470046621388 0.20542091304792287 -1.4859603613460604 110 90 68
-0.19261585659447855 0.20400351702977668 -1.4900162248714501 111 91 67
-0.20080520145593544 0.19821016909243316 -1.4903538506494591 107 89 65
-0.1976368835126177 0.20088587754763232 -1.497880282896589 102 85 64
-0.19943890200765474 0.19985528600987618 -1.5022594390986406 94 79 58
-0.21781622760167307 0.1864581450169355 -1.4960264019504028 103 87 65
-0.22100472141085964 0.18439074799354294 -1.4994759193778613 110 93 72
-0.22336407569933414 0.1829418109913553 -1.5034537015381224 107 90 67
-0.22584167385525955 0.1814044597562303 -1.507352349837487 108 90 66
-0.22505724769857616 0.18230241067985464 -1.5133670216065809 105 88 64
-0.22710341378356663 0.1810873095797669 -1.5175483449246752 106 88 64
-0.22387519963793773 0.18381149806949806 -1.5251799808755253 103 86 61
-0.22474540255763076 0.18347544476525635 -1.5301438559367588 90 74 48
-0.22444340439283694 0.18401545911050593 -1.5358848187077263 85 70 42
-0.22864173703281065 0.18119299960742188 -1.5386588990152208 99 83 53
-0.22997899939240524 0.18050832692122606 -1.5433210211455193 111 94 61
-0.23549351422443654 0.1767010432851132 -1.5452023030574997 110 93 63
-0.23877830516484033 0.17455990804135918 -1.5485568037521988 103 85 61
-0.24097699475396572 0.17323059141974223 -1.5526330646975102 111 91 67
-0.24278124350727248 0.17219619707282952 -1.5569730886209956 98 78 54
-0.24611146857129634 0.17002021967285166 -1.5602818497988427 101 82 55
-0.24921546236682407 0.16801310258071334 -1.5637367417810335 102 83 53
-0.2549533709343086 0.16403447945002245 -1.5653926859264369 103 84 55
-0.26095666302672227 0.1598561397761932 -1.5668484264739506 108 89 61
-0.2590287345140574 0.16161433651554233 -1.5737203504758204 114 95 65
-0.26483529514172005 0.15758209190268785 -1.5752900086320403 125 105 73
-0.272308190139298 0.15230079451819226 -1.57569004548248 120 101 68
-0.28048931605381877 0.1464874304353878 -1.5755719851715253 130 108 76
-0.28862512199252993 0.14070626124325802 -1.5754544257366523 123 100 68
-0.29374604030899204 0.13718250157608894 -1.5774091017009562 119 97 65
-0.29894053908034185 0.13360267392077677 -1.5792960276830788 108 87 57
-0.30272510778185346 0.13107880166956573 -1.5821567087688453 116 96 65
-0.30969959995442164 0.12616272954295968 -1.5827590655772816 123 102 72
-0.31453930376053385 0.12284606858852756 -1.584846003987261 125 102 70
-0.3174212235458558 0.12099694761734 -1.5883075247670146 143 120 84
-0.32390810929073993 0.11644319168265169 -1.5891960035105634 129 107 72
-0.3284670989369226 0.11333463322471565 -1.5914391597474797 143 121 89
-0.33315387696311816 0.11012939677508748 -1.5935769263336472 121 98 66
-0.33907685381566494 0.1059954695513946 -1.5948106840152994 140 115 76
-0.345245289023766 0.10167610462094762 -1.5958466474107473 147 122 87
-0.34862630926293986 0.09944847859327507 -1.5988804763485707 118 93 63
-0.35933580598580017 0.09171665879993146 -1.5965780962270193 152 128 92
-0.3635893929725448 0.08883165993631975 -1.5989410518502796 170 145 115
-0.36636457057291516 0.08705666692785882 -1.6023737719273865 150 126 90
-0.37648341633738625 0.0797631302486416 -1.6004073956570668 123 97 63
-0.3802404921964753 0.07724854958034735 -1.6030878828297106 89 66 35
-0.38361805075882893 0.07501868514536603 -1.606038940090117 98 78 50
-0.38162383454541904 0.07682715169958851 -1.612967648543511 95 74 46
-0.37770404260731877 0.08008470651642538 -1.6213486549122174 89 68 38
-0.3765992655072406 0.0812265883157195 -1.627655205483891 90 69 37
-0.37414048367931246 0.08338787624747038 -1.634990943609522 89 68 38
-0.3755988915443304 0.08260297333260744 -1.639401940825975 96 74 44
-0.37762181672326606 0.08139331582549836 -1.643388436616499 93 72 41
-0.36322922012289105 0.09253973159290668 -1.659801673421101 101 80 52
-0.349930958461509 0.10286690520041111 -1.675465303652309 116 96 72
-0.3354458413552675 0.11409210938215514 -1.6921098365691178 119 99 75
-0.33931713145118253 0.1114970009465793 -1.6947997965265718 114 94 69
-0.3094013057897144 0.13435268477757634 -1.7234020007999606 112 94 70
-0.3126985679195526 0.13219374379711843 -1.726598655056937 107 89 66
-0.31485876618549496 0.13089123688482115 -1.7306659248897782 103 86 64
-0.3140516821060298 0.1318251314084213 -1.7370307273580181 108 92 69
-0.31430003298433623 0.1319641288478076 -1.7425883716759594 108 95 75
-0.3157915848433364 0.13116619297944776 -1.747184315615325 95 82 66
-0.31567749226075675 0.1315792589078587 -1.753038455044562 77 62 44
-0.31553108169073996 0.1320172645786928 -1.75892787941945 67 51 32
-0.3145652714993046 0.13307403852733984 -1.7654728676601286 71 56 34
-0.31362278810978733 0.13411402436220574 -1.7720137732767947 81 66 44
-0.3125839263306386 0.13522756033719685 -1.7786453633862598 90 75 54
-0.31488934905028293 0.13381737314618744 -1.7826314508981236 90 76 56
-0.31503859288933816 0.13403503635030944 -1.7883358188769174 96 82 64
-0.31667408741327413 0.13313080113312623 -1.7928588863025254 96 83 64
-0.3185110984138232 0.13207440999978265 -1.797221063213213 73 58 36
-0.32004062502839087 0.13125031288685524 -1.8018309663454066 60 43 22
-0.32129359076612934 0.1306352796872699 -1.8066660011215911 68 51 29
-0.32183408857641993 0.13055888107060268 -1.8120819006067252 93 76 52
-0.32293984673663484 0.13005557055111988 -1.817044565724382 105 88 61
-0.32399511293083405 0.12959064981012333 -1.822052225542927 98 81 53
-0.32762838991509574 0.12717641363184556 -1.8249526530528684 95 78 50
-0.32859633048346826 0.12677761886384736 -1.8300333894331968 98 80 54
-0.3315754405197116 0.1248575917646858 -1.8334609931840693 104 85 60
-0.3315745735023925 0.12519207612236094 -1.8393465433748404 99 80 54
-0.3310975621630329 0.12588746327309314 -1.8456367128866118 97 77 50
-0.33549569761526626 0.12289320634743273 -1.8478822145872966 99 79 54
-0.3350094423521563 0.12359624470558395 -1.8541916025869054 103 83 58
-0.3343215075194122 0.124452706093157 -1.8606821775722275 101 81 56
-0.33659625073513644 0.12306593172045371 -1.864697133534292 101 81 56
-0.33818316048952635 0.12220010679031554 -1.8692894199299475 99 80 53
-0.34068016485830777 0.12064475515208814 -1.8731135607822937 100 80 54
-0.3409759894042193 0.12075742177787463 -1.8788010249420362 100 81 54
-0.34083736631538786 0.12119987784090694 -1.8848663388052886 99 80 53
-0.34448357262071816 0.11877335269004155 -1.8877119032946323 98 78 51
-0.3469502891071511 0.11724071974609046 -1.8915575763022763 99 80 52
-0.3508448491556923 0.11462489515030924 -1.8941734974697424 99 80 52
-0.3518823166974354 0.11417593754306526 -1.8992398648009492 97 78 48
-0.35522114622572964 0.11198096988660014 -1.902321518190587 98 78 49
-0.35807623166373914 0.11015267399267858 -1.905814400274555 98 79 49
-0.3573137078046733 0.11107018282524925 -1.912447885524895 94 74 43
-0.3581040756638392 0.11080945302608103 -1.9177406957556222 92 72 41
-0.35945129736446446 0.11012616555030963 -1.9225518475515209 94 73 42
-0.3599982809642654 0.1100508568762531 -1.9280681107397122 95 74 43
-0.35547956644885204 0.11382443466195141 -1.9380520501790643 96 75 44
-0.3584680721452025 0.11189546642027184 -1.941439594566623 96 75 44
-0.36472046063756636 0.10748550611705718 -1.9419289323670923 95 74 43
-0.36476406022147584 0.10779397687313022 -1.9479122700655542 94 73 42
-0.36966767648846627 0.10440775486990708 -1.9495726330522747 93 72 41
-0.3710868026579837 0.10367050527608845 -1.9543321879791535 93 73 41
-0.3683349105799104 0.10610606649462187 -1.9628355247886458 94 74 43
-0.37270061698491036 0.10312795287976742 -1.9649598555239391 101 81 52
-0.37731225955926206 0.09996189768099883 -1.96684823119797 107 86 56
-0.37917792696276276 0.0988849855387533 -1.9712072044800155 107 87 56
-0.37786995257007133 0.10022408312291689 -1.9784479452046506 107 86 57
-0.38279338570711985 0.09681936103784253 -1.9800301303664154 96 75 46
-0.3829508086946035 0.09704342092821949 -1.9859495982527484 92 71 41
-0.3840369986990905 0.09656052145767405 -1.9910272402402784 95 74 44
-0.3852997482991113 0.09594333621241397 -1.9959467532088713 95 77 46
-0.38835707715363155 0.09395874132532461 -1.9992148047107527 96 79 47
-0.3843530707995126 0.09735609493914224 -2.0090065432583084 97 80 47
-0.3841622538131022 0.09784818574021997 -2.015293787126205 98 80 46
-0.38590616833785374 0.09686560328480456 -2.0197922692435255 98 78 44
-0.38689219887179077 0.09646109331396996 -2.0249985968401334 99 79 44
-0.3861583290530521 0.09736890831490916 -2.031819713877885 96 75 43
-0.3891309270402952 0.09544941994562783 -2.0351753361329803 88 68 38
-0.3911557217623917 0.09425291875912925 -2.0394171474130043 100 81 46
-0.3942980248044267 0.09220331244370289 -2.0426023488390417 122 103 67
-0.3986388078141341 0.08923823827994651 -2.0446447030733395 99 80 48
-0.4023506291250298 0.08675267576520368 -2.04727050920102 100 80 47
-0.4060899857822396 0.08424547520552514 -2.0498593936289704 118 95 60
-0.41212464100884283 0.07998406714240228 -2.0502431916022563 107 83 49
-0.4215966237131649 0.07309464613103489 -2.047307181671988 100 77 42
-0.41917855037278656 0.07529051869333245 -2.0557619311968205 98 75 40
-0.43536458193897604 0.06326530398010094 -2.04629630277249 95 73 38
-0.43016600981941966 0.06758699868476858 -2.0574362831799133 92 70 37
-0.4252787932770273 0.07167285786475294 -2.0683145427168776 79 58 27
-0.4200550004776565 0.07601838305552225 -2.0795590548651948 89 69 37
-0.42014664656694634 0.07629919680359448 -2.0856560011371643 82 64 32
-0.4187457175222239 0.07772284750908073 -2.0932242280772178 80 62 28
-0.4204457442215266 0.0767738972259773 -2.097766466922222 94 78 41
-0.4265590803709954 0.07244604261534895 -2.0979633750932964 124 105 67
-0.43349435876470854 0.06748734032106593 -2.0973235928892895 130 107 70
-0.4381157499218355 0.0642992913111993 -2.098946228292576 138 113 76
-0.4359909023154688 0.06627876740538749 -2.107255095309667 114 88 52
-0.4371002296252398 0.06578124223276283 -2.112364403393424 99 74 38
-0.42887832764649403 0.07243592517063474 -2.126803316267976 93 69 31
-0.4345525358008196 0.06844089763836644 -2.1273730622482656 91 67 29
-0.46109559458610194 0.04844260283469337 -2.1069419601740536 92 69 31
-0.4613188365602349 0.048622177452196824 -2.1129007508580284 95 71 34
-0.46148337384877464 0.04884731870569692 -2.1189282951074406 95 72 36
-0.4621015561340545 0.04872493664842312 -2.1245055675452282 92 70 33
-0.46439158457264107 0.04731988604452669 -2.128389592072757 92 69 32
-0.4691389217795565 0.04402838285046923 -2.129764333781098 91 67 31
-0.46264713752007236 0.04936523017033795 -2.1426191528939063 92 69 32
-0.4673227498996935 0.04612873020884822 -2.1440660922400423 96 72 35
-0.4752870711595555 0.04036510232661744 -2.142112149780232 93 69 32
-0.4785531477086741 0.03820906371699384 -2.14496977569127 92 70 32
-0.47949071435207313 0.03784192651015228 -2.1502285448980683 90 68 31
-0.48725486680680974 0.03222789161828615 -2.1484071748614375 88 65 28
-0.4885663951597311 0.03157268352929077 -2.1532667259448495 89 65 28
-0.49075450672888393 0.03024356890138369 -2.157214196094552 90 67 29
-0.49366387143856877 0.02835957153292884 -2.1604042938704455 90 66 29
-0.4892426700803536 0.03211477877869662 -2.1712844707766097 92 68 31
-0.4996283977067959 0.024478257851202334 -2.1666110686512052 95 73 35
-0.5051306322480389 0.020597457733327107 -2.1670427279587336 94 72 35
-0.5069987782117652 0.019513050376075536 -2.17130058478006 93 70 33
-0.5070912360207587 0.019795921452142762 -2.177443954486673 93 69 32
-0.5086573066636052 0.018944430364343845 -2.1820281846624483 92 69 30
-0.5091816706867406 0.01889550834961007 -2.1877265854984698 91 68 28
-0.5117695383123249 0.0172570383348144 -2.1912223648567797 96 73 32
-0.5134908075079017 0.016286188180501704 -2.195644330649268 95 71 32
-0.5161548407695826 0.01458861187720778 -2.199051145531204 96 72 34
-0.5200067827706535 0.011974797659327241 -2.201169271616076 97 73 35
-0.5242171035556094 0.009083878352940777 -2.2028865154176698 95 71 33
-0.5284175259969559 0.00619975355150415 -2.204599687413943 95 71 33
-0.5325484326827483 0.0033684255968444154 -2.206373801951339 94 70 32
-0.5408567450139624 -0.00268763970088709 -2.203568675726698 94 70 32
-0.5394915234801613 -0.0012787275961897993 -2.211323856271835 95 71 33
-0.5414621484892749 -0.0024443223342680565 -2.215432727925517 97 73 35
-0.5420632643373378 -0.0025523349322946753 -2.2210497755041114 98 74 36
-0.5508079221391222 -0.008950456522691996 -2.2176743011054048 100 76 38
-0.5441165917472897 -0.0034246788217068835 -2.231362935715474 99 77 36
-0.5454928516423718 -0.004130613365163183 -2.236138181986374 97 74 37
-0.5426615551089284 -0.0015840070030501696 -2.2456055542517737 81 57 36
-0.5411120110555996 -2.6761158385513184e-05 -2.2536693766040843 73 51 37
-0.5395571325128965 0.001535804652896433 -2.261760236207185 65 43 31
-0.5375462806279601 0.0034522759575841833 -2.270384742667027 87 72 59
-0.5406460591659791 0.0014160095937323924 -2.2732730408041486 117 109 101
-0.5416929002997032 0.0009680105035825837 -2.278473587053159 148 144 141
-0.5462151908636917 -0.0021699225769494235 -2.279739741053357 172 173 173
-0.5489662497687264 -0.003937472066849912 -2.2830019060854827 187 187 188
-0.5498905862040501 -0.004290710077486715 -2.2883401591730177 195 195 197
-0.5527922859472605 -0.006175296808677733 -2.2914239638319955 200 200 202
-0.554723192444165 -0.007308126128396708 -2.295613479013477 203 203 205
-0.5536817621116232 -0.006137549639133544 -2.3032184601279964 205 205 207
-0.5651261576696794 -0.014644256414683365 -2.296451136003601 207 207 209
-0.5784400221311796 -0.024603914199513188 -2.2874614147470265 209 209 211
-0.5737039849792325 -0.020569918262619225 -2.299316960532624 209 209 211
-0.5789228620452169 -0.024255474906963503 -2.2996450816415357 210 210 212
-0.5841234975638552 -0.02792812950981277 -2.299972406863766 211 211 213
-0.8385889883652856 -0.2109167542332008 -2.2580481119098397 214 214 214
-0.8400040766413291 -0.21168460443029424 -2.2622177076193197 214 214 214
-0.8414436312754597 -0.2124715688977118 -2.2663564725304317 214 214 214
-0.8427441115072877 -0.21314930645348917 -2.270680633413122 213 213 213
-0.8482285618780515 -0.21711155480348304 -2.26945398241877 214 214 214
-0.845832101752845 -0.21488683425533736 -2.2786876969165806 214 214 214
0.7266289285872685 0.7810024434685928 -0.0440391149779058 176 176 176
0.7224657903132076 0.7783155819082006 -0.04883893651002774 176 176 176
-0.16728099365335153 0.20648816512978457 -1.1165158389312908 189 190 192
-0.22981715900509508 0.16057303688496408 -1.0921069858700378 190 191 193
-0.15433086654973688 0.21663388747630255 -1.1326468501910638 190 191 193
-0.1706571514287506 0.20485809362769417 -1.1299446740814145 191 192 194
-0.1714359641320614 0.20457121705937875 -1.134591331517051 191 192 194
-0.17938618988953292 0.19898271583153 -1.1358090590328485 192 193 195
-0.1798034600948784 0.19896277295153256 -1.1406225976779552 192 193 195
-0.19053533589484795 0.19131501515028582 -1.1404606087973943 193 194 196
-0.1939758556182985 0.18934635351154114 -1.1488026020174376 194 195 197
-0.2295769454248981 0.16329319180036453 -1.1363971379242028 195 196 198
-0.23264200872402918 0.16130953581600774 -1.1398356601722854 195 196 198
-0.24021878640167194 0.1559861748892795 -1.141041883760211 196 197 199
0.04938240813145245 0.38417609508251804 -1.5244167692656996 202 203 207
0.029110859636636288 0.3694021604585345 -1.51841189586552 202 203 207
0.00921445109173502 0.3549031996400443 -1.5125454464347499 202 203 207
-0.014508279899574261 0.33754569407246104 -1.5043308311509638 201 202 206
-0.05732569257081466 0.3059382471488891 -1.4846620096320933 202 203 207
-0.07704038245307654 0.291557266590451 -1.478598217031962 202 203 205
-0.08826678198982107 0.283505926948603 -1.4775396544139159 201 202 204
-0.09788089856977755 0.2766554972051294 -1.477408255914067 201 201 203
-0.10168619001954293 0.2741393493582355 -1.4807489093252149 194 192 193
-0.10848155033751639 0.269390196896504 -1.482268444276081 175 170 170
-0.11391313553991866 0.26565817021274274 -1.484595119160354 154 148 145
-0.12116354394379591 0.2605667200629289 -1.485794684695613 138 130 124
-0.11674816287736023 0.26418858650532306 -1.4941206033966448 112 103 95
-0.10876687606254098 0.27047644715507535 -1.504669620567645 111 101 90
-0.11233103438195846 0.268139019095457 -1.508133506011777 115 102 87
-0.11112803676471883 0.2693642715771719 -1.5145448936731198 111 97 79
-0.18632726216933038 0.21347462297313782 -1.4734296188438765 109 94 74
-0.1714894040280487 0.22488609961679176 -1.4882081816428077 108 91 72
-0.174893009650474 0.22266045495571155 -1.4916287998305746 107 90 70
-0.17668430826608328 0.22164034379301414 -1.4960566163477822 109 91 69
-0.18055440643961201 0.21906509111538483 -1.4991717777119378 108 90 68
-0.19168629548762567 0.2110557580062409 -1.4976743153057939 106 88 66
-0.19781120005715913 0.2067910024205846 -1.4993189213066382 106 88 66
-0.2048141646479752 0.20186785553078948 -1.5003827005153452 106 89 68
-0.21034457190664174 0.1980457261939499 -1.502365958347386 110 93 74
-0.2092358887558884 0.19919378247321023 -1.508602427364971 113 96 78
-0.21021579927183875 0.1987784602197318 -1.5135042447056726 111 95 75
-0.2120115950581768 0.19775222945215576 -1.5178813503773458 108 93 70
-0.2165092514884739 0.19470181848335 -1.5205014768709337 105 89 65
-0.21636477299708434 0.1951291166483066 -1.5261388207051816 101 85 60
-0.21285760141950222 0.1980771359996061 -1.5339882130201263 92 75 49
-0.21749353888952028 0.1949226056756134 -1.5365093488894752 103 86 59
-0.21991175646395794 0.1934299930794296 -1.540480385803621 110 93 66
-0.2243410145257843 0.19042920844955188 -1.543116907721474 110 93 62
-0.2247683610201433 0.19042914999172678 -1.5484005284731273 106 89 59
-0.227666294417524 0.18857618938233295 -1.5520430302296804 109 91 63
-0.2333394621542383 0.18464073823305022 -1.5538228050386702 105 87 60
-0.23665890853656585 0.182470491997918 -1.557165202869969 102 83 58
-0.23972344991464534 0.1804911504780914 -1.5606722315756114 102 83 57
-0.24485267121252818 0.1769615275343395 -1.5627764398548938 102 83 57
-0.2497860322431687 0.1735780444718839 -1.5649976800918004 102 84 58
-0.2501901999297374 0.1735949738098991 -1.5702898182696505 101 83 59
-0.25689313172104605 0.16888125019806022 -1.571281916958817 110 91 69
-0.25851205012786843 0.16798550846361338 -1.575738878203751 125 106 77
-0.2644622313218757 0.16383537354981423 -1.5772142755451135 120 98 69
-0.27371337560487863 0.15720332843803825 -1.5763885733090361 120 102 73
-0.2760569860296652 0.1557613470720212 -1.5803166860865405 118 99 70
-0.2905270038913256 0.14520253143823736 -1.5758037024991607 115 93 66
-0.289725624594975 0.14612340084682876 -1.5818931378498484 120 100 71
-0.29604293269577203 0.1416911424411891 -1.5830068001315702 123 104 73
-0.30173937950843777 0.13772463811806535 -1.5845349219454752 123 104 72
-0.30869461267123116 0.13280996437974363 -1.5851556612511324 117 99 68
-0.3144669249103989 0.12878398763320503 -1.5865886580889172 117 95 64
-0.317893419805799 0.1265224575566489 -1.5896688463032573 131 106 73
-0.3230823862298673 0.1229336897932368 -1.5914842752169016 142 119 84
-0.3290133947635108 0.11878524729316878 -1.5927519847469973 142 119 85
-0.33480758954458906 0.11473865467070138 -1.594097399125176 138 113 79
-0.3399451177211111 0.11118552864876904 -1.5958959830840032 138 115 75
-0.34614843179769755 0.10682852395076678 -1.5969074539851755 160 135 100
-0.3527688716467737 0.10215594800372521 -1.5975943539991428 159 133 100
-0.35969644908384873 0.09725051090401346 -1.5980335778313002 156 130 96
-0.3659232959955683 0.09287179469174692 -1.5989588381651458 148 121 91
-0.36826684591712977 0.0914195280381625 -1.6027075035137177 160 136 101
-0.37772674367160564 0.08460084360995462 -1.6012205611646266 107 85 51
-0.3815248735269196 0.08205014223235216 -1.6038723111861326 93 74 42
-0.3784801011812099 0.08466086542232287 -1.6115795373693196 90 70 39
-0.3764944605972088 0.08647384783852383 -1.6185240058312085 96 75 46
-0.37575257437092685 0.08734930853204978 -1.6245601994695493 87 66 37
-0.37349325632778746 0.0893708373516374 -1.6317436668025065 88 67 38
-0.3802022297963681 0.08462301417139734 -1.6322180231705827 84 63 32
-0.3783908449886579 0.08630733897250908 -1.6390820364152603 94 71 38
-0.3764194354475989 0.0881135534537675 -1.6460849004285976 90 69 37
-0.37096934230101924 0.09254856220221302 -1.6557431448039701 108 90 61
-0.3549206056900477 0.10499316819356938 -1.6734976425274963 122 103 78
-0.34109174526322694 0.11576548880448811 -1.6896487739542068 117 98 73
-0.33632705962198833 0.11969155066028814 -1.6989403048296148 112 93 68
-0.30714943303947795 0.142074733702322 -1.727016207306502 104 88 65
-0.31024268461135324 0.14006678414441304 -1.7303812275243318 100 84 62
-0.3028285465499292 0.14600470962828455 -1.7418638349009172 107 91 69
-0.3063380495412356 0.1436827017054224 -1.7449197570769925 110 95 72
-0.30003132010455114 0.1487866496781171 -1.7556070198782852 109 94 70
-0.3033281693749037 0.14662600892974562 -1.7588368663410656 95 79 56
-0.30425081027379824 0.1462618383707163 -1.7639192009800093 86 70 47
-0.3060931351901137 0.14520174178134856 -1.768283299944611 97 79 55
-0.3094479133597724 0.14299650061417488 -1.7714546054519467 93 74 51
