ply
format ascii 1.0
element vertex 684
property float x
property float y
property float z
property uchar diffuse_red
property uchar diffuse_green
property uchar diffuse_blue
end_header
-0.00776859880672276 0.0022611645508893163 -1.214742010463212 87 67 30
-0.0031737471087419644 0.00013574184180145665 -1.2178331641480713 89 69 30
0.005087975395761113 -0.003597649959009991 -1.219305274188665 89 69 33
0.017665717508406453 -0.009223245215836173 -1.2188520055594012 100 80 45
0.025250359761117558 -0.012658527974628825 -1.220567441215737 106 83 47
0.034402391005766364 -0.016780571592992954 -1.221564928591503 119 95 61
0.043344676220940515 -0.020810065224030116 -1.2226284487498247 109 89 54
0.05436920362654368 -0.025751781459338152 -1.2227324337641436 92 79 42
0.06447178902733736 -0.030288632067278 -1.223216505319798 90 72 36
0.07541258635517706 -0.03519219139334387 -1.2232907421657546 111 86 47
0.08791907612525973 -0.040781177676116304 -1.2226204507122316 127 100 59
0.09584388219718676 -0.04436153912200491 -1.2239963428692318 143 118 79
0.10565019607147608 -0.04876582351642117 -1.224488586947635 132 107 70
0.11037814712442467 -0.05094445764339661 -1.2272821993205192 120 96 61
0.11476324926086501 -0.052972646947166 -1.2302225003504903 129 106 65
0.11859494068161508 -0.05475819581119773 -1.2334088707711368 143 116 77
0.12187488304913902 -0.05630189905297853 -1.2368436416437563 71 44 13
0.125209238260016 -0.05786930433637055 -1.2402470367983405 92 71 41
0.12309120985885147 -0.057048817506574756 -1.2461989834700407 68 47 19
0.12119898123891887 -0.056327516202310135 -1.252059082994235 68 47 20
0.11386248529219073 -0.053222747650398056 -1.2605042572131204 68 48 23
0.10994290083699276 -0.05161466433298978 -1.2673632262407437 55 36 16
0.10866107348179732 -0.05116176101313197 -1.272987599814354 46 27 12
0.10473706140251438 -0.04955255223053215 -1.279886329688994 57 40 21
0.1008573096866337 -0.04796317740139061 -1.2867852157004205 64 49 29
0.10025396978944345 -0.047808159852638726 -1.2921267132885206 31 17 3
0.10060955939043437 -0.04807296201012154 -1.2970131734905617 39 24 7
0.10157450954023672 -0.04860450820007517 -1.3016088892838504 62 47 27
0.10210556751940864 -0.04894628008492055 -1.3064190154595308 65 49 30
0.1036638098162086 -0.04973752032536807 -1.3107309062238757 56 38 18
0.10607910259064357 -0.05090367893403594 -1.314622268349614 67 51 32
0.10470498734088152 -0.05041231065878371 -1.320380245956948 40 28 17
0.10308816593938691 -0.04981505011858117 -1.3262702832809956 30 20 12
0.10746928958567453 -0.051841041475229915 -1.3291913405353146 31 20 14
0.10316638408771633 -0.0500695399339903 -1.3364360292904849 35 25 16
0.10380151482263061 -0.05045759274643616 -1.3412300237986807 62 51 38
0.1068323062871932 -0.05189308897616643 -1.3448233885326764 81 66 47
0.10970532176553432 -0.05325950500239229 -1.3484913527370517 125 103 79
0.11257584864933906 -0.05462473711795132 -1.352156124637599 92 67 44
0.11526880516389576 -0.055912263835226156 -1.3559067787333468 148 125 103
0.11927890273705388 -0.057775326421805134 -1.3589810404451166 169 145 115
0.12328186022346865 -0.05963507687780223 -1.3620500647254459 137 112 79
0.12625315538175336 -0.06104386476411333 -1.3656410488172392 174 150 119
0.13033221020296681 -0.06293652102423872 -1.3686549864466957 178 154 122
0.13385344678972078 -0.06458529423945031 -1.3719489105214662 190 166 131
0.1387821137814091 -0.06684869481620723 -1.3745033434349656 153 128 91
0.14217704545143073 -0.06844193779091717 -1.3778463671901051 164 138 100
0.14692452390409683 -0.07062573014588577 -1.380473631431108 180 149 103
0.15005543778797326 -0.07210333885802589 -1.383939753300803 214 182 126
0.15468051298108265 -0.0742332388070423 -1.3866110085661985 193 163 103
0.15664536744638902 -0.07520144311085963 -1.3906812682229233 212 181 125
0.15980996662186825 -0.07669338099591896 -1.3941120296524065 197 168 119
0.16261327257992308 -0.07802748541459567 -1.3977300238314383 190 162 115
0.16434144179612492 -0.07889223049594254 -1.4019200862998042 194 166 118
0.17028719419954613 -0.08159764518607351 -1.4038405755614785 191 163 115
0.1740087174239746 -0.08333207644709437 -1.40694553364044 159 129 82
0.17698427417034612 -0.08474083792867784 -1.410446842829023 166 135 90
0.18109106566273686 -0.08664304756465357 -1.4133276488540014 145 114 73
0.1829377763709486 -0.08755907490817916 -1.417432958919686 129 104 64
0.18350899648933222 -0.08791870265838098 -1.4222366675465021 121 97 58
0.18557943773289554 -0.0889323439063657 -1.4262202737031358 122 99 58
0.18756700427022366 -0.08990980910646437 -1.430248141116597 99 77 37
0.19470729548855925 -0.09313427402409011 -1.4314202277246872 90 67 32
0.19856094682418884 -0.09492515733064397 -1.434397924880457 96 74 37
0.1944514916681267 -0.0932439524985427 -1.4418104243771692 87 66 32
0.19750057437332108 -0.09468405088523252 -1.4452373382503865 78 56 27
0.2035795175599075 -0.09744478376834842 -1.446955984645897 83 62 31
0.20965420094590842 -0.1002032794597725 -1.4486594080254938 88 66 29
0.2097762309081086 -0.10036707977836998 -1.4537146351870491 81 58 24
0.2118311403630499 -0.10137332939623064 -1.4576781962012941 77 54 21
0.2180583843663137 -0.10419759115002561 -1.4592617409178232 78 55 23
0.23476588687037986 -0.111587644561156 -1.4548312256197842 72 49 19
0.25394139343509653 -0.12005157273604414 -1.4489229819669194 73 48 20
0.23529728019874718 -0.11203948877160383 -1.4647334780248544 82 58 24
0.21834682010208273 -0.10476687665901155 -1.479647170987258 127 103 62
0.22845152835837612 -0.10927894060824786 -1.478938942621347 92 68 36
0.22710438657173937 -0.10880326943469223 -1.4848642367701164 65 44 21
0.22654878472812373 -0.10867252622409834 -1.4903394092996833 72 53 24
0.2262040692277122 -0.10863379783189947 -1.495700089547287 114 94 64
0.22420027558714378 -0.10787298074982718 -1.5020452217090297 69 48 22
0.22402750676887112 -0.10790953300756922 -1.5073244164551758 62 43 21
0.22370852049124235 -0.10788260846555184 -1.5126978837817218 55 38 18
0.2285541620807668 -0.11010356190164278 -1.5150091981508358 51 34 16
0.23212318119028785 -0.11176869330163117 -1.5180691593769389 51 34 16
0.23283284006155863 -0.11218948865839395 -1.5228330738587168 51 34 16
0.23588943086373426 -0.11363146798013674 -1.5261912869473047 50 32 16
0.22871425382710941 -0.11062217249614073 -1.5357109723900664 61 44 25
0.2325403607378067 -0.11239909525769207 -1.538613649414253 99 82 56
0.235640382975275 -0.11386002228626171 -1.5419481682550955 57 39 18
0.23824800665492668 -0.11510668035996377 -1.5455767195764845 54 37 17
0.24680433486574294 -0.11894007496843587 -1.5455667364811103 51 34 15
0.2458801112868642 -0.11865062335302148 -1.5513407179429053 55 38 18
0.2479600099099391 -0.11966749163582066 -1.5552775227384068 60 42 22
0.24906120072366794 -0.1202588618258324 -1.5598168245833637 69 47 22
0.24947878933884388 -0.12055314082398208 -1.5647819705737391 87 64 36
0.25251000429501547 -0.12198349344155693 -1.5681282683121722 85 66 43
0.2567091749711373 -0.12392130048798175 -1.5707407368866368 59 40 24
0.25609642008327377 -0.12376791146352759 -1.5763530891943818 52 34 18
0.2561495296230561 -0.12390404484927062 -1.5815571321204394 66 49 30
0.259031604862293 -0.1252693667008882 -1.5849863682850989 77 61 38
0.2674128062703056 -0.1290234184384491 -1.584935694047568 96 79 54
0.2701522242131872 -0.13032631031389286 -1.5884338035359882 110 91 60
0.2728334261370087 -0.13160382262836878 -1.5919645149653134 132 111 77
0.27889149945108993 -0.13434770717099576 -1.5933358302999001 123 104 73
0.28604503772478235 -0.13756686693732914 -1.5939872062040545 118 100 70
0.2918452065620842 -0.1401979273514672 -1.5954849135140665 127 104 73
0.29891866903108255 -0.14338138544891557 -1.596144433413944 150 122 85
0.30397876541709673 -0.1456903795450478 -1.5980830878200472 168 139 95
0.3099185343444455 -0.14838087435830566 -1.599436606149475 169 140 92
0.31181284586437935 -0.14931528062583943 -1.6034053353734714 180 152 103
0.3150022905847269 -0.15081168412535914 -1.6065272822805474 185 156 108
0.3166863249741932 -0.15165474990396752 -1.6106290974539765 181 150 107
0.32088656314985486 -0.15358947907209608 -1.6130768271388851 165 138 96
0.32582115460865085 -0.15584254248079546 -1.6150294263301221 177 152 118
0.3319634866075235 -0.15861917496764621 -1.6161689486687387 137 112 76
0.3377201698208762 -0.16122813093095323 -1.6175452391754936 93 69 34
0.3406469816358706 -0.16260947990491337 -1.6207883964450032 77 55 29
0.34380158924778026 -0.1640894883729464 -1.623873909774546 61 39 18
0.34441029436010306 -0.16446551545214527 -1.6286592926766552 60 38 15
0.3441294550933744 -0.164455996363918 -1.634047302340453 67 45 21
0.34313706952024203 -0.16413821481873117 -1.6399236447061767 70 48 22
0.3424149198227158 -0.16393781067155858 -1.645628579469983 77 52 24
0.3387620203146226 -0.16246747346145116 -1.6533334203430552 95 72 36
0.3289961270078396 -0.1583486135880479 -1.6652244790993262 119 98 57
0.3185182210924359 -0.15392231341774879 -1.6776516353889739 90 71 40
0.3098737599442954 -0.15029149155781862 -1.6888750252153693 86 67 38
0.2958213760761131 -0.14431891911000205 -1.70386165555561 84 63 37
0.2892427183402108 -0.14158510759336976 -1.7137620004476044 60 37 15
0.28846333579629946 -0.14136378596756136 -1.7196858362399547 53 33 9
0.2884139573653057 -0.1414588346367797 -1.7251138315340422 62 43 21
0.28836440133094926 -0.14155397238047032 -1.7305496394515798 58 41 21
0.28777417915202086 -0.14141518657606864 -1.736370804774503 52 35 17
0.2923993047807666 -0.14353443816105543 -1.7385477290992593 47 31 12
0.29450926332935956 -0.14456467060401917 -1.7424797159150491 55 38 16
0.2950269377226571 -0.14490568719831315 -1.7475326373602462 97 80 50
0.2970821146809957 -0.14591221085483705 -1.7515033409943899 112 92 61
0.29528278780267203 -0.1452507496376526 -1.7582072960152584 52 35 12
0.29894644800249925 -0.14695335019889194 -1.7610386812409242 54 37 18
0.30017724194737994 -0.14760322708207452 -1.765598310865896 52 34 13
0.30353573062389083 -0.14917355788445066 -1.7686363263828184 62 44 23
0.30186984057226257 -0.1485705023958624 -1.775276361460394 56 37 19
0.30565286216088206 -0.15032436368593224 -1.778004979325282 58 37 16
0.30968316313237665 -0.15218495948593336 -1.7805456343278407 73 52 24
0.31028448857951635 -0.15256266852596864 -1.7855621030413675 116 96 62
0.31556792984223936 -0.15496477048459384 -1.787178316279466 64 44 16
0.3190202933619689 -0.15657495969958515 -1.7901143414621692 75 52 27
0.31949938718122645 -0.15689979106812535 -1.7952182463318231 65 38 14
0.3123105126949272 -0.15391065036845375 -1.8059558980476451 69 41 17
0.30247029360140004 -0.14977659106846447 -1.8186855196632155 69 41 17
0.30803511977324094 -0.1523002090869554 -1.8200906436956916 72 44 20
0.3083638707563005 -0.15256118763336823 -1.825357026521939 74 46 22
0.30826934783343124 -0.15263944493174497 -1.8309441635291281 73 45 21
0.3117178774171247 -0.15424832286341728 -1.8338990192212177 71 43 20
0.31510915495953834 -0.15583230447136642 -1.8368888548462938 72 44 22
0.3192758304404381 -0.15775098486225445 -1.8392897399503925 71 44 22
0.319176238779101 -0.15782721010207995 -1.844887946678715 70 42 20
0.32949738567690273 -0.16240287818903484 -1.8426338636942388 68 42 19
0.33944018719040514 -0.16681436552670248 -1.8406269038936511 67 41 18
0.338575995077088 -0.16656007068843723 -1.8467835310859626 67 41 18
0.33902610930358745 -0.16687330076154497 -1.851951495494901 66 40 17
0.3378214294470231 -0.166472505389764 -1.858388522559814 67 41 18
0.31818996734103994 -0.1581205733837969 -1.878948593651967 67 41 18
0.32486871239135895 -0.16112268731793256 -1.8793999547202656 63 37 14
0.32315737167054714 -0.1605046970284751 -1.8862914917664706 59 34 11
0.3306232191750501 -0.16384577420543084 -1.8861085189362314 57 33 11
0.3337594364259957 -0.16531884089175605 -1.8892541576047235 55 34 11
0.3440326262576269 -0.1698697050289924 -1.8868464112222427 54 33 12
0.34349449126791115 -0.16975769180941028 -1.8928267136407688 57 35 14
0.34634030006005245 -0.17110494796912196 -1.89617178983928 57 35 12
0.34755225226757075 -0.17174770768533548 -1.9007927886793965 56 33 10
0.3487788676097882 -0.17239683837387876 -1.9054045802292792 60 35 11
0.3503758246406538 -0.17320564144622372 -1.9097265204315754 66 40 17
0.3528466624165137 -0.1743910699476052 -1.9133576895100446 67 41 18
0.3548907218762255 -0.17539251661046595 -1.9173239521204737 68 42 19
0.35060775400776245 -0.1736678267889521 -1.9263233709378254 68 41 21
0.35078553138211804 -0.17386550139714887 -1.9317907507441154 68 41 21
0.35149924616579103 -0.17429419474363134 -1.9368363558124722 68 42 20
0.3546753214246153 -0.17578356543032725 -1.9399099994028826 69 43 20
0.3528983906732141 -0.17513970493547704 -1.946964461191992 68 44 20
0.3527343163977145 -0.1751907168871742 -1.952733039208845 71 47 21
0.3572879889007396 -0.1772732079590419 -1.9546900880509812 61 37 14
0.3530805439261346 -0.17558364218525804 -1.963749102923945 54 30 11
0.35418006223168486 -0.1761791227618872 -1.9685135317778162 51 27 10
0.3550396261637309 -0.17667138815676725 -1.9734769211528358 55 32 13
0.35615241396116876 -0.1772727191856989 -1.9782369555486008 59 36 14
0.3618507669395314 -0.1798473203027702 -1.979232439655941 59 34 12
0.36381016993202075 -0.18081280453237147 -1.9832898406661121 64 39 17
0.36399111573427295 -0.18101316153828007 -1.9888157196677831 69 44 22
0.36424224097316193 -0.18124386483531074 -1.994290772275646 61 37 15
0.36575013805062556 -0.1820152613408507 -1.9987283484573337 60 37 15
0.3672520995825876 -0.18278412765246502 -2.003171909379457 65 42 21
0.3709443884057135 -0.18449485860611609 -2.005785730494012 69 46 23
0.37373121868694964 -0.1858160858122823 -2.0091491515602344 67 45 15
0.36243509133746077 -0.18108298050210014 -2.024346254104042 104 79 42
0.3661545680486792 -0.1828056104341693 -2.026946993665102 115 90 44
0.3611270636653861 -0.18076863864705997 -2.0369332726712233 154 127 79
0.35743678630457065 -0.17930703061892894 -2.045818290591634 180 157 109
0.380104626096726 -0.1891717966235909 -2.0323183013853567 97 78 37
0.37949993684558414 -0.18903563071766089 -2.0385611055644564 75 53 19
0.3876629592442698 -0.19266618913465672 -2.0373180494403242 70 47 14
0.3867645630925223 -0.192403895005848 -2.0438140349634413 68 45 14
0.3868698183171414 -0.19257292407469528 -2.0494596526302598 69 46 15
0.38380468355288677 -0.19138066652180266 -2.0578471038119406 69 46 15
0.3829463634919737 -0.1911364650038226 -2.0643494249737904 68 45 14
0.3832453739063744 -0.19138940456043305 -2.069860685189875 66 43 12
0.3882382247987249 -0.19365742464002927 -2.0712969422800853 65 42 10
0.3910936022062872 -0.19500765827173147 -2.074581347385974 85 62 26
0.39163751590693163 -0.1953657722787358 -2.079881692428321 90 67 28
0.3940748193702009 -0.1965364893049783 -2.0835273781888297 137 108 62
0.39307397424538565 -0.19623195959715517 -2.0901931931005264 164 135 89
0.3973235256735405 -0.19818017584300646 -2.0922421850904263 116 90 49
0.3993827458060653 -0.1991885736601327 -2.0962157905763683 87 65 27
0.4021206796332522 -0.20048803724166897 -2.099585888455459 80 57 24
0.4035942061015052 -0.20124515540590188 -2.104075404005804 77 55 23
0.4053722003944309 -0.20213285477225523 -2.10829467275623 77 54 23
0.4082745979722937 -0.2035026265482621 -2.1115082493004715 81 58 27
0.4102436532390701 -0.2044721606589248 -2.1155529220451115 80 57 26
0.41235014454800134 -0.20550057866076343 -2.119472819654625 83 60 28
0.4146236846673186 -0.206600549847117 -2.123240215537505 87 64 32
0.4157345181138119 -0.20720221152207838 -2.128056130744821 79 56 24
0.4174442517420449 -0.2080605519118334 -2.13233213789643 79 56 25
0.4193348642828848 -0.2089963861415463 -2.1364437917230594 79 56 25
0.41822103247255704 -0.20864520343913054 -2.143293516076088 78 55 24
0.4261150774761115 -0.2121525017317247 -2.141923230511457 74 51 21
0.4281049880107225 -0.21313064581310123 -2.145933896005041 73 49 20
0.42655148996478803 -0.21259146322117237 -2.1532000743527746 71 48 17
0.4320836289202419 -0.21508634236769222 -2.1539523157109697 67 44 13
0.4356139164688181 -0.21672382678118182 -2.156535429561172 67 43 13
0.4390704918769163 -0.21832956291093417 -2.159177745970727 65 43 12
0.44029506816476705 -0.21897984687112165 -2.1638852844281082 71 51 19
0.44063756663017406 -0.21925271665582538 -2.1694171904784914 77 57 25
0.44189668053566455 -0.21991793516186608 -2.174099721804183 72 50 16
0.44338088626498284 -0.2206795035336898 -2.17857373846473 78 54 17
0.4453331213159934 -0.2216413054569684 -2.182609331840008 84 60 22
0.4471977046264779 -0.22256559254397548 -2.1867263173585227 87 63 25
0.45121261771549925 -0.22440946739291295 -2.188811760748614 94 71 30
0.45504681221504334 -0.2261758142742653 -2.191056648907054 99 76 36
0.4573194473878256 -0.22727428862227544 -2.194773486627455 94 70 32
0.45999495676888263 -0.22854492718325325 -2.1981039242867673 101 78 37
0.4587495824868212 -0.2281395324592308 -2.205172523105336 109 86 44
0.4617716353784511 -0.22955828243042192 -2.2081714936240378 105 82 41
0.46465552238626295 -0.23091784625379755 -2.211296385559938 105 83 42
0.469545485425261 -0.2331344163852853 -2.212484726765419 108 84 44
0.47275632312112864 -0.23463328758427685 -2.2152769660494545 117 93 54
0.4768313250608837 -0.23650112728978198 -2.217225399799141 106 84 45
0.47960233879658065 -0.23781176687030997 -2.2204266319273698 107 86 44
0.48251397475340424 -0.23918234051729287 -2.223485607183849 105 84 41
0.48360380807668163 -0.23977488706275327 -2.2283151347817527 95 73 33
0.4865985747367182 -0.24118078550380032 -2.2312851011912613 97 75 36
0.49017265378108155 -0.24283383599763345 -2.2336803941112877 104 82 42
0.4942288953574301 -0.24469247477658881 -2.235591978213302 105 84 42
0.4970681068380625 -0.2460314622085276 -2.2386909376293027 110 89 46
0.49994876164332763 -0.24738800633944852 -2.2417430289128983 118 99 60
0.5009035567727895 -0.24792274380444523 -2.2466973533975465 96 82 54
0.4985212484080653 -0.24703396929482796 -2.2549711642981376 78 65 46
0.49367700713906515 -0.24509554537184952 -2.2657189295175835 86 75 59
0.495502439938521 -0.24600236922084232 -2.2698395240732876 111 104 92
0.4922849127974284 -0.24475872932317483 -2.2790096858941 146 144 138
0.49596034526619587 -0.24645459844919393 -2.281284898031669 175 174 174
0.4997815987966663 -0.2482124098666808 -2.2834029791467376 190 190 192
0.48826907468283 -0.24343387551707468 -2.300987026259736 198 198 200
0.4936361781054599 -0.24585092109475912 -2.30155904460166 203 203 205
0.48378732477485875 -0.24178340702089832 -2.317550573968698 205 205 207
0.48485365881077874 -0.24236800277326076 -2.3224995232807943 208 208 210
0.47860146572721823 -0.23983479065996738 -2.334916648921591 209 209 211
0.4781501737312459 -0.23977349925458113 -2.341444156786566 210 210 212
0.5627285796264376 -0.275927550000599 -2.260802620595957 210 210 212
0.5658936136835919 -0.27740188255275117 -2.263408790981124 211 211 213
0.5640759299372142 -0.2767544238163713 -2.271142416494471 212 212 214
0.5797076297174237 -0.2835362301735 -2.2608638363748117 212 212 214
0.5853117496528581 -0.28604788123015645 -2.2608990277864165 213 213 215
0.5881261703780234 -0.28737171870052197 -2.2638107135075107 213 213 215
0.5929894382142854 -0.2895673371488694 -2.264582544895059 213 213 215
0.5976295746661968 -0.2916676393774198 -2.2655700844206828 213 213 215
-0.1561337239565997 0.090660801835506 0.01619492506401503 177 177 177
-0.16141081980151312 0.0929321681598662 0.01239268904895803 177 177 177
-0.17369417956401992 0.09833216491613053 0.008623929072778536 176 176 176
-0.23205619017372658 0.10346402463075452 -0.9323320692481177 178 178 180
-0.1985531755630215 0.08862545075288289 -0.9270003396486077 178 178 180
-0.15140626695921894 0.06779245750380702 -0.9173162924133753 177 178 179
-0.1267623165399741 0.0568525835320689 -0.9145188376951183 177 176 172
-0.10597098770328173 0.04760745519165624 -0.9128557465095113 135 126 117
-0.09325203573924246 0.04191084124749592 -0.9136808679442674 125 111 92
-0.08380690770116023 0.03765348160480558 -0.9155095806530319 89 72 47
-0.07168009365435402 0.03221854811135319 -0.9164549745373095 96 81 53
-0.06169238871004046 0.027724103562555308 -0.9180523593675138 108 93 64
-0.05698743550083274 0.02555077808813344 -0.9213280755982405 85 68 42
-0.0475864034817185 0.021315064612570933 -0.9230686494391369 100 80 52
-0.041628522533035506 0.018592106408125225 -0.9259069702715963 109 88 57
-0.036020581160644716 0.016023144903369146 -0.9288456138229342 117 95 64
-0.0367371672783085 0.016231621573534166 -0.933857110472094 88 69 38
-0.035112566432595194 0.015411972180374073 -0.9381006436010839 82 64 38
-0.03427296900119986 0.014936956680815794 -0.9426060958149205 78 60 36
-0.03310081857598307 0.014315886635229036 -0.9470031275508911 96 79 54
-0.029097264818738533 0.012451919865953065 -0.9504486125892726 89 72 46
-0.03991738833804109 0.017094472804953575 -0.9589031676343895 81 64 38
-0.039709890138542925 0.01689629221412578 -0.9636496825828171 87 70 44
-0.041131025263590304 0.01741270362217609 -0.968958220216164 81 64 38
-0.028122977883846267 0.011597340673683537 -0.9693194533110612 95 78 52
-0.0295144446852858 0.012100807076109554 -0.9746144922193378 88 71 47
-0.037810184302245475 0.01563310168927934 -0.982316624585652 87 70 46
-0.02998526617851921 0.012092733379391013 -0.9844303399861402 108 90 64
-0.03116596480690137 0.012503117893411242 -0.9896797892819045 84 64 39
-0.03805217436225994 0.015415759775252558 -0.9969493043141185 52 34 9
-0.04547442796204154 0.018562827972271184 -1.0044385468630446 52 35 9
-0.05567070286367498 0.022925679776620606 -1.012946586775805 57 39 14
-0.06379377914647039 0.02637852624286191 -1.0207550360411208 51 35 10
-0.07008639134740674 0.029028034863236712 -1.0279403124302948 43 28 5
-0.07342792457111869 0.030383124804484324 -1.0340883171808266 42 27 7
-0.07468537858007918 0.03082421053640244 -1.039498115242649 42 26 7
-0.07858106414459481 0.03242149311461595 -1.0458801471543497 51 35 14
-0.07874874015292943 0.03238436006664713 -1.0509165372669302 55 38 18
-0.07791243348224969 0.031907073491643234 -1.0555901924372189 49 33 14
-0.07997147282880718 0.03269850922457146 -1.0613377653251626 51 34 15
-0.07955116887689151 0.032403248718864325 -1.0661775793366246 48 31 11
-0.08704048093255173 0.035573403432799716 -1.0739749288835954 50 34 15
-0.08923555676282963 0.03642342191703421 -1.0798191709588647 45 30 12
-0.0908469325779449 0.037017432233083236 -1.085457458338183 34 24 8
-0.08855650721480046 0.035902100924544905 -1.0896303999137549 26 17 8
-0.07983360529882211 0.03196949691862455 -1.0913545978747903 18 13 8
-0.07458240853631554 0.029557851653525813 -1.0943809050344961 9 7 2
-0.06767741223994456 0.026422276886328783 -1.0967598454614098 9 8 4
-0.06279481644791296 0.02417264568233876 -1.099900589976354 11 10 6
-0.08455443878869306 0.033587878234254465 -1.113354418039022 10 9 5
-0.07432602491896251 0.02899736705488698 -1.1144393163336401 12 8 7
-0.06100733076790671 0.023054772474950358 -1.1142854479433684 21 17 16
-0.07092016939151563 0.027281662751582475 -1.123217293013974 10 6 5
-0.06535538410774328 0.024733600863458327 -1.1260825001018484 9 6 4
-0.0698317568608458 0.026580109962592996 -1.1329149789589614 10 8 5
-0.0711285894668563 0.02703479921346802 -1.138503616139492 22 20 16
-0.07138035821840771 0.027031980002789974 -1.1436852033265614 11 10 6
-0.07302885972543643 0.02764007733805579 -1.149435354113735 20 17 12
-0.07076220326219984 0.026535153292064267 -1.153617476977588 20 19 14
-0.0711540508537537 0.026593166162738158 -1.1588757365233628 18 16 9
-0.07140406391453663 0.026588968547902353 -1.1640840634037561 26 19 8
-0.06317568221719749 0.022876623343672242 -1.165831443365275 38 28 16
-0.06034477653387327 0.0215251401222345 -1.1697731924058778 51 41 26
-0.05871874962936874 0.020700592880237317 -1.1742083582268217 52 40 23
-0.051459465792563774 0.017413037886109484 -1.1763089972106937 117 107 89
-0.05022584308169914 0.016760247309958176 -1.1808983614884365 138 129 118
-0.05055522052342554 0.016790668232510852 -1.1861432504924496 99 90 78
-0.04739949775524005 0.01529757228653586 -1.1899321385308896 130 120 97
-0.0459325708179244 0.014542697345252764 -1.1944283085593341 136 117 77
-0.04570363099401037 0.01432882466206259 -1.1994500343637184 166 143 79
-0.03367936453589426 0.008960495459439388 -1.1994589941909064 142 117 55
-0.027034627213918305 0.005943533274256868 -1.2017290040791029 131 108 55
-0.02128205598280708 0.003316755843095709 -1.204363962518233 122 101 47
-0.01578464301055188 0.0008017723814430222 -1.207094226160579 104 88 42
-0.011790805807969318 -0.001056117152962388 -1.2104614893327346 113 100 67
-0.008914582161775209 -0.002425676123209708 -1.2143062767842934 66 49 23
-0.005195649592617146 -0.004163184205907333 -1.2177791039050063 99 81 50
0.0026725917651626574 -0.0077125115142096246 -1.219425911715723 102 85 52
0.01589630020327215 -0.01359981926213269 -1.2186927520332067 104 86 51
0.024124267755037176 -0.01730498086518259 -1.2201253891015862 109 90 53
0.032943659960958604 -0.021267806901715675 -1.221271467455591 101 81 47
0.044219462251794794 -0.026302344875480693 -1.2212963534238068 102 81 48
0.05289277897578726 -0.030200139482225302 -1.222450648452116 98 81 44
0.06599570397027171 -0.03603064934475364 -1.2215881883544106 91 72 32
0.07719324898708207 -0.04102869790639094 -1.2215432727190714 109 84 44
0.08663787413048846 -0.04526104854629309 -1.222257388220215 115 88 48
0.09151912943546375 -0.04750165493820574 -1.225019186024105 132 106 67
0.10436577397557895 -0.05321714638850983 -1.2241295534106738 123 98 62
0.1088322926636236 -0.05527596801863688 -1.2270429422953284 126 102 67
0.11232032429868372 -0.0569077447708404 -1.230396702640016 135 109 71
0.1163326706219881 -0.058768054857809615 -1.2335012111615764 104 76 40
0.12099465703090706 -0.060911488457324275 -1.2362952946595693 85 59 26
0.12449339694447875 -0.0625474137287036 -1.2396206285101679 99 76 45
0.12192511993011196 -0.06153778260263426 -1.2457796627651114 72 51 21
0.11457551595209309 -0.05844390452706147 -1.2542023496562664 65 44 16
0.10827173332029888 -0.05580670826530998 -1.2621656026271293 66 46 22
0.10461301091433595 -0.05432317883189963 -1.268905742547103 54 35 15
0.10191409744095598 -0.05325844561318377 -1.2752095594548967 43 26 10
0.09751333705203691 -0.05145238449121187 -1.2823429650590463 48 33 16
0.0974335351454792 -0.051529818135944566 -1.2874274730575925 52 38 22
0.09795528711530516 -0.05186952188303645 -1.2922291803923631 33 19 8
0.09873882777419285 -0.05232338616917384 -1.2969088906071593 37 21 6
0.09913564479631398 -0.05260885282215705 -1.301779810743866 61 46 27
0.09953256844620634 -0.05289447782924572 -1.3066557115285586 52 36 18
0.09955434647518102 -0.0530168142280196 -1.3117201293201837 61 43 23
0.10099263957056359 -0.05375622058221624 -1.3160955392149996 56 39 21
0.09933012944814751 -0.05314530999627798 -1.3220004270154035 35 24 12
0.10172609016698114 -0.05430190151415151 -1.3259100538358275 34 23 15
0.10215981405453939 -0.054604086058046925 -1.3307918183883254 33 22 16
0.1002523266478238 -0.05388712769985993 -1.3368460217448326 36 25 16
0.10270973934907701 -0.05507056473381364 -1.34072915172455 84 73 58
0.10306646026021848 -0.055339576755951664 -1.345665097672188 88 72 51
0.10594308405932262 -0.056705428716270934 -1.3493351411625623 94 73 48
0.10881741479180074 -0.05807018362481653 -1.3530018867996598 131 110 85
0.1116888593849586 -0.05943358351551134 -1.3566656406647848 87 67 53
0.11455801478340538 -0.060795888295404166 -1.3603261062280805 78 60 42
0.11883309190476116 -0.06276974283628231 -1.3632619964409958 99 81 60
0.122010695679451 -0.0642659661867866 -1.3667522201567401 107 87 64
0.1265194257461546 -0.06634105710800686 -1.3695497796332359 139 118 89
0.13035418452111414 -0.06812278120691562 -1.372685608149187 158 135 101
0.1349087790744875 -0.07021736265732934 -1.3754388582709436 148 122 90
0.13933614859918086 -0.07225637542874566 -1.3782474160775389 186 160 122
0.14379959890658517 -0.07431083965007251 -1.3810264498700948 196 165 119
0.14871994152765677 -0.07656369716868636 -1.3835544374596611 185 152 99
0.15302366733849881 -0.07854822846691309 -1.3863952936436106 200 169 114
0.1556764849365121 -0.07981494781290135 -1.3901005827993622 227 197 145
0.15855067720241595 -0.0811777975214574 -1.39368442863426 213 183 130
0.1620950718690029 -0.08283179690689174 -1.3969059655868734 187 158 110
0.1633144199570145 -0.08347533364320375 -1.4013657642018575 197 170 120
0.16789083727565474 -0.08557751098120528 -1.404022473980611 213 186 138
0.17261156317302284 -0.08774212934953199 -1.4065899471841672 175 146 101
0.17684259507008976 -0.08969375999911675 -1.4094106975581835 172 143 97
0.17877335715516457 -0.0906460371921601 -1.4134718600900038 144 113 74
0.17787319562844656 -0.09036879713546025 -1.4190766337324392 134 108 68
0.1769275529867268 -0.0900720358148285 -1.4247166375240288 134 111 69
0.17856810862561823 -0.09089849000428574 -1.4289458659458727 128 104 63
0.18036367065092657 -0.0917922496964611 -1.4330898390570055 93 71 32
0.19371489504077205 -0.09770268673552418 -1.4308366808528872 88 65 31
0.19461247807568854 -0.09820611449003905 -1.4354556899824384 96 74 37
0.19361629269736536 -0.0978876354718014 -1.4411337698854532 90 68 32
0.19485822537782532 -0.09854073664067423 -1.445570261368413 73 51 17
0.19983125129037538 -0.10081300181245711 -1.4479133102666741 88 65 32
0.20448877812201238 -0.10294807618594862 -1.4504210019883186 88 65 31
0.20936172914397083 -0.10517635042840343 -1.4527949302383902 77 54 21
0.21008781317977154 -0.10560534582659653 -1.4575098138573244 76 53 22
0.21587871460034563 -0.10823141969705491 -1.4593435705173647 77 54 23
0.2216416527103499 -0.11084499678062693 -1.4611767511701519 67 43 14
0.23197304718589223 -0.11543947982764818 -1.4603727118940042 71 47 19
0.22931617144500172 -0.11440094700609854 -1.4670108030641527 83 59 25
0.22989078219195053 -0.11476396219164908 -1.4717996077735853 124 101 61
0.22241667268163717 -0.11163755411097046 -1.4812590877107636 72 52 21
0.22618020157278107 -0.11338354479950158 -1.484218023126418 60 42 19
0.22329250777139975 -0.1122463112964234 -1.4910515629158385 64 45 19
0.2220855458273952 -0.11183794569776084 -1.4969190989208807 75 54 29
0.22297081202300334 -0.11233654969728052 -1.5015684634765911 63 42 18
0.22002643364893326 -0.11117575222495873 -1.5084803603181864 64 45 22
0.21772754008999207 -0.11029505112962248 -1.5150291231762205 57 39 19
0.22356587200746242 -0.11294002372183529 -1.5167605149304537 50 33 15
0.23043580772835348 -0.11603149566997842 -1.5178599996922166 50 33 15
0.2295668566280118 -0.11577046509305577 -1.523567122057325 51 34 16
0.22608550567926122 -0.11437825072124772 -1.5308527267941057 53 36 19
0.23073175670781543 -0.11650616462278421 -1.5332647870748706 61 45 24
0.23536694206185554 -0.1186290165293594 -1.5356713689159285 82 65 40
0.2399916517165438 -0.12074706285427322 -1.5380721585948163 51 33 14
0.2401025570471375 -0.12091076079394286 -1.5432072458861166 51 34 14
0.24121932159697118 -0.12151000626042169 -1.5477347836040647 55 38 17
0.2416216251386743 -0.12180007217841174 -1.5527023861085283 59 43 22
0.24330993111341964 -0.12264680491063087 -1.556884880870206 68 50 29
0.24468346756741244 -0.12335732886947331 -1.5612615341490732 69 47 21
0.24527675783887554 -0.12373028496907762 -1.5661223653821104 89 67 37
0.2489056277496728 -0.1254166394438425 -1.5691029377701236 79 60 35
0.25351151955218276 -0.1275254622777591 -1.5714667417879198 57 39 19
0.25218508700265097 -0.12706803780709017 -1.577526654826703 52 34 15
0.25587474732797355 -0.12878032919550494 -1.5804531515120033 64 47 28
0.25559740092916783 -0.12877690906847952 -1.5858676725955554 69 51 29
0.2649513536045826 -0.13293826238301604 -1.5852093736536963 81 62 37
0.2684259461574232 -0.13455692938566505 -1.5882433867671386 123 102 72
0.27089679382914483 -0.13574150215165165 -1.591907856264896 144 121 87
0.2748341085456923 -0.13755989828146886 -1.5946338506672153 105 85 53
0.2829604955867812 -0.1411886599756946 -1.5946701132560086 119 100 68
0.28809773095178653 -0.14352500266651685 -1.5965979678974709 135 111 77
0.29369771762788127 -0.14606098419380806 -1.598213158117255 143 113 74
0.3011442400411012 -0.1493944344488333 -1.5986185587719077 157 129 83
0.30479269949687 -0.15108647854298718 -1.6014616996927244 167 137 87
0.3084532193110723 -0.1527835456387318 -1.604288595026863 180 148 99
0.3122274747509343 -0.1545295503708125 -1.607032803309529 166 135 92
0.3136334567674209 -0.15525253642556697 -1.6113184815748796 173 144 108
0.31951948752297077 -0.15791019567837386 -1.6126627548023873 162 137 99
0.3239678486312171 -0.15994668422251707 -1.614936342670804 160 137 102
0.3298772592140922 -0.16261370336787057 -1.6162321442202563 142 118 81
0.33599544165339607 -0.16537044336000892 -1.6173712852464477 95 73 39
0.33942580924810545 -0.16696657345464738 -1.620279690216537 70 49 24
0.3415623516401767 -0.16800412147310562 -1.6240441296482402 57 36 16
0.34248669117847713 -0.1685184969288667 -1.6286182792524297 56 35 15
0.3418507350260817 -0.16835967104541494 -1.6342438281572536 63 42 20
0.3401689521164829 -0.16774983846378014 -1.6405841384314959 67 46 22
0.3399349637082267 -0.16776491462730847 -1.6459599610334739 65 43 18
0.32978041589228746 -0.1635008571260604 -1.6580731734218326 98 77 42
0.321734636438976 -0.16014747128567647 -1.6688026211063856 119 98 56
0.3128162372273278 -0.15641869513434856 -1.6801699115966067 88 67 35
0.3025392607685254 -0.1521051055948213 -1.6925136109975685 88 68 38
0.2855208170732906 -0.14488598695432678 -1.7095406828083004 75 55 26
0.28515725133087666 -0.1448488784828105 -1.715171226462174 72 51 27
0.2864768403320518 -0.14553752528333364 -1.7196471417059365 52 34 10
0.2870360438945988 -0.14589846852692911 -1.7246521005406796 59 41 21
0.2877752788896747 -0.1463371117100194 -1.7295368261263473 48 32 14
0.2875894047543599 -0.1463771989863211 -1.735071439306423 46 30 13
0.2910769838997721 -0.14800026494744042 -1.7380425464835798 53 37 21
0.2939510268656065 -0.14935883061439306 -1.741436729800185 45 27 11
0.29678049859875877 -0.15069808199430024 -1.7448571834818485 92 75 49
0.2943012922149236 -0.1497506332998111 -1.7520243729974154 90 70 41
0.2937770666878902 -0.1496455620246371 -1.7578241163234458 47 30 10
0.29597586824130995 -0.15071332367929388 -1.7616973226706159 50 33 15
0.2969028694085779 -0.1512334261733205 -1.7664755881632903 62 44 24
0.2993689575555777 -0.15241622931339752 -1.7701560325859154 54 36 16
0.2986977406463685 -0.15224840804053236 -1.77608498083094 54 36 16
0.30235614075104916 -0.15394442564925223 -1.7789072368535714 55 34 15
0.30430488862655114 -0.1549044470907631 -1.78295556664151 76 56 27
0.30552968813264336 -0.15555290642781808 -1.7875272932758501 111 91 57
0.3088138898767518 -0.15708753957671026 -1.7906046805335434 67 47 20
0.3107824335510793 -0.15805597658504772 -1.7946340279743946 76 53 26
0.307611093141597 -0.1568132944279094 -1.802420197012287 67 39 15
0.3022595054025594 -0.15463330061064975 -1.8118271834340849 69 41 17
0.29948250473387544 -0.15356129980781597 -1.8193719352755098 70 42 18
0.3074482443666673 -0.15710949042066566 -1.8190101351180186 71 43 20
0.3078508382729425 -0.15740502568038922 -1.8242178727631224 72 44 22
0.3074296792641241 -0.15734653338218818 -1.830043061878436 71 43 22
0.3048131910228509 -0.15634451955630846 -1.8375126027966715 69 41 19
0.3077066965097936 -0.15771132060686616 -1.840886391917234 66 39 18
0.3123388698023256 -0.15982525386867155 -1.842952362033677 71 44 23
0.316049850654662 -0.16154302736222562 -1.8456973417990699 70 43 21
0.3224991329878052 -0.16443719958286504 -1.8463694773930945 68 42 19
0.3301848955164865 -0.16786212500785413 -1.8460853958995975 67 41 18
0.33008202846190476 -0.1679405975782716 -1.851679708801544 65 39 16
0.33210565264870695 -0.16893264677834083 -1.8556650728131303 65 39 16
0.31977814141334765 -0.16376114142606982 -1.8705958844443131 67 41 18
0.3140374441060622 -0.16141963138463217 -1.8805514512361852 65 39 16
0.31480763233485837 -0.16187451247131088 -1.885544967507212 62 36 13
0.31794927441988624 -0.1633476206528595 -1.8887176747737047 60 35 12
0.3228439258816727 -0.16557310971409853 -1.8905306657545902 58 34 12
0.32654361880771066 -0.16728536886703893 -1.8932542865757906 56 34 12
0.3471406741272755 -0.17624933343376234 -1.8828472829932572 56 34 13
0.3466908394540983 -0.17617966568346288 -1.888745620634897 57 35 14
0.34791785482279997 -0.17682970788098606 -1.8933440427359143 57 35 12
0.348826424746 -0.17734318032510055 -1.898194191667783 58 35 12
0.35104330811947 -0.17841796071413865 -1.9020200097670925 61 36 13
0.35380570209180484 -0.1797266678479724 -1.9054135723097463 64 38 15
0.35365327621842463 -0.17978520100503453 -1.9111061792621213 66 40 17
0.3551230363280156 -0.1805395423991316 -1.9155214727719416 68 42 19
0.35498850740758753 -0.180606050638987 -1.9212134115652015 68 41 22
0.350026998610162 -0.17860337469984947 -1.9307629803998425 68 41 21
0.34455366999355663 -0.1763819957140144 -1.9407530229086278 68 42 20
0.3437989689927086 -0.1761837979543274 -1.9469920170285189 67 42 18
0.34589892119802246 -0.17720923205934508 -1.9509463020902391 68 44 17
0.34937297148631397 -0.17882343114202748 -1.9537902730011474 74 50 22
0.35513585185970153 -0.18141809689796273 -1.9547741409074573 68 44 18
0.3542341389765722 -0.18115724376612055 -1.961147006988464 59 34 12
0.3526452263964977 -0.18060230633647958 -1.9680914649958092 57 31 12
0.35406578546942236 -0.1813366516418094 -1.9725953205232243 66 41 19
0.35683620967113855 -0.1826490958086323 -1.97599571903091 75 50 26
0.35644904478062955 -0.18260938859010017 -1.98198319697435 69 43 20
0.3592337895553989 -0.1839279101162065 -1.9853693873043223 69 43 21
0.36212966705901406 -0.18529389399351048 -1.9886588034964496 71 46 23
0.3604454559604857 -0.1846993400338535 -1.9957349684096677 70 44 22
0.36519251208303455 -0.18685758025128638 -1.997486969920614 72 47 25
0.36731465962760235 -0.18789223941774585 -2.001410500901944 73 47 25
0.36735137985082117 -0.18803456273083635 -2.0070737645341263 74 49 27
0.36911660824056947 -0.18891655186804152 -2.0112974108283015 69 46 19
0.34887533742307597 -0.18038493459232 -2.0340046028890426 104 80 44
0.36367494397215694 -0.18684303917491496 -2.0273015010575213 109 85 39
0.3586257608305645 -0.18481125617743394 -2.0373023323412145 150 120 72
0.36040771777994596 -0.18570122476221715 -2.0415489647934404 171 144 100
0.3744375112735596 -0.19182776521329545 -2.0353905703084005 93 72 34
0.37724049345676186 -0.1931535539354338 -2.0387374223252115 75 54 20
0.38519674704521545 -0.19668196201061042 -2.037676423439566 73 50 17
0.38613235019450753 -0.1972091434290929 -2.042600335802529 72 49 18
0.3854345806486674 -0.19703840987643453 -2.048931415956528 73 50 19
0.38384066785405857 -0.19648503082201907 -2.0560463466656884 71 48 17
0.3843666956229066 -0.19683770915138332 -2.0613456953008042 71 48 17
0.38498558453076426 -0.197230185230702 -2.0665704224440224 69 46 15
0.387620882957542 -0.19848403112036644 -2.070048507466326 68 44 13
0.3894009152366991 -0.19937252347966802 -2.074267393676035 87 63 31
0.38909382381648644 -0.19936978340206626 -2.0803096933602467 86 64 32
0.391038044193006 -0.20032847935018766 -2.0843893129868443 99 72 33
0.3921133106106055 -0.20091619273663863 -2.0892313999252883 138 109 69
0.394690576995643 -0.20214510420090298 -2.0927532638055126 99 75 39
0.39749998888322235 -0.20347300151651868 -2.096065852325004 80 59 23
0.4000132196483047 -0.20467438860016757 -2.0996355555659942 76 53 20
0.4034409569044971 -0.20626589570195247 -2.102388867070207 73 50 18
0.4043216256531589 -0.20677056096967106 -2.107403120024564 76 53 22
0.4063180874934189 -0.20775128855537495 -2.111424676284914 84 61 30
0.40866908829992243 -0.20888320451281797 -2.1151272722201773 80 57 26
0.41053237173352086 -0.2098070574550723 -2.1192649318594183 83 60 29
0.41249508893345027 -0.21077329488309512 -2.123312339829343 95 72 41
0.41480251044315486 -0.2118864724825968 -2.1270471912999556 85 62 31
0.41759042791506007 -0.21320442085936026 -2.1303439074436734 80 57 26
0.4186703118666503 -0.21379421296272152 -2.135186770533596 83 60 29
0.4230009394113294 -0.21576950554039484 -2.1370720364666864 80 57 26
0.4248660937049932 -0.2166938898396733 -2.1411960304939455 74 51 21
0.4239081079132383 -0.21641538315739445 -2.1479047893425527 75 51 23
0.42537845237338573 -0.21717169591768867 -2.1523970061657685 72 49 18
0.43055343227000736 -0.21950608422846096 -2.153479166078414 68 45 13
0.4322211264510797 -0.22034630018671544 -2.157782417730728 65 42 11
0.43529905719231826 -0.2217870768069562 -2.160780267389554 66 44 13
0.4365290521590637 -0.222440854945257 -2.165486878698151 69 49 18
0.4386461294685878 -0.22347235612817182 -2.1693701861761054 72 52 20
0.4389886368393059 -0.22374840476193572 -2.1749079471390522 75 52 19
0.44096358440577454 -0.22471942259658664 -2.178924786367154 76 53 16
0.4423744933424878 -0.2254503727412284 -2.1834697035982 81 57 19
0.4459523253142408 -0.22710341873237538 -2.1859770386128745 85 61 22
0.4476004752557533 -0.22793525343983687 -2.1902957652608914 94 71 29
0.4516612851072271 -0.2297934489384716 -2.192332167169629 98 75 34
0.4558639748757292 -0.23171172718072303 -2.1942220373101646 93 70 30
0.4590386820764263 -0.23319253339624432 -2.1970770833869877 99 76 35
0.46220965938824593 -0.23467158785201198 -2.1999282356884056 105 82 40
0.4637138608712263 -0.23544180458118857 -2.204365982654329 105 82 41
0.4662298532823141 -0.2366421764278097 -2.2078345830771107 101 79 39
0.4690590763590259 -0.2379755991038167 -2.2109979031592935 106 83 42
0.4685269272624326 -0.23788029796268775 -2.2173961074865303 115 90 51
0.47198170131004424 -0.23947948395327615 -2.2199519284762834 105 83 44
0.4777514201486094 -0.24206206539420919 -2.2202550488703316 111 90 49
0.4802208720361313 -0.2432421226453377 -2.223744472004207 107 86 42
0.480172221574648 -0.2433524680935779 -2.229683642481809 98 77 36
0.48533392688496174 -0.2456759402712701 -2.2305414029097888 95 73 33
0.48866407261283457 -0.24722122645755593 -2.2331754489303304 95 73 34
0.49073305979473203 -0.24823083635741502 -2.2370397846747627 105 83 43
0.495297388061448 -0.2502997838607541 -2.2384448107956136 112 91 47
0.4972889721623809 -0.2512763091493204 -2.242375314371256 110 91 54
0.49912267396677873 -0.2521857919155136 -2.2464606400176375 88 74 46
0.49806384535992654 -0.25186776107099945 -2.253416573456481 76 63 43
0.49742020963252365 -0.2517262232354617 -2.2599737769695123 85 74 58
0.4958901617890981 -0.2512088980942143 -2.2674278812609323 112 105 93
0.48910217451189786 -0.24846156876359932 -2.280159734929579 147 144 139
0.4953568963393896 -0.2512471022612176 -2.2798524409711742 175 174 174
0.4804971300399235 -0.2450779521954059 -2.3007581158903427 190 190 192
0.4003730603158759 -0.21123754542053225 -2.387566385604405 198 198 200
0.4793126519260683 -0.24484318057182727 -2.3139810324460117 203 203 205
0.4805209501636423 -0.24548945222933932 -2.318785674413431 206 206 208
0.4812209711488036 -0.24592035713045246 -2.3241097035402785 208 208 210
0.48684010521777926 -0.2484360138157018 -2.3244264285011065 209 209 211
0.48045544864249196 -0.24586493509740462 -2.3369868101887277 210 210 212
0.5718661705003293 -0.28472711829743014 -2.2494116855823343 211 211 213
0.5701351600897545 -0.28412346255641097 -2.2570181267061726 212 212 214
0.5762907719164239 -0.2868605453059415 -2.256521774834356 212 212 214
0.5765447720839625 -0.28709785109806063 -2.2620941834731054 212 212 214
0.5803505018069693 -0.2888392171527102 -2.2639978687981435 213 213 215
0.5849458169614027 -0.29091461108046107 -2.2650706718194056 213 213 215
0.590509302256259 -0.2933994865045516 -2.2651203850458432 213 213 215
0.594791634648459 -0.29534165228200526 -2.2664855168120464 213 213 215
0.6007806086886527 -0.2980057298937574 -2.2660516243056485 214 214 216
-0.18534215767994136 0.09902074226417303 0.016518357717267076 177 177 177
-0.1844379701544874 0.098529451251535 0.012626238386489075 177 177 177
-0.18076396413801055 0.09680552338473614 0.008711904370460877 177 177 177
-0.2451240146320044 0.10382366958434033 -0.935651782860899 178 178 180
-0.21178388207390514 0.08911288638644854 -0.9303963753246505 178 177 181
-0.16401957983865567 0.06809070910949713 -0.9205499356067419 176 179 178
-0.1351480386044394 0.05534119821773875 -0.9164542248758177 176 177 175
-0.12084215545868238 0.048968418320842394 -0.9168448017446158 161 158 151
-0.10847343906572354 0.04344433320711932 -0.9178050145623704 117 107 89
-0.09342261047059103 0.036747458275066314 -0.9178771678772735 102 85 60
-0.08023914771844193 0.030868648963057688 -0.9185005550010589 109 92 62
-0.07095425191086113 0.026696325490700334 -0.9203367882067811 95 79 52
-0.06105902952963549 0.02225760059493448 -0.921950309411323 106 87 61
-0.05710499556413989 0.0204182778990058 -0.9254638124416645 98 77 47
-0.047869601561398245 0.01626918950512199 -0.9272469694632683 124 101 70
-0.04643019477851679 0.015530161836706219 -0.9315607284371344 97 75 45
-0.0435001325163048 0.014139252419329867 -0.9353840921639899 89 69 43
-0.042855335927409866 0.013747690560102638 -0.9399604363018834 68 50 28
-0.04216624104102923 0.013336676933598829 -0.9445256847392078 76 59 36
-0.04166144615338052 0.013006155245632922 -0.949156138700996 91 74 47
-0.03729608686117808 0.01098792812811411 -0.9524918011631758 79 62 36
-0.03719605777870505 0.010834291950995056 -0.957260811028811 92 75 50
-0.03709615270260924 0.010680582900991109 -0.9620354156318205 82 65 39
-0.03825592097460867 0.011077252290562306 -0.9672459265648407 95 78 52
-0.03749721773096376 0.010635354931239405 -0.9718076395348174 91 74 48
-0.038300874089573056 0.010876044816923613 -0.9769118091229323 78 60 38
-0.04415174910680442 0.013321684906971415 -0.9837751574334858 89 71 49
-0.04373134614911789 0.013027027223030091 -0.9884788895259222 96 77 52
-0.04334662222954594 0.012747851610032002 -0.9931996380984651 100 80 54
-0.047346260990206 0.014383592783106636 -0.9994684228856582 63 43 18
-0.05473975968493067 0.0175011298813863 -1.006957727245319 52 35 9
-0.06142308880938124 0.020307805278745206 -1.0142263310435828 55 38 12
-0.06658936651890979 0.022451365319123756 -1.0209823249884884 54 37 11
-0.0717525426847399 0.024593019475822042 -1.0277613116593924 49 32 8
-0.07638589660468992 0.026502808546226025 -1.0343733116477418 48 32 12
-0.07827432348847496 0.02721380152437039 -1.0400126410301684 49 33 15
-0.08159490381693485 0.02854964509707561 -1.0461863706856067 41 25 8
-0.07837773366827028 0.027031581484249972 -1.0499851276877805 43 28 11
-0.0834489923732133 0.02913091189629652 -1.0568268234060874 41 25 9
-0.08585350665056701 0.030065966498597413 -1.062707145713374 50 34 16
-0.08281401879178973 0.0286252259402609 -1.0665809424518113 55 39 19
-0.08221168386157729 0.028247927991930682 -1.071359373326751 52 37 18
-0.08217769580667905 0.02811848543224535 -1.076354912079187 45 32 13
-0.08772279182071319 0.030422628736479274 -1.0834574463021291 43 33 16
-0.09013259577178112 0.031358620060172704 -1.0893996579241731 26 17 7
-0.08852151369848282 0.03054059484390992 -1.0938283110839082 21 14 8
-0.08679734584444221 0.02967323978890335 -1.0982143452707023 13 10 5
-0.08607584286716913 0.0292431038674639 -1.1029852234194624 9 8 4
-0.08827119641752718 0.030084690833053235 -1.1088840904231452 9 8 4
-0.08337913828342686 0.027835988828388836 -1.1120527320581772 9 8 4
-0.08052221410364763 0.0264747347635213 -1.1160019182106629 11 8 4
-0.07965490705843575 0.025980839024717123 -1.120724739224698 18 14 10
-0.07944062405565289 0.025771494353518748 -1.1257071493295017 15 12 8
-0.07338729545534495 0.023017273068763472 -1.1283924504104805 14 10 6
-0.07360248653066137 0.022995066462906777 -1.1335456948852043 24 18 15
-0.0731439329525132 0.022679123476959884 -1.1384379492612955 24 18 13
-0.07404352310292228 0.022954805936891726 -1.1438778265940461 18 13 7
-0.07274007953816392 0.022270513306135775 -1.1484427081202215 22 15 8
-0.07220328282916616 0.021920141231157403 -1.1533185040223413 24 18 11
-0.07167479425715612 0.021573285807759357 -1.158202128052804 33 25 16
