ply
format ascii 1.0
element vertex 680
property float x
property float y
property float z
property uchar diffuse_red
property uchar diffuse_green
property uchar diffuse_blue
end_header
-0.3420518963189707 0.1406961817762811 -1.5924769042121958 125 103 71
-0.33962786519883376 0.14374448873483905 -1.6001014678256702 135 112 78
-0.3447006002406857 0.1386492742242282 -1.6015885302641468 137 114 78
-0.3510135862380645 0.1322047736533213 -1.6020325407411635 131 108 73
-0.3571785374220256 0.12591915131753612 -1.6025715562148868 142 119 84
-0.3633819231346256 0.11958977922345362 -1.6030519425362306 140 116 83
-0.370896489488693 0.11183270333589199 -1.6024126111393746 137 114 82
-0.3733273962315756 0.10960189704425949 -1.6059900392832953 101 80 52
-0.37326005336589685 0.1100882679775265 -1.6116589484773944 111 92 67
-0.37041497551472885 0.11359750841709271 -1.6196766160598526 106 88 62
-0.37078906065115674 0.11360551051042753 -1.6249996447153303 106 88 62
-0.37385204961483753 0.1106873426638485 -1.6280494226240325 104 86 61
-0.37407467980602543 0.11086067088923213 -1.6335073814644852 103 84 59
-0.36649241154518075 0.11953304267121809 -1.6456377765404415 106 86 62
-0.364144243261469 0.12250903145691172 -1.6533373024000586 99 83 62
-0.3636423804122932 0.12347554835863489 -1.6594725251367624 114 104 91
-0.3678284083382859 0.119335441417563 -1.661575522728526 201 199 195
-0.2590346933151566 0.24415246300957844 -1.8408177244597088 148 141 132
-0.2604528376051307 0.24305714365288053 -1.8457045649135448 148 141 132
-0.26435595451555205 0.2392457464556532 -1.8483297940684495 146 137 128
-0.26756190574744254 0.23619554570060403 -1.8515785686641333 144 135 125
-0.27385906266159565 0.22976443712670488 -1.8519838768855974 140 133 122
-0.2766992800680478 0.22711218069694616 -1.8555410146549947 137 128 117
-0.27761542824941604 0.22656422749439697 -1.8608668488146631 133 124 112
-0.28111878564360765 0.22318576431208415 -1.8638015145272866 132 120 111
-0.2775547217330244 0.2275410426909182 -1.8732911905257708 131 119 111
-0.2824883501933366 0.22259691445526233 -1.874891849579547 128 118 109
-0.29206835418510435 0.21256422506866746 -1.8721269994345657 124 115 106
-0.29705351642799943 0.207559653319192 -1.873624824880382 121 114 106
-0.30197644322485717 0.2026217397706719 -1.8751607446813332 121 113 106
-0.30557481596811675 0.19913343373024375 -1.8779275450941146 120 111 104
-0.3062751081788852 0.19881984538825506 -1.8834285587625081 116 108 100
-0.3108051809140025 0.19430929950982317 -1.8852945476434209 114 106 97
-0.3144484547880228 0.19076956474908982 -1.887988533373162 114 105 95
-0.31906320184256226 0.18616375142151217 -1.8897405290894673 114 105 95
-0.3304295205401851 0.17551014371650708 -1.9034393654852106 112 101 88
-0.3265873311749022 0.18018146413207556 -1.9133458811505293 109 97 83
-0.3312293169788193 0.17554114549709568 -1.915008781904809 106 94 79
-0.3340190528704013 0.17293332634363842 -1.9184659679787746 107 95 79
-0.33758865766730545 0.16946845307868952 -1.921150122250014 114 102 86
-0.3378093250890571 0.16968158494014346 -1.927121474552849 113 100 84
-0.34025163517114737 0.16745433070923704 -1.9309061086333006 114 99 83
-0.3443554593163589 0.16340071359977915 -1.9330382875513383 112 96 81
-0.3465446242387704 0.161450594627562 -1.937059389912701 111 94 78
-0.34717467530352825 0.1612144080607874 -1.942632864497235 109 93 77
-0.35138871878438566 0.1570373955571145 -1.944624986239714 109 92 76
-0.3564671331735362 0.15190842806390648 -1.945732661172759 109 92 76
-0.35777519864010826 0.1509258573836123 -1.950616876419985 110 93 77
-0.3688994631665736 0.1395968065843164 -1.9517655256178545 111 94 78
-0.36840708526883614 0.14059476233054474 -1.9584600700125576 112 95 76
-0.36891619832655104 0.1404909731637649 -1.9641464925599101 112 95 76
-0.37142879634916587 0.1381811817412184 -1.9677895507974683 111 94 75
-0.3727139546823895 0.13722310809280502 -1.9726872713437191 112 95 76
-0.3674268711845186 0.14350667322014582 -1.98435677279817 111 94 76
-0.3704972904586425 0.14058303209204426 -1.987435763428314 111 94 75
-0.3771480439133672 0.1337120916204897 -1.9867944651737997 110 93 73
-0.3772077351645427 0.13410568760393177 -1.9929736898678518 109 93 70
-0.38006708065103056 0.1314126285649473 -1.9962431272999805 105 88 65
-0.38376679229881694 0.12779203978914583 -1.9986253485951588 104 86 62
-0.38702322940715855 0.12465950845985108 -2.001459336366853 104 86 61
-0.38842131248814665 0.12357690143782962 -2.0062392500520723 104 87 61
-0.38954863360368863 0.1227932626323876 -2.011306685623337 104 87 61
-0.3921383836813519 0.12039536419229535 -2.0148281770165117 103 86 60
-0.3954172213069974 0.11723609155285536 -2.017611108207265 95 79 52
-0.3985312935849308 0.11425800054992824 -2.020558842813237 94 79 50
-0.40176572656292936 0.11114622546123448 -2.023368102194904 95 80 49
-0.4045186546180554 0.10856571492167172 -2.0266832305073046 99 83 53
-0.4058558538460985 0.10754932919727683 -2.031514142650497 98 81 53
-0.4103875411652045 0.10300173952924552 -2.032899378652732 105 87 59
-0.41161797171929376 0.10210291331236604 -2.0378391627980363 111 92 61
-0.4160853913029763 0.09762436519276385 -2.0392665443423033 111 91 61
-0.41999093410663524 0.0937659626069074 -2.0412869960542217 109 90 58
-0.42308590967115767 0.09080327617870343 -2.0441778232709296 107 87 55
-0.42282811976300533 0.0915503007792553 -2.0507332297116796 108 87 54
-0.42029082794694583 0.09482149589258448 -2.0598071161160054 106 86 53
-0.423444774240716 0.09179356180593135 -2.06263350550526 106 87 55
-0.42786805887990215 0.08735917881458855 -2.064045701973658 92 73 45
-0.43211820798131495 0.08311518438099419 -2.0656311116497506 92 74 46
-0.43655854823978996 0.0786591675874816 -2.0669871378490203 87 70 39
-0.43754844157881223 0.07802542186033395 -2.072175360474705 95 79 45
-0.4412368855307748 0.07440086965629028 -2.074346677913523 102 86 52
-0.4450142641185983 0.07067668450299541 -2.0764040786033564 111 96 59
-0.4480780980902154 0.0677426808612776 -2.0792504977905013 121 101 64
-0.4547008328604637 0.06086052746851084 -2.0780663182073984 127 104 68
-0.45410952509555846 0.061979265576869946 -2.085022782632639 121 98 63
-0.4517161122322304 0.06509886025156225 -2.0940426086135786 112 90 54
-0.45199192963315193 0.06525783171216276 -2.1000468921438897 108 86 48
-0.45253157091277957 0.06512458993773623 -2.105758714631491 105 83 44
-0.4543937391173341 0.06352331976892023 -2.1099611437570083 105 83 46
-0.4539559317050582 0.06447647382518973 -2.1168076846499013 106 84 47
-0.4550771955789012 0.06369864076384169 -2.121869563167154 107 85 48
-0.4557876271637767 0.06337757617648926 -2.1274103395255617 108 86 49
-0.4547710360319982 0.06497647234322301 -2.1349620295454628 110 88 50
-0.4567034965255886 0.06329824554812608 -2.139098758199591 106 84 43
-0.4592938608054554 0.06088829895462655 -2.14246513070326 107 85 44
-0.4602774183335117 0.060264972918818605 -2.1477065961100115 110 87 46
-0.46187663233473303 0.05895707467078143 -2.152229349874654 112 89 48
-0.46103985085210847 0.06035979393046559 -2.1596222185111413 110 87 46
-0.47482244619082165 0.04549259844505105 -2.149757482770437 108 85 44
-0.47646467803082215 0.044134333015820815 -2.154195592466704 107 84 43
-0.47790154578532007 0.04300472757070939 -2.158877622887723 104 81 40
-0.4808965934008779 0.04013977114684175 -2.1617032802680196 105 82 41
-0.4837793218213719 0.037399224888183424 -2.1646535113695844 106 83 42
-0.484236711641429 0.037360532330800555 -2.170503341358816 104 81 40
-0.4867417713171874 0.035040225204767406 -2.173898462651441 105 82 40
-0.4907379675208302 0.031057127948199592 -2.1754884792468854 107 84 42
-0.4939479768556547 0.027949435038727488 -2.178012759590749 107 84 43
-0.49669933495873414 0.02535245125105562 -2.1810822073031146 106 83 42
-0.4990036177134299 0.023253621354732856 -2.1846876078189914 107 82 42
-0.5048908042558939 0.01715643340837575 -2.183914878871983 106 81 40
-0.5016932054049734 0.0211966659022067 -2.1942326008361173 104 79 38
-0.5014182293457579 0.021976674886912795 -2.2009965613895757 105 81 40
-0.5064475301981621 0.01683469107697405 -2.2012428170075116 104 81 39
-0.5176886521235006 0.004752861259344099 -2.1937934461669397 106 83 42
-0.5186762474466509 0.00412089289869727 -2.198973783504998 107 84 43
-0.5142739390777218 0.00951213993811073 -2.2108534464948337 106 83 42
-0.5193530600443563 0.004309135563224875 -2.2109651424135794 104 81 40
-0.5232438206131984 0.0004328323901702791 -2.2125363583988067 103 80 39
-0.525043385874775 -0.0011062369998048327 -2.2167112030968816 103 80 39
-0.5233178981375224 0.0012973822902100363 -2.22531425456732 102 79 37
-0.5280859974438408 -0.0035620777583393326 -2.225757887203892 103 80 39
-0.5314626149634611 -0.006866109576982304 -2.2279371320664594 105 81 41
-0.5384917365454234 -0.01425939076283217 -2.2254735913975683 103 79 41
-0.5398165233004069 -0.015269129310745588 -2.2302217931542017 101 79 40
-0.5422249602935332 -0.017492250862297387 -2.233590419868186 96 76 36
-0.5415647342840866 -0.016278535106810432 -2.2408765619021516 96 78 39
-0.5421003342723079 -0.016403394023380646 -2.246645938735765 92 73 40
-0.5430304717229073 -0.01696982226426441 -2.25191577461488 76 55 29
-0.5439614448120063 -0.017536825269372947 -2.25718944987477 70 50 30
-0.5445557862055865 -0.01772603118562227 -2.262903428267586 85 73 54
-0.5481184924626157 -0.021243658718413716 -2.2647747318448057 114 106 93
-0.5560581924179118 -0.029672279318907535 -2.260938004323277 142 137 130
-0.5553586984716176 -0.028410942858601906 -2.2683237474937794 165 164 162
-0.5592772440184817 -0.0323311951264359 -2.2696851837632006 181 181 184
-0.5623776096677613 -0.03533425503398824 -2.2721026487437155 190 190 194
-0.5604094685890021 -0.032646950177563916 -2.2811774015553796 196 197 201
-0.5668321643735839 -0.03938168900982536 -2.2792076089380355 200 201 205
-0.5799354964830059 -0.05362417459566493 -2.2683617205543984 205 205 207
-0.5807597491594612 -0.0540752318347647 -2.273723017041871 206 206 208
-0.1074138166987274 0.3909826859358777 -1.6196407328989668 200 197 195
-0.12146051555527715 0.37620546435130536 -1.6152573798576495 134 127 116
-0.13661356456272322 0.36022340682019416 -1.6099798167810873 115 103 81
-0.14848889531072162 0.34779084070853294 -1.6070832835032294 120 103 78
-0.15599419176705764 0.3400947645319892 -1.607416406831881 118 102 79
-0.16937460536765536 0.32602158835854095 -1.6032826503308724 119 103 80
-0.18028579894837626 0.31462323734954967 -1.6009542558265095 119 103 80
-0.19497925553149215 0.29911558578596187 -1.59569826918108 120 104 80
-0.20831318188284859 0.28507847692976385 -1.5914069136084836 115 99 74
-0.21531640188716955 0.27791078460376295 -1.591899341091434 115 99 74
-0.22237670768773815 0.27067885123084817 -1.5923178300162624 116 100 75
-0.22260344698415124 0.2708678549939506 -1.597978778111281 116 99 73
-0.233593203775176 0.2593634775075443 -1.5953124601494078 123 106 80
-0.24271138116907426 0.24988902345433658 -1.5940480944726494 125 106 79
-0.2514655165381866 0.24080709855899673 -1.5930254216215862 124 104 77
-0.2612246901441719 0.23062955862775228 -1.5911755478735274 123 103 76
-0.26634239874036325 0.22549543337653097 -1.592926631549188 124 104 77
-0.2746875045673376 0.2168498609558782 -1.5921127160901998 119 99 71
-0.28453500958925654 0.20656717501631594 -1.590071441612322 117 98 67
-0.2929053659026462 0.19788809322421833 -1.589156529930271 123 104 72
-0.30115587601835997 0.18933654651628748 -1.5882985377111334 120 101 69
-0.3086285601410682 0.1816287529571747 -1.5880247981684292 126 107 75
-0.31431839538317197 0.17585929086030683 -1.5891488251786856 124 103 72
-0.3197171124020547 0.17040505438517126 -1.5904839163963609 129 108 77
-0.3246491796483714 0.16545738865453857 -1.5921744658927854 130 109 78
-0.3308902544336588 0.15908243494717972 -1.5927834874783044 107 88 56
-0.3359740813193434 0.15396627306523622 -1.5943081134728514 120 101 69
-0.3435671315840019 0.14611432089081364 -1.5937617636878465 121 101 68
-0.3531620275863288 0.1360779452114442 -1.5915387489270505 127 106 73
-0.34631526531394696 0.14396155170803232 -1.6028019459957439 133 109 76
-0.3521627397004858 0.13800775879276594 -1.6036288512614911 133 109 75
-0.3555831019772498 0.13469901812615395 -1.606442704900639 133 109 76
-0.3617377936699543 0.12840693655700855 -1.6069713853394718 138 113 78
-0.36707515898302573 0.1230045567346949 -1.60815555148237 117 94 64
-0.37227210088891166 0.11775376466255574 -1.6094353047708976 110 91 67
-0.3743274770054206 0.11593018065618427 -1.613334464130851 109 93 69
-0.3681441463875365 0.12310014060112923 -1.6241799923573326 105 89 65
-0.36891657170540654 0.12267873734816881 -1.6291834454215632 104 88 63
-0.3720527647505038 0.11967624577528405 -1.6321838578351855 102 86 62
-0.37075389902388056 0.12151750194695868 -1.6389550782706384 100 83 60
-0.3678045848234784 0.1251631750842017 -1.6471547630237826 102 86 66
-0.3687960947648143 0.12450452107436374 -1.6519990578700297 99 90 77
-0.2614749779075729 0.2522946732232455 -1.8850784886133805 142 134 126
-0.2648492949869993 0.24905550750129102 -1.8881900562518983 140 131 123
-0.26819731177104744 0.24584445608498104 -1.8913158132257564 136 128 119
-0.27112557153890526 0.24309378877978888 -1.8948245565785307 133 126 118
-0.27740496955966865 0.23666019985331563 -1.895176028531317 129 122 114
-0.280776454542641 0.2334204804859596 -1.8982411147477818 126 118 110
-0.2919993101852884 0.2215489870614618 -1.8938678927594146 123 114 107
-0.30026168451089047 0.21292821003924572 -1.8922453975921334 120 112 104
-0.30418244619747675 0.209079113428928 -1.8947163154374018 119 112 104
-0.3097780638103419 0.20338663916091027 -1.8955730634298011 118 110 101
-0.31425896198817194 0.1989187794851645 -1.897473756293387 117 110 100
-0.3092458570642252 0.20489737226595836 -1.9084865857971858 118 108 100
-0.31335351073633455 0.20083992636806225 -1.9107418231801796 116 106 97
-0.31776029307853854 0.19645201941433266 -1.912692220682715 115 105 95
-0.3158054503632681 0.19906800300305622 -1.9208027956467184 113 102 90
-0.3193653135845195 0.19561180892019925 -1.9235637664522187 112 100 86
-0.33082544754335685 0.1834515387965584 -1.9185915285537674 111 99 84
-0.3347653004651203 0.18049879802131563 -1.933342644634616 116 103 87
-0.33562132389663274 0.18001903964782387 -1.9387167144570085 115 100 85
-0.34229273673817395 0.1731263746163143 -1.9383201274753694 113 97 82
-0.34193077890197654 0.17398948948917825 -1.9448994224412712 111 96 80
-0.3417666561906573 0.1746352937918843 -1.9512938214342554 110 95 79
-0.344822610152084 0.17172852454548426 -1.9544709028779688 110 95 79
-0.34896984992042246 0.1676165633296891 -1.956541240472903 115 99 84
-0.35105223255957024 0.16578302147780222 -1.9606793631486923 115 98 83
-0.3589688610636776 0.15750684254395536 -1.9589083111797112 113 97 82
-0.36243375684987306 0.15414452470953172 -1.9616180747961018 112 96 80
-0.36179677085005507 0.15531278152363315 -1.968495155217569 113 97 79
-0.3628074016453759 0.15466157826703025 -1.9737030442426633 111 96 78
-0.3661173289718343 0.15146948508202923 -1.9765576496448667 110 94 76
-0.369331299040512 0.14838266450210374 -1.979500180714162 111 94 76
-0.3717887611987456 0.14613154831485625 -1.9832130693090884 110 93 75
-0.3722471739795773 0.1460908515136889 -1.9889897001031112 109 92 73
-0.37459718766317085 0.14395828875330707 -1.9928100804794213 108 91 71
-0.37440388695117954 0.14463935300712027 -1.9992747781022475 107 91 68
-0.37551492002559167 0.14387785626635025 -2.0043887333584114 105 89 65
-0.37862822534604973 0.14090029333742266 -2.007407691548936 106 88 64
-0.3825596967787272 0.13701618007867278 -2.009556866502333 105 88 63
-0.3900225180345068 0.12922034576240304 -2.0079667934643832 104 88 62
-0.3901366986870988 0.1295613111667812 -2.0141126398418234 101 85 59
-0.39257464140860354 0.12732856071217336 -2.017802543183663 94 78 52
-0.39506310520064647 0.12503943321127947 -2.0214333980451125 92 77 48
-0.3977457077842948 0.1225347073241338 -2.0248513329385687 95 80 51
-0.39981887194523 0.12070510514635524 -2.0289151352295294 104 89 60
-0.4037181775267274 0.11685032648399363 -2.031013964042721 98 82 54
-0.4072836925056902 0.11336464071207436 -2.0334575041842577 99 82 54
-0.4084834690395483 0.11250247617659953 -2.0384457781342507 110 93 63
-0.4103828860403867 0.11086419303496181 -2.0426782342834175 111 92 62
-0.41520400019290227 0.10598307862862416 -2.0437307806674583 110 92 62
-0.4206148444164124 0.1004457029685098 -2.044118528232188 109 92 60
-0.4236825574012698 0.09750817468796169 -2.047045417215651 109 90 58
-0.42204421909424067 0.09979655227935935 -2.055129066906866 108 89 56
-0.42141071706372163 0.10097032645938109 -2.0621281646923855 111 92 61
-0.42370114541901 0.09889639847993731 -2.065912851360531 97 78 50
-0.4291059117418982 0.09336094874941553 -2.0662425949560754 99 82 54
-0.4335370507686448 0.08890590321333486 -2.067628822830584 88 71 41
-0.4369708925364783 0.0855583130531824 -2.0701077480517345 86 70 37
-0.4399960584813085 0.08266430796887059 -2.0730313360602883 97 81 46
-0.4461763590132155 0.07625987008281465 -2.0724069092339183 107 91 55
-0.4493945634136449 0.07314885777876012 -2.0750835145443767 119 100 65
-0.4536956394602696 0.0688319111999105 -2.0765273799495083 128 107 71
-0.4533529794673892 0.06968275959118958 -2.0832083730174404 123 101 65
-0.45226530498754947 0.07136410874849891 -2.0907484739971975 113 91 54
-0.45011075758626196 0.07423497350398373 -2.0995218470204944 109 87 48
-0.45072748550423625 0.07402080679095091 -2.105156284667025 107 85 45
-0.45131660605309526 0.07383791539945628 -2.110829262888039 107 85 45
-0.45224402888479087 0.07327854171363801 -2.11612068763183 108 86 49
-0.4544760312832816 0.07126532946296743 -2.1199135681439887 105 83 46
-0.45505136790152273 0.07109889393908508 -2.125617058293965 104 82 45
-0.45476787830686527 0.07189076603856703 -2.132323444106766 108 86 49
-0.4563403662135424 0.07061335393535284 -2.1368850171059353 109 87 48
-0.4574371486220851 0.06986672454669668 -2.1420017510169505 105 83 42
-0.45875964008309855 0.06886848326688777 -2.1468581568946172 107 85 44
-0.4607842664022715 0.06708664815447546 -2.150892930683929 110 87 46
-0.4613712945872781 0.06690968762983446 -2.1566165634827095 111 89 48
-0.4638092199285881 0.06466625531422254 -2.160163021877749 114 92 51
-0.46196893750136375 0.0672012664161275 -2.168768012996814 110 88 47
-0.4614837784280408 0.06822403295563173 -2.175788523778971 108 85 44
-0.48513232230319686 0.0432307758380312 -2.166869402820167 109 86 45
-0.48659629451849157 0.042071581051276175 -2.1715192429862653 107 84 43
-0.48753764281301915 0.04149707643294692 -2.1767998703545337 108 85 43
-0.4925749236456751 0.036340108949936945 -2.1771354975821735 110 87 45
-0.49346146721127937 0.03582656612140367 -2.1824775599735946 108 85 43
-0.49663358245513517 0.032754935002519026 -2.1850464835540224 106 83 42
-0.49929336135519026 0.03025612028276281 -2.1882288916497545 106 82 41
-0.51346609442614 0.014862975568315562 -2.1773264385603492 108 83 42
-0.5089352029092906 0.02041497453571961 -2.1892706589328847 109 84 43
-0.5096282182828282 0.020117021045229333 -2.1948339411096915 109 85 44
-0.5071849384071767 0.02333452754396964 -2.2042724584741578 108 85 43
-0.5064694826521066 0.02461730607657575 -2.2116026418009804 107 84 43
-0.5092358989629122 0.02199719125124605 -2.2146295492182104 107 84 43
-0.5155408277659796 0.015407842850398146 -2.2132449575108475 106 83 42
-0.5206201922901456 0.010190816598913743 -2.2133558130025497 103 80 39
-0.5250942079344361 0.005651164560082023 -2.2141991082101433 102 79 38
-0.5333633391457895 -0.003149531540976136 -2.2102577348309507 102 79 38
-0.5239313248595829 0.007918018721624343 -2.22855147650291 102 79 37
-0.5280274933422797 0.003800720374856903 -2.229845909622055 104 81 40
-0.5298344078658791 0.002253300226002952 -2.2340207573049558 105 82 42
-0.5327294988075008 -0.0005167437632891403 -2.236812279263297 105 81 43
-0.5405121638069463 -0.00877978029770704 -2.2333698535419084 102 80 42
-0.5428848161702645 -0.010965362396254008 -2.236791658483725 96 76 36
-0.5429160440442065 -0.01051897089237075 -2.2432068404123586 92 73 38
-0.5432605240440975 -0.010423985712480932 -2.2492311664382854 79 59 35
-0.5441769902426592 -0.010971694015699085 -2.254527872825133 69 45 27
-0.5447547928660936 -0.011137995497809972 -2.260267170054968 74 56 39
-0.545944179911592 -0.011991995418361934 -2.2652216147863062 103 95 79
-0.5550693188341639 -0.021778683648733088 -2.259867324785209 131 127 118
-0.5585425538900955 -0.025205891698064142 -2.2618221561097442 158 155 151
-0.5620084737288235 -0.02862590817894628 -2.263772512170883 176 174 175
-0.5584550671047459 -0.024139772609291732 -2.274908390209103 186 186 190
-0.5600216234216069 -0.02541977893954439 -2.2793533780888415 194 195 199
-0.5646260840298156 -0.030123636208140125 -2.2797943129202656 199 200 204
-0.5675101612025424 -0.03288974340140216 -2.28248671604679 201 202 206
-0.5746823642493954 -0.04049191050540246 -2.279484943154894 205 206 208
-0.1200369049538137 0.38546592745811187 -1.6188196837384354 190 188 185
-0.13435980202192122 0.3703403653065367 -1.6141608720101424 122 114 101
-0.14739031729241037 0.3566158279950382 -1.6104016401779102 115 99 80
-0.160475608052421 0.34282690103029134 -1.6065379977842256 114 98 75
-0.1734990138152387 0.3291005339438555 -1.6026575265166476 120 104 81
-0.17993762257619594 0.32253891998898504 -1.603709942582523 120 104 81
-0.1898095326663662 0.3122363759144413 -1.6021210175873244 123 106 83
-0.19994858659227704 0.30163937541673974 -1.600281899817906 118 100 76
-0.20694201253553046 0.29446574809468873 -1.6008084570429055 110 92 68
-0.21675363093907485 0.28421900340795825 -1.5991349967592354 114 96 72
-0.2249857353910406 0.2756902419224343 -1.5986362483400323 117 100 74
-0.23428603972020445 0.2659942498318274 -1.5972717935901977 118 101 75
-0.24107982701610808 0.2590278235529916 -1.597815316574373 121 102 75
-0.2484519657756321 0.25142849495780584 -1.5978777782036278 124 104 77
-0.254678620834209 0.24507611091124135 -1.5988059322528878 123 103 76
-0.2684252188900614 0.23051797268866467 -1.5937898151492385 120 100 73
-0.27643193273781436 0.22221770479949282 -1.5932383090241307 124 104 77
-0.2854126196486297 0.21285172177160055 -1.5918783161577095 113 94 63
-0.29467019009473394 0.20318031737278683 -1.5902559726140262 122 103 71
-0.30263855525516026 0.19491315960590339 -1.5896191903680792 127 108 76
-0.3094349466658741 0.18792305962142244 -1.5898850147282126 125 105 74
-0.31649590728568056 0.1806417335584498 -1.589908250810597 117 96 65
-0.3215747672840935 0.17552337946237687 -1.59149967278 115 94 63
-0.3284919348712892 0.1683948468059333 -1.5915821460271284 115 94 63
-0.33279987711561704 0.16411557776164662 -1.5937546430811094 113 96 64
-0.33696619890413937 0.15998992544278495 -1.5960269218274452 116 99 66
-0.3467096367305733 0.1497655506013682 -1.5937189373010372 124 105 73
-0.35086721156615525 0.14564597836457283 -1.5959522885440813 122 102 70
-0.34757224996558655 0.14967657424235978 -1.6043143708506329 122 101 70
-0.3524463231963452 0.14477253343749688 -1.605946604141148 124 103 71
-0.35570998299587425 0.141629158168626 -1.6088965929044667 129 108 76
-0.3604271059269962 0.13689433453598504 -1.6106258075884439 127 108 77
-0.36569578978640604 0.13155435896767728 -1.6118755100206557 105 88 65
-0.3708183226334596 0.12637276218656673 -1.6132261715426566 107 90 72
-0.3706519117096359 0.12698143937454276 -1.6190087571883154 105 90 68
-0.36514419819853744 0.13344125753535785 -1.6293140496783847 105 89 66
-0.36226617465903327 0.1370233147058025 -1.6374315509926407 101 84 63
-0.36722598438374865 0.13201902165731638 -1.6389074053173789 101 84 63
-0.3655339739278822 0.13430345592304746 -1.6460417976113215 92 80 60
-0.3649547092475078 0.13536955683546048 -1.6522422680046225 98 89 74
-0.2645016560156793 0.2584971266214696 -1.9104485390564652 136 129 122
-0.3046706939373098 0.21748866586519408 -1.916061380701346 122 112 102
-0.3093197351195704 0.21282587360222954 -1.9178145169768908 120 110 99
-0.2972299948632562 0.22665350930753211 -1.9357773537563028 120 110 97
-0.3073669746093259 0.21592786998360142 -1.9322078419470707 120 110 95
-0.31273712949401544 0.2104665273842787 -1.9332365257207047 120 108 94
-0.3176968750253261 0.2054571055846113 -1.9346436428178446 119 107 92
-0.3435225514006836 0.1792498604598967 -1.9403444073694456 115 100 85
-0.338901216303322 0.1848358642378639 -1.9511848808359684 114 101 85
-0.3401654574113006 0.1839088136849278 -1.956172640418965 114 101 85
-0.34100481698511975 0.18345245563026574 -1.9615896986493135 114 101 85
-0.3435062400494845 0.18115557317838632 -1.9653372547617813 115 100 85
-0.345715439697188 0.17918202370597103 -1.96937480442701 115 99 84
-0.34845012544222664 0.17662591667838784 -1.9728759370164717 113 97 82
-0.3516359410140162 0.17356927949320006 -1.975911203612562 112 96 81
-0.35719105053176514 0.167885330052921 -1.9765186759506912 113 97 81
-0.35900154219730174 0.16635162219315464 -1.9809345303608434 111 95 79
-0.3646086528910279 0.16060709985869537 -1.9814502305073394 109 93 77
-0.3695714030095593 0.1555754405826822 -1.982604118010798 109 93 75
-0.363174541186703 0.16314640105068234 -1.995476633922915 109 92 74
-0.36587324315933833 0.16062694792697407 -1.9989716557352177 109 92 72
-0.3673317119719014 0.15948371245401133 -2.0037497321198536 109 92 72
-0.3695336372956091 0.1575151087944674 -2.0077534442494587 109 93 70
-0.37253597100444324 0.1546573371919963 -2.0109158895302057 108 92 68
-0.3761315918187521 0.15113987246644023 -2.013446628406024 105 87 63
-0.3803744039674552 0.14690238067091538 -2.0152830227002068 105 88 63
-0.3902675162769679 0.13638442745478047 -2.011133271559408 101 85 59
-0.39140501078331086 0.1355946550967923 -2.0162076239401 94 78 52
-0.3923858347996926 0.13497932002028595 -2.0214518464232007 91 75 48
-0.392307050426098 0.13554265026558915 -2.027830328252779 98 83 53
-0.39352286883994386 0.13466685842577975 -2.0328354575368053 103 88 59
-0.401584556096831 0.12617491764107397 -2.030498092269079 103 87 61
-0.4037445104398594 0.12424720066045664 -2.0344699877443797 100 83 57
-0.4113740965297983 0.11623123702885196 -2.0325333133913923 104 88 58
-0.41362802737310783 0.11419699050712218 -2.036378229267944 111 94 62
-0.41685546583635713 0.11107837424229 -2.039161477533975 113 93 65
-0.42026266095716197 0.10775873593565205 -2.0417381732485307 111 94 64
-0.4212838787651707 0.10709632675055236 -2.0469108182628317 110 94 61
-0.4244542802397662 0.10403935409337506 -2.0497312783922577 110 93 60
-0.41764020299616555 0.11211001399082149 -2.0635215236669 110 91 58
-0.41632634442119376 0.11405318762636302 -2.0713014422359057 99 82 51
-0.4224790659090838 0.10767202058037817 -2.0708397271793313 96 79 53
-0.4300594760056803 0.09969619031883364 -2.0687629365825915 89 73 45
-0.43602135836425393 0.0935229329647218 -2.0684476573549606 92 76 43
-0.4392897546570279 0.09035297895148264 -2.0711106115964677 98 82 48
-0.44350519658227344 0.08612517584614598 -2.0727016600851216 107 91 55
-0.44900761729397587 0.08045930041446281 -2.072829195503969 116 98 63
-0.45148420335802186 0.07817013857394806 -2.076339937935449 127 105 72
-0.44858033405483805 0.08188986225736644 -2.085926238969908 127 104 70
-0.4515907813626294 0.07900480732666887 -2.0888384168960923 119 96 62
-0.4451132090503015 0.08672093877236886 -2.1025302481660018 112 90 53
-0.4428839980409219 0.08969305799424832 -2.111432176086373 109 87 47
-0.4498761978325177 0.08235839110392368 -2.1098112021392197 109 87 46
-0.4522818431286606 0.08014952257445901 -2.1134161649757366 109 87 47
-0.45497960287717504 0.07761353411296568 -2.116679540034673 109 87 50
-0.4558778797242231 0.07709007123539618 -2.1220127879109723 109 87 50
-0.45640682645774094 0.07698025651913054 -2.1277787032228157 109 87 50
-0.4575877814087033 0.0761412719742739 -2.132795041024001 111 89 52
-0.4617184686014061 0.07200032452378796 -2.134378610183642 110 88 49
-0.46196630966399316 0.0722058898207103 -2.1404810214367975 108 86 45
-0.46280149318521024 0.07175434773364986 -2.1459048084996315 110 88 47
-0.4636373068092643 0.07130251776524849 -2.151333385939799 108 86 45
-0.4648045567382156 0.0704797165663022 -2.156376811232228 108 86 45
-0.4670458172987289 0.06845339477616763 -2.1601536625030255 113 91 50
-0.4660741539556364 0.07002868619403008 -2.167736136324771 112 90 49
-0.46638842287285004 0.07016338831063235 -2.1738075109712898 108 85 44
-0.4705809244755453 0.06643656406977871 -2.1817141836089826 111 88 47
-0.4863965500344066 0.049177629872970974 -2.169200011752113 109 86 45
-0.48576720272418195 0.05036916481637088 -2.1763766490698124 109 86 44
-0.48778827084845344 0.04858632950884734 -2.1803700644579256 108 85 43
-0.4923960793841051 0.043898490944903945 -2.1812290676645962 109 86 44
-0.49738443805389276 0.038781597843260684 -2.181604681760825 107 84 42
-0.4971362243207214 0.039546131646185756 -2.18833306219799 108 85 43
-0.5048660300599643 0.03134626982605304 -2.1853309089704274 108 84 42
-0.5041834799309086 0.03259886688474173 -2.192589391899658 110 85 44
-0.509064441553643 0.027597620770535902 -2.193029462996762 113 88 47
-0.5096369790286588 0.027439753315310955 -2.198754483236475 111 86 45
-0.507378389190736 0.030467045027646023 -2.2079854718670893 111 88 46
-0.5094187690146332 0.02865957748182707 -2.2119165266489897 110 87 46
-0.5105241502008406 0.027904120517628694 -2.2170066491733236 108 85 44
-0.5160394622574225 0.02218480967020592 -2.2166030910370735 107 84 43
-0.5191384904563369 0.019183960039308223 -2.219192059404693 104 81 40
-0.5238723587540682 0.014341099997817741 -2.219720325547465 101 78 37
-0.5318767084528633 0.005812332039394741 -2.216113152730628 102 79 38
-0.5260849203375864 0.012825136961927663 -2.229858318444156 103 80 38
-0.5294366672056787 0.009536819116787942 -2.232092687614978 105 82 41
-0.5339295284275635 0.004961125993690418 -2.232866772953673 105 82 42
-0.5448944836453858 -0.006914126547923727 -2.225386138101633 106 82 44
-0.5419786404760459 -0.0031386897863557306 -2.2355461911240013 104 82 43
-0.5434889482404772 -0.004354147955527743 -2.240076136829351 96 76 39
-0.5438222971574378 -0.0042414311018385 -2.246117012175163 83 64 35
-0.5439904480573045 -0.003941545373638833 -2.2523798343340977 73 52 31
-0.5456533608163026 -0.005328442955085944 -2.256724091435502 69 51 33
-0.5499288138796288 -0.009665664384179762 -2.2576863867675887 96 84 71
-0.5530148048826455 -0.012660820746406454 -2.260172757364795 121 116 108
-0.5567918537720975 -0.016437602213760227 -2.2617484277520266 148 147 143
-0.5607221648622613 -0.020388819988575946 -2.263107725462681 170 169 168
-0.5619979978684015 -0.02134071760102163 -2.267924924149611 183 181 185
-0.565373943115854 -0.02466701307422997 -2.2699870451883584 190 191 195
-0.5612563813765906 -0.019519358293999256 -2.2819028689014416 196 197 201
-0.5678118270256927 -0.02644238766007051 -2.279767772680121 200 201 205
-0.5716016125378666 -0.030238778096070285 -2.281257812941669 202 203 207
-0.1327069266205333 0.3798422262755326 -1.61790529090929 176 173 167
-0.14607603979016026 0.36570876738016306 -1.6138927176269067 116 106 93
-0.15950270825426438 0.3515074729224041 -1.6097715796173133 117 101 82
-0.17245735809541107 0.3378166751711647 -1.6059422004294972 120 103 83
-0.17912324495099918 0.33099074949110674 -1.6068288027050657 120 102 80
-0.19038023333165432 0.31914647750858915 -1.6041855618333576 123 104 79
-0.2006431101468485 0.30838445526519564 -1.6022495214913492 118 102 77
-0.21069100114863853 0.2978537130281492 -1.6004302873473297 105 90 66
-0.218257393730675 0.29003222389843697 -1.6004775128504207 112 93 69
-0.22606733703853338 0.28194186736477667 -1.6003028485594164 115 97 74
-0.23520732599726463 0.272394208391443 -1.599060087108352 113 95 71
-0.24214271259367898 0.2652548919773593 -1.5994937941994891 119 102 75
-0.24894588010118646 0.25825793760214494 -1.600000929529681 121 102 75
-0.25598452572935115 0.2510010456226772 -1.60029376560015 121 101 74
-0.2639289260797513 0.24275040938798342 -1.5998418844931948 125 105 78
-0.27956837187834443 0.22607276961552433 -1.593266535866992 114 94 67
-0.2885951494496081 0.21662974496795165 -1.5918611945445076 108 91 62
-0.2963656077399617 0.20855939367843135 -1.5914144777086312 123 105 75
-0.304203387160056 0.20041259327413566 -1.590878606950721 121 101 70
-0.3109387869944551 0.193470863556275 -1.5911916583159578 122 101 69
-0.31845438553597444 0.18567188382979274 -1.5908467832427646 121 101 68
-0.3243531439917965 0.1796424803496791 -1.5917747084382983 118 97 65
-0.33013835245596523 0.17373565909840613 -1.5927698923458842 117 96 65
-0.33543136600859447 0.16836668375339023 -1.5941415080908128 107 89 59
-0.3380380649730993 0.16594226643219265 -1.5976863220423505 115 98 68
-0.3415169255205374 0.16256066235598268 -1.600510133577241 115 98 69
-0.3464694712629599 0.15756130325778525 -1.602110403776992 113 95 67
-0.35159671188966746 0.15236872975825116 -1.603546810544132 126 105 77
-0.3553353937835885 0.14869870335409174 -1.6061131030396267 119 100 69
-0.35881007299785933 0.1453175476293522 -1.6088862919341715 126 107 78
-0.3642919447611588 0.13973147781933887 -1.6099734618359551 109 92 67
-0.36856379512842513 0.13547262933659926 -1.6120509791721032 108 92 70
-0.3594350427155591 0.1459335483417266 -1.625373332391718 106 89 69
-0.3557099683961441 0.15046195425934458 -1.6342018797392337 107 90 69
-0.36150321279043396 0.14453229197973314 -1.6350072873282029 107 90 67
-0.36211997807809443 0.14429075126025384 -1.6401834156450126 102 86 63
-0.36365620549812305 0.1430387570912844 -1.644581742771194 103 88 70
-0.3612382232297553 0.14613506665118772 -1.6523613614406085 99 89 75
-0.3699203694043407 0.13702430657240172 -1.6506405967415796 137 135 127
-0.28998729228507203 0.2418239899633034 -1.9397197657828988 127 118 106
-0.3003018310774712 0.23087342842557906 -1.9360190826370671 126 118 105
-0.3097124139432208 0.22092099581030467 -1.933144680328401 128 117 105
-0.3103014092215277 0.22074823263171356 -1.9388439943671512 129 115 103
-0.3146141380383956 0.21644535980273488 -1.9408986793995084 126 113 99
-0.3190644084144404 0.21198860249516885 -1.9428013371274666 124 110 95
-0.3318098226849229 0.19928235588365345 -1.9490046836511896 122 109 93
-0.33494481037900975 0.1962809350197175 -1.952149168761334 120 107 91
-0.3411347776970008 0.1903648203172089 -1.9584901636074823 116 103 87
-0.35479720538108955 0.17709804478980978 -1.9697589634316481 114 97 83
-0.35050131423433883 0.1823560169104464 -1.9804059761867112 114 96 82
-0.3482845898874679 0.18530394555591356 -1.988966082511261 113 97 82
-0.34957056975480516 0.18435630581181045 -1.9939593289223825 112 96 81
-0.3533335852702416 0.18065201632331557 -1.9964068024668864 112 96 80
-0.3530182304662827 0.18148675451624285 -2.003049484132983 112 95 79
-0.3580565142029554 0.17636143294263745 -2.0041626828783463 108 92 75
-0.3608999627892339 0.1736788284286649 -2.0075332336896183 109 92 73
-0.3627481474818492 0.17210431384695457 -2.0119329112627193 110 93 72
-0.3616706277338802 0.17378954924511375 -2.0193889100506617 112 94 72
-0.3684559877252514 0.16671329974867355 -2.0186198644232047 111 93 71
-0.3659594039215851 0.16998115802411468 -2.027578336947481 106 88 65
-0.3733566400782533 0.1622198659692657 -2.0261269357913236 103 85 60
-0.3904689615288945 0.14362126123693325 -2.0143569766305385 100 83 57
-0.3909404388354817 0.1435771782781629 -2.0201495968154144 98 81 55
-0.3889093880116941 0.1463258154970824 -2.0286147610099214 97 81 55
-0.3887321223784783 0.14700753923133636 -2.0351241751830624 101 84 58
-0.39005735656009516 0.14601305553385124 -2.0400358255976867 98 81 55
-0.39731036225808397 0.1384004693115904 -2.038578466178586 102 85 59
-0.40007067829392784 0.13580219052816495 -2.041927475800955 107 90 63
-0.4045336772865503 0.1313014520007812 -2.0434276368960913 109 92 64
-0.40907000446302444 0.12671734385939598 -2.044829396438284 105 88 60
-0.4135518282611767 0.12219265874254376 -2.046271070138905 109 92 64
-0.4155667161032656 0.12042396806469857 -2.0503863772954483 114 94 67
-0.41668779278253154 0.11965438379856791 -2.055477760119076 113 93 66
-0.4140519524631291 0.12308635217327951 -2.0646986493335717 112 92 64
-0.41276122086759737 0.12501597146927618 -2.07246656178214 103 84 56
-0.42013095093373193 0.11725780470959846 -2.0706844467909384 98 81 53
-0.4259753826432048 0.1112035646586898 -2.070554182542051 92 75 47
-0.43343889168227223 0.10333488052021089 -2.0685953316181847 89 74 43
-0.4374182285073486 0.09936396121952856 -2.070482344621407 96 80 47
-0.441619813311528 0.09514293575175364 -2.072104760644723 108 91 56
-0.4446777051368922 0.09220161464590554 -2.074992835503723 112 94 58
-0.447767355479066 0.08922396324161214 -2.077835382262341 118 98 63
-0.44996098815323554 0.08724964049810324 -2.0816793463461014 122 99 66
-0.4433027517226801 0.09519693506474691 -2.095541944735755 121 99 64
-0.4369473636727852 0.10280904519600931 -2.1091174562275024 118 96 59
-0.43798912459446543 0.10213012336272165 -2.11432161411718 114 92 53
-0.44188370096311136 0.09825158679286317 -2.1162703274296737 112 90 51
-0.4491108228313525 0.09063294732328947 -2.1143842882979946 111 89 50
-0.43873036827795503 0.1027706183013617 -2.1326991110078253 112 90 51
-0.45011777636699307 0.09097109031116413 -2.1324018731809753 112 90 53
-0.4548811444448951 0.0861128573365823 -2.133290074444953 113 91 54
-0.4580151698985104 0.08308314115172771 -2.1360520055673025 111 89 52
-0.46307048182449106 0.07789399229706506 -2.136561579718386 112 90 52
-0.4637839992205724 0.07758232305686269 -2.1421286378846554 113 91 53
-0.4656769975434491 0.07594532508019691 -2.146317548604386 112 90 53
-0.4673975854881717 0.07450203168694836 -2.1507075823355115 111 89 50
-0.4689814269433928 0.07321247377928419 -2.155258436644195 110 88 48
-0.47040526671872385 0.0721029209685049 -2.159999096784369 106 84 42
-0.4702669257279494 0.07275115890050399 -2.166596928816138 108 84 43
-0.4697237323510347 0.07385597899247565 -2.1736895908342264 110 87 46
-0.4713578055849213 0.07251105453303236 -2.178195813684587 111 89 48
-0.4873947736507771 0.055932943535563384 -2.1782898240272996 110 88 47
-0.49352471510353085 0.049519137888062614 -2.1773198400358784 111 89 48
-0.495280726878507 0.04803250008808696 -2.1816222448960825 108 85 44
-0.4978396237229117 0.04564067509763131 -2.1849470610750683 110 87 45
-0.5002466994630401 0.04341952594205145 -2.1884503336798975 110 87 46
-0.5076741454397092 0.03553560661498839 -2.185805386735269 109 85 44
-0.5085912872460082 0.03499306873558633 -2.191107549827834 111 88 47
-0.5120913575019954 0.03153627653331281 -2.193235837101871 114 91 50
-0.5116135822328685 0.03256823184725538 -2.20026045450557 112 89 48
-0.5073464208617835 0.03787946894273719 -2.21199120623164 114 89 49
-0.5086191419497916 0.036938033794897185 -2.216886399018019 112 88 47
-0.5110456041141517 0.03469360238107949 -2.2203474467995448 110 87 48
-0.5145263009626665 0.03125763519359043 -2.2224860413946943 108 85 44
-0.5186007763687694 0.027149605352767725 -2.2238673577271304 106 82 41
-0.521617881270751 0.02423541822433367 -2.2265589010951135 104 79 39
-0.5238656722939169 0.02219026717543421 -2.2302093296454273 103 78 38
-0.5264435483161967 0.01977145609929598 -2.2334380456272735 106 81 41
-0.5273028337515564 0.01929618586286369 -2.2388372892979054 107 83 43
-0.532901884412065 0.013458339209170278 -2.238218844825134 106 83 42
-0.5340001818514846 0.012712070110292073 -2.243307054586779 105 83 42
-0.542499831557812 0.003587353416002803 -2.2389389763627308 103 82 43
-0.5432054818630696 0.003284173130830126 -2.244510643261927 88 67 38
-0.5437829684352558 0.0031266605234038236 -2.2502536891770317 72 52 30
-0.5458699466813413 0.0012596185453406794 -2.254058204414276 71 54 33
-0.5486403164318228 -0.0013821115825167207 -2.2569755073067723 92 79 63
-0.5517327081073664 -0.004389511790782952 -2.2594665417668693 115 107 99
-0.5548196193669792 -0.007391550771188915 -2.2619535721278172 139 137 135
-0.5596177101252249 -0.012334997063632613 -2.2621978365460254 162 162 162
-0.5599589148094467 -0.012224687964757897 -2.2682472969163805 179 179 180
-0.5654115797100543 -0.017913221368523247 -2.267601715226724 189 189 191
-0.5695412094659644 -0.02210245173926223 -2.268667480756475 194 195 197
-0.5688238691421381 -0.020790887625614207 -2.2761081136811616 199 200 202
-0.5724676576315268 -0.024429982968293684 -2.277796636042154 202 203 205
-0.1328105342626652 0.38745725748998444 -1.6203444355772767 209 208 210
-0.14524999397748295 0.3743011068139386 -1.6170274637573012 172 165 161
-0.15928372548037872 0.3593937273768851 -1.6124459399962423 121 112 96
-0.17079842996790884 0.3472412012078888 -1.609705508138794 116 104 85
-0.17938984881942222 0.3382882153083874 -1.6091349286889374 119 103 80
-0.19011921266277976 0.3269886391467628 -1.6068922453807692 120 101 76
-0.19928630403828718 0.317397987300373 -1.6057964802534088 117 100 76
-0.20843585350540494 0.30782329339573566 -1.6046719379401977 109 93 70
-0.22002770637057328 0.29556650512658483 -1.601618646115986 121 101 77
-0.22777501899821062 0.28752304584610733 -1.6014896057282915 118 100 78
-0.235606902735579 0.27938410973737327 -1.6012602233572666 110 92 70
-0.2439185072151635 0.27071595785478053 -1.600621113233065 110 92 69
-0.25968461260163433 0.2538619075980684 -1.5941014731256216 122 103 79
-0.26562621810756326 0.2477883394463935 -1.595229479128002 120 100 74
-0.2746674516752174 0.23830896681732563 -1.5938858042816153 117 97 71
-0.2789357321530594 0.23406884505563463 -1.596281516593818 112 92 67
-0.28864543393965464 0.22384956607241233 -1.5943350687505398 107 89 61
-0.2983189553181721 0.2136664440866174 -1.5923710892350909 113 95 65
-0.30484970873946726 0.20693379610168539 -1.5928779692568926 117 97 66
-0.3141439785285012 0.197161085452879 -1.5911351509677467 124 103 71
-0.3208767735726468 0.19020127495651545 -1.5914143428816336 126 106 72
-0.32621120121212727 0.1847769813737112 -1.5927959863100412 124 103 71
-0.3330281732611199 0.1777202895565023 -1.5929514577628519 124 103 72
-0.33728842546501114 0.17347408051950014 -1.595161343461413 135 111 80
-0.3405977891756535 0.1702730228904165 -1.5981338067512985 132 110 78
-0.3414001707563829 0.16983042770805964 -1.6031549386856805 126 108 76
-0.3470320790911981 0.16407161093695444 -1.6042006289073367 120 102 71
-0.35362705229943475 0.15725055787550565 -1.6044262508098162 115 96 66
-0.3569856642190339 0.1539914395407527 -1.6073085402901008 123 105 76
-0.36184701409868475 0.14907620579394948 -1.6089288413354534 106 88 65
-0.3588685576029604 0.15323770081259402 -1.6227643311727618 107 90 70
-0.35728608576990994 0.1554233160083853 -1.6297875507719901 106 89 69
-0.3552684618344129 0.1580901024883292 -1.6371969055906146 104 88 69
-0.35872245016676635 0.1547251678780519 -1.6399900054462324 102 87 68
-0.35264674341404034 0.16186963979583568 -1.6508771035734475 100 88 70
-0.3597976986183353 0.15442695636739945 -1.6505210365304765 100 90 78
-0.3656152625968945 0.14845292011825661 -1.651273948764685 127 122 115
-0.2673189955640596 0.27421032473648244 -1.9585423845123022 137 128 118
-0.27140059426807017 0.27016666253026134 -1.9609752682899697 136 127 116
-0.2853639482261505 0.25512960692961817 -1.9537807722771863 133 123 111
-0.2900750677634597 0.25038077792647156 -1.9555380805552884 134 124 111
-0.29404217708973623 0.24645845332424715 -1.9580047420640951 135 123 110
-0.2977118282863096 0.2428661154498492 -1.9607491661651786 135 122 108
-0.30442477613500785 0.23588451898229096 -1.9604820957783926 134 122 107
-0.3095789209234939 0.23063633686101676 -1.9617240998230014 133 120 107
-0.31427784193942154 0.22589349297744593 -1.9633954844236994 131 118 106
-0.32265085330134635 0.2170558448167348 -1.9613919319343491 128 115 101
-0.32830420300757324 0.21124553086341574 -1.9620602986558355 125 113 97
-0.32967140793088856 0.21021057062272347 -1.9669952925302556 123 110 94
-0.3333303253266903 0.20662085260224056 -1.969629985191303 120 107 91
-0.3341155192958066 0.20623462441825352 -1.975148104122158 117 104 88
-0.34212143386129745 0.19779523122905618 -1.9733714809351979 115 103 87
-0.34557486897220063 0.1954098008713735 -1.9887867385542033 116 101 86
-0.3439895010193036 0.19767008417751752 -1.9967339942987963 115 99 84
-0.3421210431657601 0.2002481061914443 -2.004993192667446 114 98 83
-0.3437601932156034 0.19891042590309105 -2.009660885758 114 98 82
-0.3570766071219748 0.18452800060907937 -2.002257460998865 114 98 82
-0.35453872574451795 0.18785465037831217 -2.0112191120981793 112 96 80
-0.34682675567228066 0.1969660708278752 -2.0255907861261164 114 97 79
-0.350459909487681 0.1933998969408911 -2.0281845925099757 116 98 79
-0.3571888815306339 0.1863712188808106 -2.027524704565699 115 97 75
-0.3699235440002783 0.17262332636901867 -2.0205247916921785 111 93 71
-0.37009267702080706 0.17292601032890137 -2.0266888607354137 107 89 67
-0.3826970594785012 0.15931578034444005 -2.0197220948128125 103 86 61
-0.39178751438645326 0.14963253904166618 -2.016407864805195 103 86 60
-0.38946264056866026 0.15272383334796452 -2.025182804372095 109 92 66
-0.384439665497259 0.15883812799117264 -2.0368620464834875 105 88 62
-0.384857800745329 0.15886226287692395 -2.0427637234603853 100 83 57
-0.3864393223014657 0.15758383842762408 -2.0474249554355253 105 88 62
-0.3924205866200254 0.15137582679736117 -2.047349711045714 111 94 68
-0.39662053589311713 0.1471618833680377 -2.0491693710280483 113 96 70
-0.4009357864860275 0.14281737025176766 -2.0508470721369125 112 95 68
-0.4052728232337325 0.13844704453972617 -2.0524832320228006 109 92 65
-0.405854045365443 0.13828736617803644 -2.0581953321057638 113 96 69
-0.4072587386644169 0.1372045267807257 -2.063014201789933 113 95 68
-0.4104075286813622 0.13416494401339624 -2.065921816241289 112 93 67
-0.41190861287646 0.13297372547977537 -2.0706320149134765 110 92 66
-0.4169840085241847 0.12777034624204542 -2.07139882004543 103 85 59
-0.4233218739929632 0.12114768559542183 -2.070744937206558 92 76 48
-0.42950897557711537 0.11469186845687906 -2.070226585468197 91 74 45
-0.43624421296994803 0.10761792689196875 -2.0690668459031727 98 81 49
-0.4395235921584984 0.10442420219039233 -2.0717329643271443 105 89 55
-0.43621266675227593 0.10863604014212086 -2.0817724435667473 116 98 63
-0.4406937660847912 0.1040914566780699 -2.0830878777407116 118 98 63
-0.44571360580045793 0.09893961810950325 -2.0837764539603945 117 96 62
-0.4401775223056892 0.10565753216602991 -2.0963783764591573 115 92 58
-0.43351081618266035 0.113651101267703 -2.1103118966017687 117 95 59
-0.43726894249993886 0.10991941492786883 -2.112442502392235 116 94 57
-0.43671004540795233 0.11104512626176904 -2.1194847470932787 114 92 55
-0.4400833579318645 0.10774551485966943 -2.12204147383906 112 90 53
-0.43916152362200034 0.10928118564423661 -2.1295171770658237 112 90 53
-0.44081522836209247 0.10841683753957754 -2.1404825283304465 113 91 54
-0.4471763077884612 0.10174947208923346 -2.1395626012692652 113 91 54
-0.45648133122645845 0.09176158737484458 -2.1351891434305297 112 90 53
-0.4607447307111845 0.08745307523968349 -2.1366377832941286 112 90 53
-0.46249644301288056 0.08597529193245451 -2.141003974962627 112 90 53
-0.4649478835136367 0.08370824503716695 -2.1445489374642075 112 90 53
-0.4667861629809013 0.08213247912843286 -2.148809165504257 112 90 53
-0.47116649800184573 0.07768812477868442 -2.1500697129994832 112 90 51
-0.4724713137275788 0.0767135460804999 -2.154949109566349 112 90 51
-0.4745574460467243 0.07485707269628672 -2.158903748293927 104 82 41
-0.47386273239229243 0.07614055690337856 -2.166164415268391 105 81 41
-0.47314108621296985 0.07745573589774069 -2.1734736602143814 112 89 48
-0.4729680489576871 0.07815240139406437 -2.180142826284947 113 91 50
-0.4751264848813046 0.0762153716931167 -2.184025488395664 113 91 50
-0.49648098233392884 0.05307759930009581 -2.171201687333263 115 93 52
-0.495422971942597 0.05477239933745692 -2.1789084949672093 115 93 52
-0.49937544890825875 0.05080101790864111 -2.180546991158973 114 91 50
-0.5013849514041092 0.04902669424945011 -2.184536309898177 114 91 50
