ply
format ascii 1.0
element vertex 831
property float x
property float y
property float z
property float nx
property float ny
property float nz
property uchar diffuse_red
property uchar diffuse_green
property uchar diffuse_blue
property uchar class
property uchar detection
end_header
-0.1327 -0.2921 -1.6746 -0.203 -0.724 -0.659 94 75 39 0 0
-0.1372 -0.2975 -1.8691 -0.558 -0.701 0.444 77 56 27 0 0
-0.1834 -0.3601 -2.0364 -0.520 -0.744 0.420 92 69 38 0 0
-0.1871 -0.3651 -2.0432 -0.537 -0.541 0.648 90 67 35 0 0
-0.1880 -0.3663 -2.0596 -0.686 -0.613 0.392 84 64 31 0 0
-0.1940 -0.3745 -2.0633 -0.780 -0.587 0.216 85 64 32 0 0
-0.1921 -0.3718 -2.0719 -0.036 -0.957 0.288 91 68 38 0 0
-0.2276 -0.4201 -2.1646 -0.299 -0.830 0.471 100 76 35 0 0
-0.2293 -0.4224 -2.1682 -0.133 -0.797 0.589 113 89 45 0 0
-0.2337 -0.4283 -2.1798 -0.468 -0.763 0.445 110 87 45 0 0
0.1102 0.0461 -1.0594 -0.214 -0.973 -0.089 45 27 8 0 0
0.1170 0.0556 -1.0937 -0.466 -0.860 0.207 34 21 7 0 0
0.1164 0.0548 -1.0985 -0.466 -0.860 0.207 34 21 9 0 0
0.1153 0.0533 -1.1029 -0.381 -0.899 0.215 36 23 11 0 0
0.1146 0.0525 -1.1281 -0.640 -0.713 0.286 31 20 8 0 0
0.1048 0.0392 -1.1529 -0.472 -0.854 0.219 60 43 18 0 0
0.1056 0.0403 -1.1585 -0.541 -0.831 0.129 77 61 33 0 0
0.0909 0.0203 -1.1955 -0.571 -0.570 0.591 151 129 91 0 0
0.0549 -0.0289 -1.2230 -0.175 -0.164 0.971 116 96 58 0 0
0.0503 -0.0353 -1.2249 -0.175 -0.164 0.971 107 86 49 0 0
0.0157 -0.0826 -1.2774 -0.013 -0.947 -0.321 48 35 16 0 0
0.0223 -0.0733 -1.3030 -0.425 -0.863 0.274 109 94 72 0 0
0.0215 -0.0743 -1.3076 -0.425 -0.863 0.274 113 97 72 0 0
0.0122 -0.0871 -1.3213 -0.719 -0.672 0.177 70 53 26 0 0
0.0108 -0.0890 -1.3254 -0.583 -0.812 0.040 61 42 21 0 0
-0.0575 -0.1821 -1.4419 -0.609 -0.730 0.311 184 153 106 0 0
-0.0586 -0.1837 -1.4461 -0.578 -0.804 0.141 148 117 74 0 0
-0.0611 -0.1870 -1.4545 -0.572 -0.693 0.439 129 102 67 0 0
-0.1310 -0.2814 -1.7793 -0.433 -0.819 0.377 70 49 20 0 0
-0.1312 -0.2816 -1.7847 -0.505 -0.812 0.294 93 71 39 0 0
-0.1321 -0.2828 -1.7893 -0.427 -0.868 0.254 97 75 39 0 0
-0.1608 -0.3217 -1.9138 -0.241 -0.663 0.708 68 46 22 0 0
-0.1611 -0.3220 -1.9192 -0.669 -0.713 0.209 70 48 24 0 0
-0.1592 -0.3193 -1.9445 -0.311 -0.486 0.817 64 44 20 0 0
-0.1701 -0.3341 -1.9713 -0.643 -0.674 0.364 57 39 17 0 0
-0.1909 -0.3623 -2.0433 -0.614 -0.529 0.586 86 63 29 0 0
-0.1926 -0.3646 -2.0528 -0.387 -0.682 0.621 85 62 30 0 0
-0.1914 -0.3629 -2.0602 -0.677 -0.640 0.363 85 65 32 0 0
-0.2354 -0.4228 -2.1649 -0.505 -0.762 0.404 115 91 46 0 0
-0.2345 -0.4216 -2.1721 -0.462 -0.778 0.427 117 93 51 0 0
-0.2358 -0.4233 -2.1763 -0.553 -0.693 0.463 109 86 45 0 0
-0.2378 -0.4261 -2.1793 -0.568 -0.743 0.354 108 85 43 0 0
0.1049 0.0468 -1.0384 -0.428 -0.870 -0.245 48 32 14 0 0
0.1057 0.0479 -1.0439 -0.428 -0.870 -0.245 48 32 12 0 0
0.1082 0.0516 -1.0655 -0.679 -0.733 -0.037 42 27 8 0 0
0.1149 0.0608 -1.0744 -0.697 -0.704 0.139 40 26 8 0 0
0.1145 0.0603 -1.0792 -0.697 -0.704 0.139 36 22 7 0 0
0.0798 0.0132 -1.2062 -0.074 -0.841 0.536 146 123 86 0 0
0.0513 -0.0258 -1.2231 -0.175 -0.164 0.971 107 83 47 0 0
0.0466 -0.0322 -1.2251 -0.175 -0.164 0.971 113 89 52 0 0
-0.0243 -0.1289 -1.3841 -0.161 -0.641 0.750 202 174 126 0 0
-0.0476 -0.1608 -1.4118 -0.557 -0.623 0.549 153 122 78 0 0
-0.0415 -0.1523 -1.4221 -0.639 -0.262 0.723 131 101 61 0 0
-0.0533 -0.1686 -1.4330 -0.541 -0.464 0.701 176 148 96 0 0
-0.0859 -0.2129 -1.5197 -0.633 -0.636 0.442 69 47 20 0 0
-0.0871 -0.2146 -1.5239 -0.633 -0.636 0.442 71 49 20 0 0
-0.1051 -0.2391 -1.5758 -0.175 -0.883 0.436 111 89 49 0 0
-0.1064 -0.2408 -1.5799 -0.175 -0.883 0.436 85 65 29 0 0
-0.1556 -0.3083 -1.6157 -0.567 -0.672 0.477 73 54 25 0 0
-0.1589 -0.3128 -1.6335 -0.578 -0.715 0.393 74 51 22 0 0
-0.1489 -0.2987 -1.6600 -0.254 -0.708 -0.659 111 88 54 0 0
-0.1258 -0.2667 -1.7007 -0.581 -0.725 0.369 91 72 40 0 0
-0.1350 -0.2789 -1.7846 -0.484 -0.772 0.412 88 66 35 0 0
-0.1360 -0.2802 -1.7891 -0.505 -0.812 0.294 93 72 38 0 0
-0.1388 -0.2840 -1.8028 -0.597 -0.667 0.446 69 47 20 0 0
-0.1459 -0.2937 -1.8171 -0.510 -0.670 0.540 71 47 21 0 0
-0.1446 -0.2918 -1.8298 -0.625 -0.721 0.299 74 50 24 0 0
-0.1514 -0.3009 -1.8728 -0.539 -0.799 0.268 75 56 26 0 0
-0.1528 -0.3028 -1.8768 -0.496 -0.835 0.239 72 52 24 0 0
-0.1534 -0.3036 -1.8818 -0.631 -0.751 0.196 69 49 21 0 0
-0.1648 -0.3192 -1.9136 -0.489 -0.562 0.667 65 43 19 0 0
-0.1943 -0.3589 -2.0439 -0.614 -0.529 0.586 82 59 26 0 0
-0.2089 -0.3788 -2.0948 -0.464 -0.885 0.043 85 61 24 0 0
-0.2391 -0.4199 -2.1651 -0.557 -0.699 0.448 115 91 49 0 0
-0.2776 -0.4725 -2.2394 -0.549 -0.821 0.158 112 91 53 0 0
-0.2802 -0.4760 -2.2475 -0.439 -0.464 0.769 74 63 42 0 0
-0.2818 -0.4782 -2.2510 -0.562 -0.714 0.419 76 67 49 0 0
-0.2808 -0.4768 -2.2587 -0.263 -0.889 0.375 93 85 72 0 0
-0.2808 -0.4767 -2.2647 -0.774 -0.512 0.373 122 118 107 0 0
-0.2833 -0.4801 -2.2669 -0.607 -0.790 -0.089 155 153 146 0 0
0.0425 -0.0298 -1.2248 -0.220 -0.174 0.960 124 99 57 0 0
0.0384 -0.0355 -1.2271 -0.327 -0.189 0.926 127 101 63 0 0
-0.0101 -0.1024 -1.2437 -0.099 -0.993 0.065 86 67 40 0 0
-0.0308 -0.1299 -1.3819 -0.403 -0.566 0.719 183 159 113 0 0
-0.0855 -0.2047 -1.4814 -0.365 -0.660 0.656 98 75 39 0 0
-0.0903 -0.2111 -1.5244 -0.497 -0.667 0.556 73 53 24 0 0
-0.1072 -0.2340 -1.5668 -0.185 -0.853 0.488 84 63 28 0 0
-0.1086 -0.2359 -1.5708 -0.175 -0.883 0.436 98 76 38 0 0
-0.1122 -0.2409 -1.5832 -0.155 -0.919 0.363 95 76 44 0 0
-0.1625 -0.3099 -1.6336 -0.578 -0.715 0.393 76 52 24 0 0
-0.1514 -0.2944 -1.6613 -0.502 -0.516 -0.693 106 83 49 0 0
-0.1298 -0.2643 -1.7005 -0.583 -0.766 0.271 95 76 45 0 0
-0.1358 -0.2722 -1.7546 -0.224 -0.848 0.480 72 51 24 0 0
-0.1369 -0.2737 -1.7645 -0.395 -0.802 0.448 66 45 16 0 0
-0.1366 -0.2733 -1.7704 -0.537 -0.684 0.493 75 54 27 0 0
-0.1380 -0.2751 -1.7744 -0.537 -0.684 0.493 64 43 15 0 0
-0.1390 -0.2764 -1.7845 -0.484 -0.772 0.412 83 61 31 0 0
-0.1487 -0.2895 -1.8239 -0.537 -0.663 0.522 71 47 21 0 0
-0.1568 -0.3003 -1.8709 -0.197 -0.891 0.409 72 52 23 0 0
-0.1564 -0.2998 -1.8770 -0.631 -0.751 0.196 68 48 21 0 0
-0.1576 -0.3014 -1.8813 -0.715 -0.697 0.055 68 47 20 0 0
-0.1888 -0.3436 -1.9978 -0.757 -0.618 0.213 74 52 27 0 0
-0.1868 -0.3408 -2.0062 -0.412 -0.905 0.108 73 52 25 0 0
-0.1912 -0.3467 -2.0180 -0.052 -0.849 0.526 71 53 24 0 0
-0.2004 -0.3592 -2.0527 -0.388 -0.772 0.504 87 64 32 0 0
-0.2395 -0.4125 -2.1581 -0.347 -0.775 0.528 101 79 38 0 0
-0.2685 -0.4522 -2.2110 -0.431 -0.881 0.195 122 97 54 0 0
-0.2832 -0.4722 -2.2548 -0.431 -0.764 0.479 74 65 47 0 0
-0.2845 -0.4739 -2.2588 -0.463 -0.746 0.479 91 83 70 0 0
0.1069 0.0662 -1.0692 -0.630 -0.765 -0.131 39 27 10 0 0
0.1038 0.0624 -1.1286 -0.580 -0.721 0.378 26 17 10 0 0
0.0697 0.0157 -1.2047 -0.372 -0.583 0.722 135 109 62 0 0
0.0390 -0.0266 -1.2250 -0.220 -0.174 0.960 136 110 68 0 0
-0.0065 -0.0895 -1.2288 -0.014 -0.443 0.896 110 92 63 0 0
0.0025 -0.0762 -1.3382 -0.387 -0.835 0.391 75 56 30 0 0
-0.0167 -0.1025 -1.3650 -0.123 -0.791 0.599 141 117 81 0 0
-0.0882 -0.2005 -1.4771 -0.258 -0.627 0.735 101 78 44 0 0
-0.1133 -0.2345 -1.5699 -0.175 -0.883 0.436 93 69 31 0 0
-0.1146 -0.2363 -1.5739 -0.175 -0.883 0.436 101 77 38 0 0
-0.1160 -0.2382 -1.5779 -0.155 -0.919 0.363 76 55 19 0 0
-0.1171 -0.2397 -1.5822 -0.155 -0.919 0.363 98 78 45 0 0
-0.1184 -0.2415 -1.5862 -0.185 -0.740 0.647 118 93 61 0 0
-0.1472 -0.2813 -1.6000 -0.160 -0.350 0.923 153 121 71 0 0
-0.1654 -0.3063 -1.6237 -0.481 -0.757 0.443 78 56 27 0 0
-0.1661 -0.3071 -1.6337 -0.578 -0.715 0.393 73 49 21 0 0
-0.1525 -0.2880 -1.6695 -0.402 -0.606 -0.687 97 77 44 0 0
-0.1335 -0.2615 -1.7006 -0.583 -0.766 0.271 100 81 51 0 0
-0.1365 -0.2652 -1.7414 -0.469 -0.792 0.391 88 64 32 0 0
-0.1375 -0.2666 -1.7458 -0.506 -0.786 0.356 107 83 51 0 0
-0.1403 -0.2705 -1.7483 -0.336 -0.924 0.182 63 41 16 0 0
-0.1400 -0.2699 -1.7708 -0.682 -0.701 0.207 72 51 24 0 0
-0.1412 -0.2715 -1.7806 -0.643 -0.663 0.384 73 52 23 0 0
-0.1436 -0.2747 -1.7892 -0.629 -0.693 0.352 77 55 27 0 0
-0.1520 -0.2860 -1.8245 -0.350 -0.856 0.380 69 45 19 0 0
-0.1618 -0.2992 -1.8695 -0.235 -0.858 0.456 72 53 24 0 0
-0.1631 -0.3010 -1.8736 -0.235 -0.858 0.456 69 48 21 0 0
-0.1809 -0.3250 -1.9606 -0.506 -0.785 0.358 57 36 14 0 0
-0.1941 -0.3427 -2.0134 -0.526 -0.533 0.662 86 69 41 0 0
-0.1959 -0.3452 -2.0169 -0.619 -0.568 0.542 75 57 29 0 0
-0.1970 -0.3467 -2.0213 -0.788 -0.487 0.377 111 90 49 0 0
-0.2050 -0.3573 -2.0753 -0.532 -0.387 0.753 85 63 29 0 0
-0.2066 -0.3595 -2.0790 -0.688 -0.364 0.628 95 76 42 0 0
-0.2212 -0.3796 -2.1003 -0.538 -0.775 0.331 92 68 28 0 0
-0.2225 -0.3813 -2.1103 -0.328 -0.928 0.178 93 71 30 0 0
-0.2613 -0.4343 -2.1916 -0.751 -0.500 0.432 120 96 50 0 0
-0.2736 -0.4512 -2.2151 -0.647 -0.548 0.531 118 93 52 0 0
-0.2806 -0.4607 -2.2345 -0.424 -0.718 0.551 112 90 51 0 0
0.1029 0.0689 -1.0691 -0.503 -0.862 0.060 40 27 11 0 0
0.0995 0.0649 -1.1438 -0.497 -0.824 0.273 33 22 12 0 0
-0.0236 -0.1051 -1.2444 -0.066 -0.955 0.290 59 41 25 0 0
-0.0076 -0.0824 -1.3023 -0.432 -0.745 0.508 76 58 35 0 0
-0.0072 -0.0819 -1.3077 -0.447 -0.692 0.568 83 62 40 0 0
-0.0103 -0.0860 -1.3209 -0.459 -0.868 0.188 70 50 24 0 0
-0.0605 -0.1547 -1.4208 -0.439 -0.757 0.484 159 124 73 0 0
-0.0963 -0.2035 -1.5205 -0.625 -0.649 0.434 65 43 19 0 0
-0.1121 -0.2250 -1.5640 -0.293 -0.908 0.298 87 63 29 0 0
-0.1129 -0.2262 -1.5685 -0.464 -0.833 0.300 84 61 28 0 0
-0.1137 -0.2272 -1.5731 -0.354 -0.915 0.194 93 69 31 0 0
-0.1143 -0.2280 -1.5778 -0.354 -0.915 0.194 102 79 38 0 0
-0.1218 -0.2384 -1.5811 -0.071 -0.895 0.440 109 85 52 0 0
-0.1697 -0.3045 -1.6179 -0.451 -0.740 0.499 88 70 38 0 0
-0.1537 -0.2818 -1.6722 -0.553 -0.502 -0.665 92 72 38 0 0
-0.1377 -0.2593 -1.7001 -0.669 -0.615 0.417 110 91 63 0 0
-0.1378 -0.2593 -1.7110 -0.538 -0.827 0.161 83 63 30 0 0
-0.1392 -0.2612 -1.7205 -0.606 -0.733 0.310 87 67 33 0 0
-0.1438 -0.2673 -1.7431 -0.657 -0.630 0.413 103 79 48 0 0
-0.1449 -0.2689 -1.7474 -0.657 -0.630 0.413 61 39 15 0 0
-0.1449 -0.2688 -1.7529 -0.538 -0.828 0.158 82 60 36 0 0
-0.1432 -0.2664 -1.7604 -0.616 -0.589 0.523 72 50 25 0 0
-0.1560 -0.2836 -1.8242 -0.313 -0.833 0.456 75 51 25 0 0
-0.1585 -0.2869 -1.8326 -0.286 -0.761 0.582 76 54 27 0 0
-0.1603 -0.2894 -1.8362 -0.411 -0.780 0.473 75 54 27 0 0
-0.1616 -0.2913 -1.8402 -0.525 -0.710 0.468 75 54 27 0 0
-0.1661 -0.2971 -1.8690 -0.215 -0.874 0.435 73 53 25 0 0
-0.1676 -0.2993 -1.8727 -0.126 -0.849 0.512 70 49 22 0 0
-0.1688 -0.3009 -1.8770 -0.090 -0.776 0.624 69 48 21 0 0
-0.1701 -0.3024 -1.8983 -0.633 -0.673 0.383 72 50 26 0 0
-0.1718 -0.3048 -1.9076 -0.412 -0.647 0.641 71 49 25 0 0
-0.1735 -0.3071 -1.9113 -0.475 -0.660 0.582 61 39 15 0 0
-0.1775 -0.3126 -1.9178 -0.539 -0.629 0.560 64 43 19 0 0
-0.1802 -0.3160 -1.9433 -0.685 -0.652 0.325 72 52 26 0 0
-0.1824 -0.3190 -1.9520 -0.584 -0.717 0.380 85 65 33 0 0
-0.1885 -0.3271 -1.9849 -0.670 -0.684 0.289 63 43 19 0 0
-0.2059 -0.3508 -2.0380 -0.487 -0.765 0.422 81 58 27 0 0
-0.2100 -0.3565 -2.0500 -0.482 -0.751 0.451 80 57 25 0 0
-0.2097 -0.3558 -2.0800 -0.451 -0.724 0.522 96 75 44 0 0
-0.2111 -0.3577 -2.0840 -0.497 -0.702 0.511 90 67 26 0 0
-0.2135 -0.3609 -2.0867 -0.542 -0.402 0.738 141 114 62 0 0
-0.2155 -0.3638 -2.0898 -0.542 -0.402 0.738 130 103 56 0 0
-0.2250 -0.3769 -2.1003 -0.538 -0.775 0.331 90 67 26 0 0
-0.2404 -0.3978 -2.1440 -0.806 -0.447 0.388 103 80 39 0 0
-0.2710 -0.4397 -2.2008 -0.297 -0.808 0.508 126 100 59 0 0
-0.2739 -0.4437 -2.2084 -0.328 -0.746 0.580 127 100 57 0 0
-0.2784 -0.4499 -2.2196 -0.408 -0.700 0.586 117 92 51 0 0
-0.2801 -0.4521 -2.2231 -0.454 -0.700 0.552 113 88 49 0 0
-0.2813 -0.4538 -2.2272 -0.642 -0.744 0.187 111 86 49 0 0
-0.2817 -0.4542 -2.2327 -0.565 -0.793 0.229 111 87 49 0 0
-0.2846 -0.4582 -2.2343 -0.424 -0.718 0.551 112 90 50 0 0
0.0813 0.0455 -0.9206 0.027 -0.768 0.640 135 111 74 0 0
0.0788 0.0421 -0.9242 -0.113 -0.871 0.479 122 97 62 0 0
0.0773 0.0401 -0.9283 -0.113 -0.871 0.479 133 108 73 0 0
0.0899 0.0585 -1.0235 -0.369 -0.804 -0.467 46 34 12 0 0
0.0977 0.0697 -1.0531 -0.529 -0.795 -0.296 53 38 19 0 0
0.0988 0.0713 -1.0689 -0.503 -0.862 0.060 28 19 8 0 0
0.0388 -0.0106 -1.2198 -0.207 -0.365 0.908 123 96 55 0 0
-0.0190 -0.0910 -1.2302 -0.013 -0.472 0.881 113 92 67 0 0
-0.0246 -0.0987 -1.2362 -0.214 -0.758 0.616 150 127 96 0 0
-0.0145 -0.0837 -1.3206 -0.459 -0.868 0.188 68 50 22 0 0
-0.0551 -0.1395 -1.3972 -0.422 -0.632 0.650 161 127 90 0 0
-0.0578 -0.1432 -1.4002 -0.575 -0.652 0.495 177 143 99 0 0
-0.0650 -0.1530 -1.4202 -0.349 -0.764 0.543 157 120 75 0 0
-0.0962 -0.1957 -1.4819 -0.380 -0.748 0.545 91 68 36 0 0
-0.1155 -0.2218 -1.5590 -0.370 -0.830 0.417 80 55 24 0 0
-0.1169 -0.2238 -1.5629 -0.457 -0.745 0.485 85 60 29 0 0
-0.1170 -0.2238 -1.5682 -0.464 -0.833 0.300 87 61 29 0 0
-0.1178 -0.2250 -1.5727 -0.464 -0.833 0.300 93 68 32 0 0
-0.1187 -0.2262 -1.5772 -0.354 -0.915 0.194 98 76 39 0 0
-0.1199 -0.2278 -1.5814 -0.667 -0.737 -0.110 67 47 15 0 0
-0.1727 -0.3008 -1.6239 -0.522 -0.783 0.337 80 61 30 0 0
-0.1413 -0.2564 -1.7003 -0.552 -0.717 0.424 95 78 49 0 0
-0.1417 -0.2568 -1.7109 -0.538 -0.827 0.161 80 60 28 0 0
-0.1429 -0.2583 -1.7206 -0.606 -0.733 0.310 92 72 35 0 0
-0.1437 -0.2595 -1.7252 -0.606 -0.733 0.310 94 74 38 0 0
-0.1454 -0.2617 -1.7344 -0.619 -0.730 0.289 82 59 27 0 0
-0.1471 -0.2639 -1.7437 -0.520 -0.734 0.438 92 69 41 0 0
-0.1482 -0.2650 -1.7870 -0.521 -0.758 0.392 81 60 30 0 0
-0.1610 -0.2824 -1.8285 -0.322 -0.903 0.286 75 54 25 0 0
-0.1670 -0.2907 -1.8383 -0.724 -0.589 0.359 78 54 26 0 0
-0.1705 -0.2952 -1.8683 -0.318 -0.939 0.129 75 54 27 0 0
-0.1711 -0.2960 -1.8789 -0.255 -0.881 0.398 69 48 21 0 0
-0.1726 -0.2980 -1.8828 -0.363 -0.803 0.473 69 47 23 0 0
-0.1726 -0.2979 -1.8885 -0.387 -0.849 0.359 71 49 25 0 0
-0.1719 -0.2969 -1.8951 -0.266 -0.913 0.310 73 51 27 0 0
-0.1812 -0.3096 -1.9180 -0.539 -0.629 0.560 63 41 17 0 0
-0.1988 -0.3332 -2.0056 -0.623 -0.660 0.419 71 48 24 0 0
-0.2128 -0.3523 -2.0456 -0.476 -0.782 0.402 79 56 24 0 0
-0.2269 -0.3714 -2.0972 -0.282 -0.762 0.583 88 64 26 0 0
-0.2291 -0.3744 -2.1000 -0.422 -0.825 0.376 89 66 25 0 0
-0.2411 -0.3908 -2.1306 -0.527 -0.697 0.487 97 75 36 0 0
-0.2780 -0.4414 -2.2079 -0.328 -0.746 0.580 130 101 61 0 0
-0.2829 -0.4481 -2.2186 -0.652 -0.757 -0.050 119 94 53 0 0
-0.2840 -0.4495 -2.2230 -0.454 -0.700 0.552 122 97 57 0 0
-0.2854 -0.4515 -2.2267 -0.454 -0.700 0.552 117 93 53 0 0
-0.2855 -0.4515 -2.2328 -0.565 -0.793 0.229 114 91 50 0 0
0.0783 0.0493 -0.9161 -0.217 -0.908 0.358 131 104 68 0 0
0.0692 0.0374 -0.9893 -0.203 -0.924 -0.323 105 80 48 0 0
0.0849 0.0597 -1.0179 -0.527 -0.671 -0.521 47 32 11 0 0
0.0871 0.0628 -1.0241 -0.454 -0.735 -0.504 43 31 10 0 0
0.0360 -0.0063 -1.2206 -0.577 -0.430 0.694 109 86 43 0 0
0.0349 -0.0077 -1.2250 -0.719 -0.312 0.621 103 82 43 0 0
-0.0254 -0.0917 -1.2536 -0.007 -0.924 -0.381 56 41 25 0 0
-0.0445 -0.1169 -1.3778 -0.364 -0.716 0.595 187 153 113 0 0
-0.0614 -0.1402 -1.4003 -0.575 -0.652 0.495 185 155 107 0 0
-0.1066 -0.2022 -1.4967 -0.334 -0.674 0.659 72 51 23 0 0
-0.1079 -0.2040 -1.5008 -0.540 -0.694 0.476 71 50 24 0 0
-0.1463 -0.2553 -1.7045 -0.483 -0.871 0.087 78 58 30 0 0
-0.1469 -0.2559 -1.7204 -0.438 -0.836 0.331 84 64 29 0 0
-0.1477 -0.2570 -1.7250 -0.603 -0.770 0.210 61 40 9 0 0
-0.1490 -0.2587 -1.7346 -0.619 -0.730 0.289 85 61 29 0 0
-0.1499 -0.2598 -1.7392 -0.619 -0.730 0.289 74 49 19 0 0
-0.1508 -0.2611 -1.7438 -0.519 -0.747 0.417 90 67 40 0 0
-0.1518 -0.2625 -1.7481 -0.518 -0.775 0.362 57 36 11 0 0
-0.1514 -0.2615 -1.7821 -0.517 -0.756 0.401 76 55 26 0 0
-0.1593 -0.2721 -1.8124 -0.402 -0.836 0.374 64 40 14 0 0
-0.1666 -0.2822 -1.8320 -0.463 -0.698 0.546 74 51 22 0 0
-0.1681 -0.2842 -1.8359 -0.463 -0.698 0.546 77 53 25 0 0
-0.1720 -0.2894 -1.8483 -0.216 -0.779 0.588 75 55 25 0 0
-0.1755 -0.2943 -1.8555 -0.251 -0.717 0.651 74 54 26 0 0
-0.1757 -0.2943 -1.8836 -0.242 -0.870 0.431 71 49 25 0 0
-0.1757 -0.2942 -1.8894 -0.651 -0.696 0.303 71 49 25 0 0
-0.2025 -0.3302 -2.0058 -0.574 -0.653 0.493 74 50 26 0 0
-0.2038 -0.3321 -2.0099 -0.574 -0.653 0.493 75 52 28 0 0
-0.2039 -0.3319 -2.0392 -0.456 -0.842 0.290 83 58 28 0 0
-0.2182 -0.3517 -2.0494 -0.391 -0.817 0.424 79 56 24 0 0
-0.2197 -0.3533 -2.0829 0.195 -0.663 0.723 89 65 28 0 0
-0.2318 -0.3701 -2.0957 -0.485 -0.608 0.628 87 63 25 0 0
-0.2328 -0.3715 -2.1002 -0.538 -0.775 0.331 90 67 27 0 0
-0.2399 -0.3811 -2.1200 -0.473 -0.684 0.555 91 69 30 0 0
-0.2869 -0.4457 -2.2182 -0.309 -0.945 0.106 120 95 54 0 0
-0.2876 -0.4466 -2.2232 -0.508 -0.571 0.645 124 99 59 0 0
-0.2894 -0.4489 -2.2326 -0.630 -0.765 0.135 116 93 52 0 0
-0.2922 -0.4529 -2.2343 -0.576 -0.734 0.360 114 92 51 0 0
-0.2991 -0.4624 -2.2417 -0.162 -0.716 0.679 108 90 55 0 0
-0.2996 -0.4631 -2.2469 -0.451 -0.873 0.184 78 64 44 0 0
-0.3150 -0.4845 -2.2588 -0.178 -0.900 0.398 189 190 192 0 0
0.0747 0.0522 -0.9113 -0.164 -0.858 0.487 114 92 60 0 0
0.0733 0.0504 -0.9155 -0.086 -0.834 0.545 114 89 54 0 0
0.0658 0.0409 -0.9945 -0.405 -0.795 -0.453 82 63 33 0 0
0.0689 0.0475 -1.1833 -0.321 -0.725 0.609 94 78 52 0 0
0.0332 -0.0019 -1.2213 -0.450 -0.625 0.638 120 96 54 0 0
0.0315 -0.0044 -1.2253 -0.651 -0.546 0.527 104 82 43 0 0
-0.0230 -0.0807 -1.2225 -0.274 -0.529 0.803 113 93 67 0 0
-0.0208 -0.0765 -1.3060 -0.555 -0.571 0.605 76 54 30 0 0
-0.0262 -0.0836 -1.3434 -0.527 -0.805 0.274 48 37 29 0 0
-0.0445 -0.1089 -1.3704 -0.403 -0.689 0.603 188 158 121 0 0
-0.0487 -0.1147 -1.3774 -0.306 -0.711 0.634 166 135 93 0 0
-0.0990 -0.1840 -1.4650 -0.348 -0.899 0.266 128 105 64 0 0
-0.1033 -0.1898 -1.4821 -0.388 -0.779 0.493 95 72 40 0 0
-0.1075 -0.1955 -1.4941 -0.202 -0.801 0.563 68 47 17 0 0
-0.1105 -0.1996 -1.5019 -0.471 -0.716 0.516 69 48 22 0 0
-0.1204 -0.2135 -1.5032 -0.375 -0.882 0.287 66 44 21 0 0
-0.1249 -0.2189 -1.5678 -0.700 -0.680 0.219 93 70 34 0 0
-0.1320 -0.2287 -1.5876 -0.297 -0.897 0.328 132 102 66 0 0
-0.1565 -0.2629 -1.5950 -0.621 -0.165 0.766 168 141 92 0 0
-0.1596 -0.2672 -1.5971 -0.304 -0.268 0.914 198 174 124 0 0
-0.1524 -0.2555 -1.7295 -0.477 -0.877 0.056 82 61 30 0 0
-0.1526 -0.2557 -1.7348 -0.619 -0.730 0.289 85 61 29 0 0
-0.1558 -0.2599 -1.7535 -0.356 -0.903 0.242 79 58 32 0 0
-0.1592 -0.2641 -1.7944 -0.402 -0.836 0.374 63 42 15 0 0
-0.1613 -0.2670 -1.8032 -0.402 -0.836 0.374 83 60 30 0 0
-0.1783 -0.2901 -1.8623 -0.666 -0.727 0.164 73 51 27 0 0
-0.1807 -0.2932 -1.8765 -0.529 -0.687 0.499 74 52 28 0 0
-0.1821 -0.2951 -1.8806 -0.529 -0.687 0.499 72 50 26 0 0
-0.1921 -0.3084 -1.9370 -0.457 -0.759 0.463 80 58 35 0 0
-0.2087 -0.3308 -2.0085 -0.500 -0.768 0.399 76 53 29 0 0
-0.2198 -0.3459 -2.0407 -0.460 -0.708 0.536 86 63 31 0 0
-0.2371 -0.3693 -2.1114 -0.351 -0.798 0.490 95 71 33 0 0
-0.2607 -0.4015 -2.1672 -0.472 -0.518 0.713 105 82 43 0 0
-0.2627 -0.4042 -2.1763 -0.338 -0.448 0.828 118 92 54 0 0
-0.2675 -0.4110 -2.1752 -0.813 -0.429 0.393 107 84 43 0 0
-0.2710 -0.4158 -2.1879 -0.523 -0.668 0.529 121 94 51 0 0
-0.2727 -0.4181 -2.1914 -0.548 -0.775 0.313 124 97 54 0 0
-0.2931 -0.4461 -2.2328 -0.565 -0.793 0.229 116 93 52 0 0
-0.2959 -0.4500 -2.2344 -0.576 -0.734 0.360 115 93 52 0 0
0.0580 0.0378 -0.9775 -0.295 -0.954 -0.048 109 88 53 0 0
0.0589 0.0419 -1.1896 -0.176 -0.658 0.732 94 74 26 0 0
0.0294 0.0008 -1.2161 -0.218 -0.211 0.953 129 101 50 0 0
0.0289 0.0002 -1.2209 -0.116 -0.699 0.706 127 101 58 0 0
-0.0285 -0.0790 -1.3237 -0.514 -0.855 0.070 69 50 21 0 0
-0.0285 -0.0789 -1.3341 -0.659 -0.732 0.170 79 60 35 0 0
-0.0306 -0.0816 -1.3481 -0.384 -0.865 0.324 44 31 17 0 0
-0.0486 -0.1065 -1.3702 -0.367 -0.750 0.551 167 135 97 0 0
-0.0514 -0.1105 -1.3731 -0.264 -0.634 0.727 192 159 123 0 0
-0.0552 -0.1156 -1.3805 -0.523 -0.660 0.540 122 92 57 0 0
-0.1074 -0.1876 -1.4818 -0.388 -0.779 0.493 94 72 39 0 0
-0.1111 -0.1926 -1.4890 -0.389 -0.654 0.648 80 59 30 0 0
-0.1322 -0.2212 -1.5750 -0.433 -0.901 -0.030 101 78 44 0 0
-0.1591 -0.2586 -1.5961 -0.621 -0.165 0.766 172 148 103 0 0
-0.1618 -0.2623 -1.5987 -0.802 -0.484 0.351 171 148 100 0 0
-0.1817 -0.2871 -1.8345 -0.358 -0.778 0.517 77 53 25 0 0
-0.1832 -0.2884 -1.8896 -0.395 -0.851 0.345 72 50 26 0 0
-0.1978 -0.3083 -1.9346 -0.372 -0.797 0.475 80 59 34 0 0
-0.2107 -0.3256 -1.9934 -0.665 -0.607 0.434 66 44 21 0 0
-0.2146 -0.3309 -2.0059 -0.300 -0.884 0.359 76 52 28 0 0
-0.2272 -0.3480 -2.0535 -0.597 -0.753 0.275 83 60 28 0 0
-0.2398 -0.3649 -2.1072 -0.493 -0.794 0.355 92 68 32 0 0
-0.2407 -0.3662 -2.1118 -0.540 -0.770 0.340 92 68 30 0 0
-0.2417 -0.3675 -2.1164 -0.554 -0.698 0.454 90 68 29 0 0
-0.2747 -0.4129 -2.1881 -0.507 -0.631 0.587 120 95 52 0 0
-0.2766 -0.4154 -2.1913 -0.548 -0.775 0.313 118 93 49 0 0
0.0625 0.0512 -0.9089 -0.160 -0.861 0.482 130 107 71 0 0
0.0485 0.0325 -0.9743 -0.382 -0.862 -0.332 99 81 46 0 0
0.0502 0.0349 -0.9801 -0.300 -0.849 -0.435 106 86 49 0 0
0.0523 0.0380 -0.9862 -0.252 -0.839 -0.483 118 93 59 0 0
0.0856 0.0866 -1.1008 -0.591 -0.806 -0.031 17 16 13 0 0
0.0878 0.0901 -1.1279 -0.926 -0.359 0.114 11 10 8 0 0
0.0721 0.0683 -1.1542 -0.466 -0.568 0.678 26 25 18 0 0
0.0719 0.0682 -1.1592 -0.226 -0.738 0.636 40 33 20 0 0
0.0262 0.0046 -1.2166 -0.243 -0.285 0.927 136 108 59 0 0
0.0249 0.0029 -1.2209 -0.186 -0.638 0.748 134 110 59 0 0
-0.0331 -0.0770 -1.3388 -0.572 -0.788 0.228 51 38 20 0 0
-0.1115 -0.1854 -1.4815 -0.388 -0.779 0.493 90 70 35 0 0
-0.1212 -0.1985 -1.5200 -0.071 -0.966 0.251 75 52 25 0 0
-0.1221 -0.1996 -1.5245 -0.071 -0.966 0.251 82 59 23 0 0
-0.1293 -0.2094 -1.5495 -0.401 -0.839 0.367 82 59 26 0 0
-0.1573 -0.2483 -1.5910 0.167 -0.416 0.894 159 133 84 0 0
-0.1616 -0.2542 -1.5974 -0.591 -0.363 0.721 158 136 96 0 0
-0.1659 -0.2602 -1.5983 -0.188 -0.858 0.479 152 128 85 0 0
-0.1903 -0.2941 -1.6315 -0.475 -0.793 0.381 72 48 23 0 0
-0.1643 -0.2557 -1.7470 -0.439 -0.730 0.523 48 28 4 0 0
-0.1659 -0.2577 -1.7675 -0.617 -0.737 0.275 59 38 13 0 0
-0.1667 -0.2588 -1.7721 -0.617 -0.737 0.275 70 49 21 0 0
-0.1675 -0.2598 -1.7768 -0.617 -0.737 0.275 80 59 30 0 0
-0.1683 -0.2609 -1.7815 -0.617 -0.737 0.275 74 54 25 0 0
-0.1675 -0.2596 -1.7936 -0.573 -0.715 0.401 80 58 30 0 0
-0.1690 -0.2617 -1.7975 -0.402 -0.762 0.508 79 55 27 0 0
-0.1690 -0.2616 -1.8031 -0.326 -0.886 0.330 77 52 26 0 0
-0.1729 -0.2668 -1.8211 -0.671 -0.626 0.398 83 59 33 0 0
-0.2090 -0.3153 -1.9774 -0.519 -0.788 0.330 66 44 21 0 0
-0.2172 -0.3266 -2.0016 -0.548 -0.753 0.366 68 45 21 0 0
-0.2265 -0.3391 -2.0361 -0.614 -0.567 0.550 83 58 29 0 0
-0.2299 -0.3437 -2.0491 -0.629 -0.688 0.361 82 59 28 0 0
-0.2308 -0.3450 -2.0538 -0.640 -0.709 0.296 82 59 28 0 0
-0.2437 -0.3623 -2.1070 -0.493 -0.794 0.355 92 68 33 0 0
-0.2655 -0.3924 -2.1474 -0.251 -0.769 0.587 99 76 34 0 0
-0.2641 -0.3901 -2.1615 -0.474 -0.764 0.437 102 78 38 0 0
-0.2784 -0.4100 -2.1883 -0.507 -0.631 0.587 120 96 52 0 0
-0.2799 -0.4119 -2.1922 -0.580 -0.651 0.490 118 95 50 0 0
-0.3134 -0.4584 -2.2431 -0.352 -0.883 0.310 82 67 46 0 0
-0.3256 -0.4753 -2.2601 -0.189 -0.584 0.790 189 189 191 0 0
0.0569 0.0556 -1.1778 -0.257 -0.752 0.608 78 63 36 0 0
0.0550 0.0530 -1.1818 -0.257 -0.752 0.608 74 61 32 0 0
0.0204 0.0047 -1.2152 -0.134 -0.253 0.958 114 90 42 0 0
0.0185 0.0021 -1.2191 -0.128 -0.517 0.847 116 94 38 0 0
0.0036 -0.0190 -1.2189 0.068 -0.090 0.994 100 79 43 0 0
-0.0388 -0.0769 -1.3424 -0.268 -0.802 0.534 107 90 67 0 0
-0.1129 -0.1795 -1.4679 -0.491 -0.728 0.479 118 95 57 0 0
-0.1167 -0.1847 -1.4802 -0.515 -0.773 0.371 93 73 39 0 0
-0.1233 -0.1936 -1.5057 -0.586 -0.684 0.434 65 43 20 0 0
-0.1348 -0.2093 -1.5424 -0.549 -0.756 0.357 83 60 28 0 0
-0.1332 -0.2069 -1.5493 -0.454 -0.799 0.395 76 53 21 0 0
-0.1343 -0.2084 -1.5536 -0.454 -0.799 0.395 82 59 27 0 0
-0.1367 -0.2116 -1.5619 -0.678 -0.699 0.228 80 56 26 0 0
-0.1908 -0.2872 -1.6188 -0.585 -0.670 0.457 102 77 43 0 0
-0.1921 -0.2888 -1.6229 -0.585 -0.670 0.457 79 58 25 0 0
-0.2054 -0.3025 -1.9463 -0.733 -0.603 0.314 78 58 33 0 0
-0.2298 -0.3354 -2.0486 -0.553 -0.607 0.571 82 59 28 0 0
-0.2523 -0.3662 -2.1122 -0.455 -0.788 0.414 94 71 37 0 0
-0.2551 -0.3700 -2.1261 -0.252 -0.818 0.517 90 67 32 0 0
-0.2574 -0.3731 -2.1288 -0.380 -0.754 0.535 90 68 31 0 0
-0.2601 -0.3768 -2.1310 -0.630 -0.572 0.525 91 69 32 0 0
-0.2826 -0.4078 -2.1878 -0.635 -0.634 0.441 120 96 52 0 0
-0.2860 -0.4123 -2.2008 -0.550 -0.452 0.703 125 100 56 0 0
-0.3138 -0.4511 -2.2303 -0.535 -0.453 0.713 113 93 54 0 0
-0.3302 -0.4738 -2.2588 -0.324 -0.697 0.640 189 190 192 0 0
0.0870 0.1018 -0.8957 -0.029 -0.015 0.999 153 149 145 0 0
0.0622 0.0712 -1.1631 -0.438 -0.638 0.634 55 45 32 0 0
0.0635 0.0732 -1.1692 -0.216 -0.959 0.186 85 73 56 0 0
0.0505 0.0549 -1.1813 -0.257 -0.752 0.608 70 58 30 0 0
0.0163 0.0071 -1.2150 -0.040 -0.174 0.984 125 99 47 0 0
0.0108 -0.0006 -1.2164 -0.145 -0.235 0.961 114 91 41 0 0
-0.0748 -0.1188 -1.3945 -0.473 -0.759 0.447 193 172 130 0 0
-0.0781 -0.1233 -1.4073 -0.468 -0.752 0.464 177 149 110 0 0
-0.0789 -0.1243 -1.4119 -0.567 -0.693 0.445 163 135 85 0 0
-0.1198 -0.1812 -1.4703 -0.489 -0.765 0.418 115 92 58 0 0
-0.1239 -0.1866 -1.4981 -0.516 -0.769 0.378 72 51 21 0 0
-0.1375 -0.2049 -1.5488 -0.330 -0.822 0.463 83 60 28 0 0
-0.1415 -0.2105 -1.5608 -0.469 -0.650 0.598 79 55 25 0 0
-0.1937 -0.2833 -1.6197 -0.709 -0.571 0.414 105 80 49 0 0
-0.1962 -0.2867 -1.6278 -0.523 -0.790 0.321 68 47 19 0 0
-0.1664 -0.2429 -1.7253 -0.304 -0.863 0.404 86 66 32 0 0
-0.1999 -0.2880 -1.8604 -0.784 -0.619 -0.035 74 52 28 0 0
-0.2103 -0.3013 -1.9450 -0.676 -0.706 0.213 76 56 31 0 0
-0.2178 -0.3114 -1.9760 -0.205 -0.879 0.430 63 41 18 0 0
-0.2190 -0.3131 -1.9801 -0.205 -0.879 0.430 63 41 18 0 0
-0.2228 -0.3178 -2.0162 -0.378 -0.868 0.322 71 51 24 0 0
-0.2238 -0.3191 -2.0208 -0.378 -0.868 0.322 79 59 29 0 0
-0.2307 -0.3288 -2.0290 -0.669 -0.577 0.468 76 54 26 0 0
-0.2442 -0.3470 -2.0815 -0.470 -0.752 0.462 112 92 49 0 0
-0.2487 -0.3531 -2.0990 -0.344 -0.874 0.343 84 59 27 0 0
-0.2555 -0.3624 -2.1132 -0.399 -0.747 0.532 90 68 31 0 0
-0.2924 -0.4133 -2.1969 -0.660 -0.615 0.432 124 100 55 0 0
0.0710 0.0873 -0.8897 -0.387 -0.070 0.919 154 152 147 0 0
0.0308 0.0317 -0.9755 -0.218 -0.804 -0.553 125 102 66 0 0
0.0187 0.0189 -1.2142 0.206 -0.424 0.882 112 86 36 0 0
-0.0712 -0.1060 -1.3744 -0.427 -0.722 0.544 133 103 70 0 0
-0.1117 -0.1623 -1.4389 -0.540 -0.810 0.229 114 88 48 0 0
-0.1276 -0.1838 -1.4981 -0.483 -0.704 0.520 73 52 25 0 0
-0.1377 -0.1977 -1.5256 -0.554 -0.769 0.318 81 56 27 0 0
-0.1595 -0.2277 -1.5787 -0.083 -0.799 0.596 118 95 60 0 0
-0.1595 -0.2275 -1.5841 -0.373 -0.867 0.331 151 125 85 0 0
-0.1731 -0.2466 -1.5917 -0.135 -0.647 0.751 139 111 71 0 0
-0.1775 -0.2530 -1.5924 -0.068 -0.904 0.421 163 135 97 0 0
-0.1929 -0.2745 -1.6085 -0.514 -0.512 0.688 154 128 91 0 0
-0.2031 -0.2886 -1.6296 -0.432 -0.768 0.473 69 45 21 0 0
-0.1700 -0.2399 -1.7255 -0.510 -0.776 0.371 83 63 31 0 0
-0.1712 -0.2413 -1.7409 -0.599 -0.536 0.595 72 49 18 0 0
-0.1737 -0.2447 -1.7437 -0.334 -0.877 0.344 71 50 24 0 0
-0.1764 -0.2484 -1.7573 -0.456 -0.878 0.142 78 55 28 0 0
-0.1772 -0.2494 -1.7620 -0.452 -0.873 0.185 72 53 25 0 0
-0.1841 -0.2581 -1.8215 -0.573 -0.662 0.483 73 52 23 0 0
-0.2046 -0.2859 -1.8936 -0.510 -0.829 0.228 73 52 28 0 0
-0.2258 -0.3143 -1.9938 -0.392 -0.758 0.522 69 47 24 0 0
-0.2481 -0.3444 -2.0814 -0.470 -0.752 0.462 84 64 28 0 0
-0.2588 -0.3591 -2.1080 -0.395 -0.811 0.432 89 66 32 0 0
-0.2733 -0.3786 -2.1710 -0.608 -0.790 0.078 97 75 34 0 0
-0.3336 -0.4629 -2.2412 -0.693 -0.600 0.400 97 88 75 0 0
0.0512 0.0674 -0.8962 0.175 -0.750 0.638 109 93 69 0 0
0.0257 0.0325 -0.9748 -0.218 -0.804 -0.553 122 101 62 0 0
0.0781 0.1104 -1.1471 -0.811 0.240 0.534 53 48 40 0 0
0.0560 0.0793 -1.1641 -0.288 -0.684 0.671 47 40 31 0 0
-0.0596 -0.0819 -1.3453 -0.500 -0.782 0.371 114 92 67 0 0
-0.0634 -0.0869 -1.3631 -0.824 -0.262 0.503 191 164 123 0 0
-0.0662 -0.0906 -1.3765 -0.711 -0.684 0.165 167 141 104 0 0
-0.1162 -0.1605 -1.4436 -0.415 -0.613 0.672 139 113 77 0 0
-0.1368 -0.1884 -1.5195 -0.500 -0.804 0.322 75 51 28 0 0
-0.1377 -0.1896 -1.5239 -0.500 -0.804 0.322 73 51 26 0 0
-0.1500 -0.2064 -1.5599 -0.521 -0.742 0.421 78 55 23 0 0
-0.1489 -0.2047 -1.5663 -0.593 -0.709 0.381 85 61 31 0 0
-0.1645 -0.2265 -1.5882 -0.313 -0.919 0.238 152 125 83 0 0
-0.1657 -0.2281 -1.5923 -0.367 -0.647 0.669 138 109 70 0 0
-0.1830 -0.2529 -1.5906 -0.069 -0.934 0.351 159 133 93 0 0
-0.1976 -0.2733 -1.6074 -0.547 -0.684 0.483 154 131 93 0 0
-0.1989 -0.2751 -1.6113 -0.547 -0.684 0.483 154 127 96 0 0
-0.1730 -0.2360 -1.7264 -0.617 -0.712 0.335 87 67 34 0 0
-0.1765 -0.2410 -1.7280 -0.487 -0.840 0.242 81 61 26 0 0
-0.1752 -0.2389 -1.7406 -0.498 -0.747 0.442 68 45 15 0 0
-0.1779 -0.2425 -1.7487 -0.459 -0.846 0.273 51 32 9 0 0
-0.1786 -0.2435 -1.7535 -0.571 -0.749 0.336 73 53 24 0 0
-0.1796 -0.2448 -1.7580 -0.618 -0.722 0.311 75 54 27 0 0
-0.1808 -0.2465 -1.7622 -0.642 -0.743 0.189 67 46 20 0 0
-0.2081 -0.2829 -1.8882 -0.559 -0.821 0.115 73 51 27 0 0
-0.2060 -0.2795 -1.9081 -0.754 -0.587 0.295 71 51 26 0 0
-0.2081 -0.2821 -1.9285 -0.604 -0.735 0.307 66 46 21 0 0
-0.2088 -0.2831 -1.9334 -0.592 -0.702 0.395 58 38 13 0 0
-0.2302 -0.3124 -1.9931 -0.537 -0.693 0.481 70 48 25 0 0
-0.2322 -0.3150 -2.0021 -0.673 -0.727 0.138 72 50 26 0 0
-0.2461 -0.3337 -2.0599 -0.479 -0.790 0.383 76 55 27 0 0
-0.2632 -0.3571 -2.1072 -0.595 -0.665 0.451 86 63 29 0 0
-0.2769 -0.3754 -2.1714 -0.229 -0.971 0.063 96 74 33 0 0
-0.3025 -0.4113 -2.2052 -0.606 -0.547 0.578 123 96 49 0 0
-0.3323 -0.4531 -2.2372 -0.596 -0.622 0.508 78 63 45 0 0
0.0514 0.0811 -1.1636 -0.128 -0.637 0.760 38 30 17 0 0
0.0069 0.0187 -1.2113 0.228 -0.441 0.868 118 93 43 0 0
-0.0598 -0.0745 -1.3221 -0.423 -0.846 0.323 74 53 24 0 0
-0.0624 -0.0779 -1.3305 -0.435 -0.832 0.345 84 61 31 0 0
-0.0646 -0.0808 -1.3443 -0.533 -0.714 0.455 105 85 57 0 0
-0.0814 -0.1041 -1.3827 -0.386 -0.821 0.422 160 132 105 0 0
-0.0831 -0.1064 -1.3865 -0.471 -0.570 0.673 138 107 76 0 0
-0.1348 -0.1782 -1.4826 -0.464 -0.815 0.347 85 64 33 0 0
-0.1538 -0.2038 -1.5599 -0.521 -0.742 0.421 76 52 22 0 0
-0.1673 -0.2226 -1.5838 0.213 -0.907 0.363 136 112 71 0 0
-0.1690 -0.2248 -1.5928 0.052 -0.966 0.252 148 119 79 0 0
-0.1795 -0.2370 -1.7290 -0.570 -0.773 0.279 77 57 24 0 0
-0.1782 -0.2350 -1.7360 -0.554 -0.759 0.341 85 64 30 0 0
-0.1791 -0.2363 -1.7405 -0.498 -0.747 0.442 76 53 23 0 0
-0.1832 -0.2417 -1.7582 -0.618 -0.722 0.311 77 58 30 0 0
-0.1844 -0.2434 -1.7624 -0.642 -0.743 0.189 81 58 32 0 0
-0.1886 -0.2485 -1.8082 -0.603 -0.663 0.443 59 39 14 0 0
-0.2123 -0.2807 -1.8878 -0.489 -0.803 0.340 74 52 28 0 0
-0.2129 -0.2806 -1.9332 -0.543 -0.773 0.328 61 41 16 0 0
-0.2155 -0.2842 -1.9415 -0.580 -0.735 0.350 72 52 27 0 0
-0.2340 -0.3095 -1.9932 -0.537 -0.693 0.481 70 48 25 0 0
-0.2501 -0.3312 -2.0597 -0.479 -0.790 0.383 62 40 17 0 0
-0.2686 -0.3565 -2.1169 -0.546 -0.800 0.249 90 67 33 0 0
-0.3200 -0.4276 -2.2264 -0.688 -0.643 0.337 127 100 57 0 0
0.0622 0.1051 -1.1628 -0.171 0.001 0.985 95 83 63 0 0
0.0461 0.0820 -1.1627 -0.014 -0.674 0.738 68 57 36 0 0
0.0288 0.0575 -1.1772 -0.293 -0.782 0.550 62 57 49 0 0
-0.0637 -0.0717 -1.3221 -0.620 -0.570 0.539 77 56 24 0 0
-0.0655 -0.0743 -1.3258 -0.393 -0.630 0.669 96 75 43 0 0
-0.0665 -0.0756 -1.3302 -0.435 -0.832 0.345 107 83 53 0 0
-0.0845 -0.1003 -1.3781 -0.336 -0.740 0.583 159 128 95 0 0
-0.0864 -0.1030 -1.3817 -0.414 -0.859 0.301 154 126 101 0 0
-0.1460 -0.1853 -1.5231 -0.506 -0.782 0.364 46 28 13 0 0
-0.1483 -0.1885 -1.5315 -0.504 -0.791 0.347 43 27 14 0 0
-0.1560 -0.1985 -1.5774 -0.575 -0.794 0.198 90 66 39 0 0
-0.1693 -0.2173 -1.5856 -0.709 -0.386 0.590 128 105 66 0 0
-0.1718 -0.2208 -1.5884 -0.583 -0.698 0.415 162 138 93 0 0
-0.1723 -0.2215 -1.5932 -0.369 -0.473 0.800 146 117 76 0 0
-0.2148 -0.2814 -1.6396 -0.400 -0.886 0.235 74 50 18 0 0
-0.2160 -0.2778 -1.8879 -0.525 -0.808 0.267 72 51 27 0 0
-0.2120 -0.2716 -1.9102 -0.444 -0.751 0.488 70 50 25 0 0
-0.2142 -0.2746 -1.9133 -0.446 -0.688 0.572 70 50 25 0 0
-0.2249 -0.2895 -1.9343 -0.467 -0.829 0.309 72 51 27 0 0
-0.2258 -0.2907 -1.9389 -0.467 -0.829 0.309 65 44 20 0 0
-0.2379 -0.3068 -1.9931 -0.589 -0.740 0.325 69 48 24 0 0
-0.2385 -0.3073 -2.0100 -0.413 -0.696 0.587 67 45 20 0 0
-0.2488 -0.3218 -2.0253 -0.760 -0.533 0.372 76 55 28 0 0
-0.2848 -0.3705 -2.1590 -0.564 -0.618 0.548 100 77 37 0 0
-0.2849 -0.3704 -2.1709 -0.540 -0.798 0.267 92 70 30 0 0
-0.3421 -0.4506 -2.2519 -0.784 -0.578 0.226 117 113 102 0 0
0.0714 0.1207 -0.8924 -0.014 -0.219 0.976 179 179 179 0 0
0.0756 0.1329 -1.1635 -0.722 0.321 0.613 106 96 81 0 0
0.0341 0.0735 -1.1678 -0.007 -0.513 0.858 49 40 24 0 0
0.0237 0.0590 -1.1919 -0.121 -0.479 0.869 37 28 15 0 0
-0.1073 -0.1243 -1.4089 -0.668 -0.601 0.439 127 98 59 0 0
-0.1418 -0.1719 -1.4883 -0.503 -0.771 0.391 84 59 32 0 0
-0.1532 -0.1872 -1.5358 -0.504 -0.791 0.347 30 17 5 0 0
-0.1601 -0.1965 -1.5664 -0.301 -0.871 0.387 77 53 28 0 0
-0.1763 -0.2192 -1.5929 -0.620 -0.277 0.734 148 120 79 0 0
-0.1812 -0.2262 -1.5932 -0.312 -0.457 0.833 138 113 74 0 0
-0.1888 -0.2336 -1.7493 -0.473 -0.783 0.404 51 30 6 0 0
-0.1976 -0.2454 -1.7896 -0.669 -0.613 0.421 65 44 17 0 0
-0.2200 -0.2752 -1.8877 -0.525 -0.808 0.267 71 51 26 0 0
-0.2185 -0.2730 -1.8953 -0.467 -0.821 0.329 71 51 26 0 0
-0.2178 -0.2715 -1.9136 -0.322 -0.780 0.536 70 50 25 0 0
-0.2293 -0.2875 -1.9393 -0.553 -0.791 0.261 65 43 19 0 0
-0.2303 -0.2888 -1.9439 -0.520 -0.818 0.248 63 41 17 0 0
-0.2424 -0.3049 -1.9981 -0.518 -0.740 0.429 69 49 24 0 0
-0.2506 -0.3158 -2.0400 -0.784 -0.502 0.365 80 57 27 0 0
-0.2557 -0.3230 -2.0448 -0.362 -0.865 0.347 79 56 24 0 0
-0.2629 -0.3323 -2.0883 -0.344 -0.848 0.403 111 90 51 0 0
-0.2823 -0.3590 -2.1442 -0.396 -0.785 0.476 93 71 32 0 0
-0.2905 -0.3702 -2.1683 -0.465 -0.870 0.163 92 70 31 0 0
-0.3179 -0.4084 -2.2174 -0.268 -0.631 0.728 133 105 60 0 0
-0.3930 -0.5160 -2.2286 -0.478 -0.722 0.501 211 211 213 0 0
0.0638 0.1181 -0.8905 -0.066 -0.470 0.880 177 177 177 0 0
0.0600 0.1127 -0.8935 -0.071 -0.302 0.951 173 170 169 0 0
0.0188 0.0606 -1.1964 -0.894 -0.370 0.252 54 43 23 0 0
-0.0204 0.0043 -1.2053 0.417 -0.391 0.820 90 71 32 0 0
-0.0988 -0.1043 -1.3880 -0.465 -0.816 0.344 149 126 79 0 0
-0.1100 -0.1199 -1.4098 -0.432 -0.735 0.522 108 82 43 0 0
-0.1144 -0.1261 -1.4164 -0.478 -0.695 0.537 97 72 45 0 0
-0.1212 -0.1355 -1.4315 -0.643 -0.552 0.531 136 110 66 0 0
-0.1227 -0.1376 -1.4354 -0.643 -0.552 0.531 116 91 52 0 0
-0.1485 -0.1730 -1.5119 -0.369 -0.802 0.470 41 25 7 0 0
-0.1604 -0.1891 -1.5537 -0.649 -0.643 0.407 74 53 26 0 0
-0.1629 -0.1927 -1.5566 -0.650 -0.673 0.355 75 54 27 0 0
-0.1853 -0.2240 -1.5929 -0.404 -0.332 0.853 129 104 68 0 0
-0.2183 -0.2709 -1.6224 -0.498 -0.819 0.285 82 61 34 0 0
-0.1905 -0.2285 -1.7183 -0.604 -0.583 0.543 90 69 37 0 0
-0.1990 -0.2392 -1.7868 -0.622 -0.680 0.389 71 50 23 0 0
-0.2237 -0.2723 -1.8935 -0.562 -0.730 0.388 70 50 25 0 0
-0.2247 -0.2735 -1.8981 -0.459 -0.875 0.155 69 49 24 0 0
-0.2251 -0.2739 -1.9034 -0.296 -0.912 0.283 71 51 26 0 0
-0.2418 -0.2962 -1.9806 -0.336 -0.821 0.462 66 44 20 0 0
-0.2613 -0.3225 -2.0602 -0.548 -0.698 0.461 56 38 17 0 0
-0.2627 -0.3243 -2.0642 -0.470 -0.717 0.515 64 45 20 0 0
-0.2661 -0.3288 -2.0832 -0.434 -0.795 0.424 102 81 35 0 0
-0.2924 -0.3649 -2.1591 -0.281 -0.847 0.451 98 76 35 0 0
-0.3026 -0.3789 -2.1862 -0.547 -0.774 0.319 113 90 46 0 0
-0.3239 -0.4089 -2.2200 -0.356 -0.630 0.690 122 96 54 0 0
-0.3311 -0.4189 -2.2330 -0.455 -0.708 0.540 132 104 64 0 0
0.0663 0.1371 -1.1731 -0.592 0.383 0.709 127 119 109 0 0
0.0126 0.0601 -1.1948 -0.073 -0.614 0.786 57 47 29 0 0
-0.0261 0.0044 -1.2040 0.287 -0.295 0.911 80 61 24 0 0
-0.0812 -0.0715 -1.3536 -0.604 -0.518 0.606 182 149 116 0 0
-0.0848 -0.0766 -1.3559 -0.759 -0.614 0.216 192 161 133 0 0
-0.1416 -0.1559 -1.4690 -0.234 -0.884 0.405 109 82 41 0 0
-0.1428 -0.1575 -1.4732 -0.234 -0.884 0.405 93 69 34 0 0
-0.1484 -0.1653 -1.4838 -0.178 -0.863 0.472 84 59 26 0 0
-0.1490 -0.1661 -1.4885 -0.359 -0.843 0.402 80 54 24 0 0
-0.1502 -0.1677 -1.4927 -0.481 -0.767 0.424 76 53 24 0 0
-0.1564 -0.1759 -1.5239 -0.446 -0.803 0.396 63 42 20 0 0
-0.1575 -0.1773 -1.5282 -0.460 -0.844 0.277 63 45 22 0 0
-0.1651 -0.1877 -1.5528 -0.480 -0.748 0.457 75 54 27 0 0
-0.1940 -0.2254 -1.7186 -0.602 -0.605 0.520 81 60 32 0 0
-0.1973 -0.2293 -1.7539 -0.739 -0.580 0.343 76 55 26 0 0
-0.2053 -0.2392 -1.8179 -0.355 -0.841 0.408 62 42 17 0 0
-0.2065 -0.2408 -1.8222 -0.411 -0.794 0.448 62 40 16 0 0
-0.2256 -0.2668 -1.8902 -0.562 -0.677 0.475 69 49 24 0 0
-0.2268 -0.2684 -1.8945 -0.632 -0.685 0.364 69 49 24 0 0
-0.2281 -0.2701 -1.9044 -0.235 -0.831 0.504 68 48 23 0 0
-0.2694 -0.3255 -2.0721 -0.202 -0.934 0.295 80 60 31 0 0
-0.2691 -0.3249 -2.0785 -0.549 -0.832 0.081 81 61 26 0 0
-0.3071 -0.3771 -2.1852 -0.379 -0.826 0.417 109 86 42 0 0
-0.3350 -0.4163 -2.2329 -0.455 -0.708 0.540 132 105 62 0 0
-0.3406 -0.4243 -2.2362 -0.385 -0.649 0.656 125 100 60 0 0
-0.0007 0.0419 -0.9096 -0.162 -0.637 0.754 101 83 52 0 0
-0.0880 -0.0764 -1.2278 -0.662 -0.436 0.610 65 48 33 0 0
-0.0883 -0.0766 -1.2327 -0.789 -0.595 0.153 61 46 34 0 0
-0.1317 -0.1341 -1.4393 -0.548 -0.712 0.438 138 112 71 0 0
-0.1351 -0.1388 -1.4520 -0.646 -0.591 0.483 130 104 58 0 0
-0.1436 -0.1506 -1.4706 -0.782 -0.578 0.233 107 82 38 0 0
-0.1500 -0.1596 -1.4805 -0.266 -0.731 0.628 103 78 41 0 0
-0.1611 -0.1746 -1.5230 -0.354 -0.787 0.505 62 40 16 0 0
-0.2049 -0.2313 -1.7832 -0.557 -0.703 0.442 72 51 25 0 0
-0.2250 -0.2579 -1.8786 -0.430 -0.670 0.605 64 42 19 0 0
-0.2309 -0.2656 -1.9116 -0.662 -0.652 0.369 66 44 20 0 0
-0.2390 -0.2764 -1.9476 -0.492 -0.772 0.403 63 41 18 0 0
-0.2408 -0.2787 -1.9570 -0.525 -0.744 0.414 65 43 21 0 0
-0.2421 -0.2806 -1.9610 -0.518 -0.705 0.484 66 45 21 0 0
-0.2617 -0.3067 -2.0467 -0.584 -0.743 0.326 81 60 29 0 0
-0.2687 -0.3163 -2.0666 -0.489 -0.843 0.224 62 44 19 0 0
-0.2748 -0.3244 -2.0939 -0.319 -0.706 0.633 75 58 25 0 0
-0.2856 -0.3396 -2.1142 -0.513 -0.729 0.454 87 67 31 0 0
-0.2983 -0.3567 -2.1619 -0.260 -0.826 0.501 94 72 33 0 0
-0.3103 -0.3736 -2.1801 -0.292 -0.861 0.416 106 83 41 0 0
-0.3115 -0.3752 -2.1844 -0.292 -0.861 0.416 114 91 50 0 0
-0.3429 -0.4194 -2.2326 -0.321 -0.666 0.673 130 105 65 0 0
-0.3467 -0.4248 -2.2386 -0.486 -0.726 0.487 119 97 56 0 0
0.0432 0.1134 -0.8955 0.021 -0.153 0.988 167 166 161 0 0
-0.0142 0.0330 -1.0059 0.508 -0.780 -0.366 181 182 183 0 0
-0.0841 -0.0629 -1.2183 -0.730 -0.375 0.571 149 127 99 0 0
-0.0911 -0.0727 -1.2283 -0.527 -0.657 0.540 73 57 42 0 0
-0.0809 -0.0553 -1.3234 -0.642 -0.737 0.213 83 63 31 0 0
-0.0879 -0.0649 -1.3438 -0.684 -0.585 0.436 49 29 14 0 0
-0.1045 -0.0882 -1.3771 -0.410 -0.778 0.476 135 109 80 0 0
-0.1077 -0.0926 -1.3848 -0.600 -0.593 0.537 155 126 95 0 0
-0.1485 -0.1494 -1.4748 -0.572 -0.423 0.703 96 71 41 0 0
-0.1568 -0.1612 -1.4829 -0.553 -0.695 0.460 83 59 26 0 0
-0.1679 -0.1756 -1.5468 -0.585 -0.769 0.257 58 38 11 0 0
-0.1767 -0.1873 -1.5864 -0.411 -0.889 0.202 67 43 17 0 0
-0.2323 -0.2599 -1.8915 -0.454 -0.758 0.467 69 47 23 0 0
-0.2354 -0.2639 -1.9050 -0.531 -0.719 0.450 67 45 21 0 0
-0.2359 -0.2646 -1.9100 -0.546 -0.780 0.306 67 45 21 0 0
-0.2473 -0.2797 -1.9651 -0.410 -0.815 0.410 62 42 18 0 0
-0.2714 -0.3128 -2.0326 -0.588 -0.714 0.381 77 56 27 0 0
-0.2713 -0.3119 -2.0624 -0.362 -0.926 0.107 59 41 16 0 0
-0.2978 -0.3485 -2.1320 -0.516 -0.588 0.623 87 65 28 0 0
-0.3114 -0.3671 -2.1722 -0.430 -0.735 0.525 110 87 45 0 0
-0.3142 -0.3710 -2.1800 -0.430 -0.735 0.525 101 78 37 0 0
-0.3158 -0.3732 -2.1836 -0.510 -0.594 0.622 108 85 44 0 0
-0.3479 -0.4184 -2.2367 -0.557 -0.579 0.595 120 96 55 0 0
-0.3623 -0.4387 -2.2561 -0.438 -0.704 0.558 154 152 148 0 0
-0.3628 -0.4393 -2.2614 -0.185 -0.686 0.704 179 179 178 0 0
-0.0233 0.0280 -1.0076 0.524 -0.778 -0.347 181 181 182 0 0
-0.0906 -0.0642 -1.2162 -0.424 -0.717 0.553 146 124 95 0 0
-0.0922 -0.0663 -1.2202 -0.424 -0.717 0.553 93 72 47 0 0
-0.1015 -0.0758 -1.3671 -0.613 -0.553 0.564 150 122 87 0 0
-0.1185 -0.0997 -1.3997 -0.530 -0.681 0.506 124 93 58 0 0
-0.1443 -0.1359 -1.4452 -0.606 -0.497 0.621 126 99 61 0 0
-0.1449 -0.1366 -1.4499 -0.733 -0.549 0.402 133 108 69 0 0
-0.1449 -0.1363 -1.4605 -0.555 -0.783 0.281 116 90 46 0 0
-0.1590 -0.1563 -1.4843 -0.650 -0.641 0.407 81 57 22 0 0
-0.1608 -0.1587 -1.4880 -0.670 -0.699 0.249 72 48 20 0 0
-0.1623 -0.1607 -1.4919 -0.410 -0.822 0.395 70 46 20 0 0
-0.1626 -0.1608 -1.5075 -0.641 -0.737 0.212 64 42 19 0 0
-0.1651 -0.1643 -1.5104 -0.685 -0.685 0.248 60 38 15 0 0
-0.1744 -0.1767 -1.5547 -0.442 -0.808 0.389 65 43 19 0 0
-0.1772 -0.1807 -1.5573 -0.585 -0.785 0.204 74 52 28 0 0
-0.1799 -0.1843 -1.5707 -0.408 -0.694 0.593 66 44 20 0 0
-0.1816 -0.1865 -1.5744 -0.408 -0.694 0.593 73 51 26 0 0
-0.1774 -0.1803 -1.5840 -0.509 -0.574 0.641 72 51 24 0 0
-0.1805 -0.1846 -1.5864 -0.571 -0.811 0.124 71 47 19 0 0
-0.2023 -0.2127 -1.7165 -0.581 -0.669 0.464 71 49 23 0 0
-0.2029 -0.2131 -1.7381 -0.496 -0.801 0.336 94 72 41 0 0
-0.2058 -0.2171 -1.7460 -0.718 -0.667 0.198 88 71 45 0 0
-0.2301 -0.2488 -1.8703 -0.528 -0.785 0.323 65 43 20 0 0
-0.2317 -0.2512 -1.8740 -0.515 -0.737 0.438 66 44 21 0 0
-0.2353 -0.2559 -1.8925 -0.556 -0.654 0.513 69 47 23 0 0
-0.2367 -0.2578 -1.8966 -0.563 -0.657 0.501 69 47 23 0 0
-0.2381 -0.2597 -1.9006 -0.563 -0.657 0.501 67 45 21 0 0
-0.2612 -0.2904 -2.0046 -0.621 -0.743 0.251 70 48 24 0 0
-0.2756 -0.3106 -2.0320 -0.457 -0.786 0.416 74 53 23 0 0
-0.2763 -0.3108 -2.0608 -0.498 -0.859 0.118 62 42 14 0 0
-0.2819 -0.3184 -2.0827 -0.567 -0.633 0.527 100 77 32 0 0
-0.3404 -0.3998 -2.2181 -0.526 -0.738 0.423 109 85 43 0 0
-0.3479 -0.4104 -2.2306 -0.576 -0.498 0.648 122 97 51 0 0
-0.3500 -0.4133 -2.2334 -0.547 -0.515 0.660 128 104 61 0 0
-0.3514 -0.4153 -2.2371 -0.573 -0.520 0.634 118 95 53 0 0
-0.3633 -0.4321 -2.2545 -0.389 -0.691 0.609 123 119 110 0 0
-0.3655 -0.4353 -2.2570 -0.467 -0.605 0.645 155 153 149 0 0
-0.3672 -0.4376 -2.2604 -0.467 -0.605 0.645 179 179 178 0 0
0.0198 0.0960 -0.8971 -0.020 -0.052 0.998 115 103 85 0 0
-0.0245 0.0319 -0.9219 -0.006 -0.931 0.365 111 90 56 0 0
-0.1222 -0.0967 -1.3999 -0.511 -0.789 0.340 130 100 62 0 0
-0.1488 -0.1338 -1.4603 -0.381 -0.883 0.276 119 94 47 0 0
-0.1784 -0.1744 -1.5545 -0.442 -0.808 0.389 64 42 18 0 0
-0.1802 -0.1769 -1.5580 -0.514 -0.828 0.226 76 54 30 0 0
-0.1813 -0.1783 -1.5623 -0.466 -0.781 0.417 62 40 16 0 0
-0.1825 -0.1799 -1.5666 -0.466 -0.781 0.417 81 59 35 0 0
-0.1839 -0.1818 -1.5705 -0.408 -0.694 0.593 66 44 20 0 0
-0.1853 -0.1838 -1.5744 -0.836 -0.521 0.170 73 51 25 0 0
-0.2210 -0.2352 -1.6017 -0.393 -0.195 0.898 161 139 100 0 0
-0.2248 -0.2406 -1.6031 -0.481 -0.296 0.825 137 113 78 0 0
-0.2275 -0.2446 -1.6055 -0.587 -0.325 0.741 157 134 100 0 0
-0.2384 -0.2598 -1.6260 -0.528 -0.679 0.510 74 54 26 0 0
-0.2389 -0.2603 -1.6361 -0.565 -0.802 0.196 69 49 23 0 0
-0.2072 -0.2110 -1.7376 -0.684 -0.690 0.237 102 82 50 0 0
-0.2078 -0.2118 -1.7425 -0.808 -0.545 0.225 66 48 18 0 0
-0.2155 -0.2194 -1.8643 -0.414 -0.909 0.040 67 45 21 0 0
-0.2278 -0.2376 -1.8549 -0.517 -0.679 0.521 67 45 21 0 0
-0.2268 -0.2359 -1.8619 -0.343 -0.744 0.574 66 44 20 0 0
-0.2303 -0.2411 -1.8633 -0.260 -0.644 0.719 67 45 21 0 0
-0.2420 -0.2568 -1.9063 -0.474 -0.789 0.390 69 47 23 0 0
-0.2431 -0.2583 -1.9107 -0.474 -0.789 0.390 66 44 20 0 0
-0.2560 -0.2757 -1.9638 -0.664 -0.668 0.336 67 47 26 0 0
-0.2650 -0.2876 -2.0046 -0.553 -0.815 0.171 71 50 25 0 0
-0.2935 -0.3268 -2.0894 -0.372 -0.849 0.376 73 52 21 0 0
-0.2989 -0.3338 -2.1177 -0.621 -0.521 0.586 81 60 26 0 0
-0.3142 -0.3550 -2.1553 -0.372 -0.551 0.747 96 74 37 0 0
-0.3166 -0.3582 -2.1638 -0.098 -0.822 0.560 97 74 35 0 0
-0.3201 -0.3632 -2.1705 -0.588 -0.684 0.432 108 84 43 0 0
-0.3445 -0.3974 -2.2178 -0.555 -0.707 0.439 118 92 49 0 0
-0.3671 -0.4293 -2.2546 -0.491 -0.695 0.525 124 120 113 0 0
-0.3713 -0.4354 -2.2599 -0.705 -0.685 0.184 180 180 180 0 0
-0.3793 -0.4469 -2.2649 -0.908 0.290 0.303 205 205 208 0 0
0.0153 0.0976 -0.8967 0.116 -0.255 0.960 127 118 104 0 0
0.0091 0.0886 -0.8983 0.069 -0.244 0.967 121 105 82 0 0
-0.0261 0.0375 -0.9134 -0.013 -0.637 0.771 143 116 84 0 0
-0.0289 0.0335 -0.9167 -0.013 -0.637 0.771 135 111 77 0 0
-0.0298 0.0323 -0.9210 -0.006 -0.931 0.365 111 91 57 0 0
-0.0334 0.0272 -0.9239 -0.053 -0.731 0.681 102 81 49 0 0
-0.0796 -0.0321 -1.2045 -0.238 -0.834 0.498 86 72 46 0 0
-0.1081 -0.0688 -1.3679 -0.561 -0.539 0.628 154 129 105 0 0
-0.1099 -0.0713 -1.3716 -0.561 -0.539 0.628 121 95 66 0 0
-0.1250 -0.0925 -1.4007 -0.558 -0.645 0.522 127 99 66 0 0
-0.1532 -0.1320 -1.4598 -0.641 -0.559 0.526 113 88 45 0 0
-0.1551 -0.1348 -1.4632 -0.546 -0.628 0.555 89 63 25 0 0
-0.1578 -0.1384 -1.4714 -0.235 -0.702 0.672 112 87 48 0 0
-0.1709 -0.1565 -1.5067 -0.665 -0.685 0.297 63 40 18 0 0
-0.1725 -0.1582 -1.5318 -0.642 -0.635 0.429 72 51 29 0 0
-0.1924 -0.1855 -1.5926 -0.191 -0.456 0.869 126 103 60 0 0
-0.2253 -0.2333 -1.6012 -0.495 -0.176 0.851 150 127 88 0 0
-0.2172 -0.2160 -1.7811 -0.642 -0.708 0.296 67 45 21 0 0
-0.2227 -0.2233 -1.8030 -0.611 -0.600 0.516 68 48 23 0 0
-0.2316 -0.2348 -1.8550 -0.517 -0.679 0.521 67 45 21 0 0
-0.2417 -0.2484 -1.8942 -0.293 -0.672 0.680 71 51 26 0 0
-0.2437 -0.2513 -1.8974 -0.186 -0.760 0.623 73 52 28 0 0
-0.2445 -0.2522 -1.9022 -0.156 -0.785 0.599 74 52 28 0 0
-0.2459 -0.2542 -1.9062 -0.353 -0.839 0.414 68 46 22 0 0
-0.2766 -0.2952 -2.0355 -0.570 -0.676 0.468 73 52 24 0 0
-0.2855 -0.3072 -2.0706 -0.421 -0.802 0.424 76 56 25 0 0
-0.2979 -0.3248 -2.0887 -0.316 -0.834 0.453 75 55 23 0 0
-0.3008 -0.3283 -2.1145 -0.394 -0.741 0.543 84 61 27 0 0
-0.3011 -0.3285 -2.1202 -0.564 -0.704 0.431 84 61 27 0 0
-0.3152 -0.3483 -2.1535 -0.578 -0.548 0.605 98 76 39 0 0
-0.3238 -0.3602 -2.1708 -0.588 -0.684 0.432 112 88 49 0 0
-0.3255 -0.3627 -2.1742 -0.382 -0.646 0.661 101 77 39 0 0
-0.3273 -0.3651 -2.1776 -0.382 -0.646 0.661 99 76 37 0 0
-0.3456 -0.3909 -2.2159 -0.660 -0.599 0.454 120 95 50 0 0
-0.3737 -0.4306 -2.2621 -0.592 -0.543 0.596 184 184 184 0 0
-0.3759 -0.4338 -2.2646 -0.774 -0.548 0.318 194 195 196 0 0
0.0144 0.1045 -0.8933 0.147 -0.331 0.932 178 178 179 0 0
0.0089 0.0964 -0.8953 0.082 -0.210 0.974 157 151 143 0 0
0.0034 0.0884 -0.8973 0.147 -0.331 0.932 116 104 86 0 0
-0.0383 0.0281 -0.9232 -0.012 -0.737 0.676 97 77 44 0 0
-0.0462 0.0170 -0.9427 -0.301 -0.716 0.629 80 60 35 0 0
-0.0465 0.0169 -0.9521 -0.636 -0.700 0.326 103 83 50 0 0
-0.0517 0.0100 -0.9732 -0.005 -0.736 0.677 96 77 45 0 0
-0.1116 -0.0655 -1.3681 -0.420 -0.701 0.576 134 109 82 0 0
-0.1682 -0.1451 -1.4810 -0.556 -0.680 0.478 98 73 35 0 0
-0.1952 -0.1818 -1.5773 -0.328 -0.823 0.463 82 61 32 0 0
-0.1964 -0.1830 -1.5924 -0.659 -0.212 0.721 122 99 58 0 0
-0.2014 -0.1902 -1.5980 0.096 -0.495 0.864 150 122 82 0 0
-0.2309 -0.2333 -1.6045 -0.652 -0.251 0.716 131 107 75 0 0
-0.2408 -0.2473 -1.6207 -0.598 -0.750 0.283 116 92 55 0 0
-0.2443 -0.2521 -1.6330 -0.552 -0.772 0.316 63 42 18 0 0
-0.2157 -0.2067 -1.7422 -0.472 -0.855 0.216 65 46 20 0 0
-0.2163 -0.2074 -1.7471 -0.577 -0.807 -0.125 46 30 13 0 0
-0.2165 -0.2075 -1.7525 -0.606 -0.726 0.323 42 26 11 0 0
-0.2299 -0.2244 -1.8389 -0.719 -0.614 0.325 63 41 17 0 0
-0.2467 -0.2475 -1.8927 -0.556 -0.651 0.517 70 50 25 0 0
-0.2500 -0.2518 -1.9059 -0.485 -0.804 0.344 64 42 18 0 0
-0.2605 -0.2659 -1.9504 -0.390 -0.848 0.360 63 46 26 0 0
-0.2640 -0.2705 -1.9634 -0.410 -0.815 0.410 64 43 19 0 0
-0.2794 -0.2914 -2.0191 0.082 -0.812 0.579 97 74 35 0 0
-0.2820 -0.2948 -2.0333 -0.498 -0.791 0.356 72 51 24 0 0
-0.2873 -0.3016 -2.0676 -0.678 -0.704 0.209 70 49 18 0 0
-0.2894 -0.3045 -2.0706 -0.512 -0.826 0.235 78 58 27 0 0
-0.3004 -0.3195 -2.1088 -0.700 -0.656 0.284 83 60 26 0 0
-0.3351 -0.3679 -2.1896 -0.522 -0.760 0.388 107 86 43 0 0
-0.3379 -0.3717 -2.1976 -0.452 -0.781 0.431 102 78 40 0 0
-0.3390 -0.3732 -2.2020 -0.486 -0.823 0.295 109 86 43 0 0
-0.3398 -0.3743 -2.2068 -0.377 -0.818 0.434 117 93 50 0 0
-0.3433 -0.3794 -2.2073 -0.530 -0.660 0.532 118 94 53 0 0
-0.3489 -0.3872 -2.2169 -0.588 -0.704 0.398 110 86 45 0 0
-0.3579 -0.4000 -2.2330 -0.430 -0.611 0.665 120 97 52 0 0
-0.3630 -0.4073 -2.2430 -0.553 -0.747 0.369 119 97 52 0 0
-0.3756 -0.4244 -2.2840 -0.569 -0.809 0.149 205 205 207 0 0
-0.0005 0.0909 -0.8971 0.085 -0.427 0.900 120 111 98 0 0
-0.0357 0.0397 -0.9122 0.118 -0.602 0.790 131 104 71 0 0
-0.0536 0.0145 -0.9501 -0.190 -0.619 0.762 101 81 47 0 0
-0.0547 0.0156 -1.0319 0.546 -0.801 -0.246 183 184 186 0 0
-0.0499 0.0230 -1.0397 0.560 -0.781 -0.277 183 184 186 0 0
-0.1252 -0.0767 -1.3860 -0.603 -0.563 0.566 128 102 79 0 0
-0.1488 -0.1099 -1.4336 -0.456 -0.589 0.667 110 87 43 0 0
-0.1915 -0.1687 -1.5580 -0.494 -0.758 0.426 68 46 22 0 0
-0.1997 -0.1801 -1.5767 -0.272 -0.809 0.522 82 61 31 0 0
