ply
format ascii 1.0
element vertex 684
property float x
property float y
property float z
property uchar diffuse_red
property uchar diffuse_green
property uchar diffuse_blue
end_header
0.08685110397262907 -0.3172778666374782 -1.8215669519027649 107 89 65
0.10254072391594882 -0.31842559810222004 -1.8173810865826785 109 89 65
0.11152359214542962 -0.31922362421479267 -1.8174152142255107 111 91 66
0.10944761279728521 -0.31944990121993816 -1.8244919988067303 112 92 67
0.1154157344245017 -0.3200908874875007 -1.8264257418857837 112 91 66
0.11982949831260326 -0.32065117322836545 -1.8293435009776249 112 91 66
0.12051274444687021 -0.32101986744492517 -1.8346590370957234 116 94 70
0.12062105181784122 -0.3213594875148903 -1.8403519358877798 117 96 70
0.11923486550814855 -0.3216233632026312 -1.8470228318966302 117 96 69
0.11931797716599868 -0.32196274451357587 -1.8527501280874739 116 95 68
0.11529927259382555 -0.32209444624823275 -1.8611652754418815 114 93 65
0.11859934708753417 -0.3225980398422854 -1.8648075586695392 109 88 59
0.12242644063558195 -0.3231279399634287 -1.8680979911941724 106 85 56
0.12642991582891472 -0.3236662927695768 -1.871264603159683 102 82 51
0.1311294055509611 -0.3242391568381926 -1.873962557757743 105 85 55
0.1348986896726294 -0.32476472754835917 -1.8772666794060113 105 85 54
0.14559517179004344 -0.3256364689954039 -1.8759528455082903 106 87 55
0.14784951605468344 -0.3260847537629214 -1.8802396278861029 107 88 56
0.15010325692861626 -0.32653293984570975 -1.8845256303338358 108 89 57
0.15451267321856266 -0.32708814963720284 -1.8873624750687708 106 87 55
0.15468867726320534 -0.3274329686499625 -1.89304156984246 107 85 54
0.15545162884315944 -0.3278072315209282 -1.8983313220032645 108 86 55
0.1578166378039062 -0.3282607982332369 -1.9025400480978127 109 87 56
0.1587635339980793 -0.32864449250215527 -1.9077113012468843 109 88 57
0.16175536267138435 -0.32912880451148174 -1.911492183102182 109 88 57
0.16174196269518326 -0.32946571858203466 -1.9173244539825056 109 88 58
0.14409719149377065 -0.32894188300304616 -1.9352613453424643 111 89 59
0.14917961823225567 -0.3295301546627455 -1.9376396962925966 110 88 58
0.15939329738144659 -0.3303670943033307 -1.9364635771149414 109 88 58
0.16536696098381154 -0.3309964733264364 -1.9381886227056018 110 89 59
0.16420570274634594 -0.3312798007961231 -1.9448512215871179 110 89 59
0.1627917548090062 -0.3315516903478207 -1.9517027956502229 109 89 58
0.18887468328056722 -0.33314769210992634 -1.9393616485094933 108 88 58
0.16806081532941597 -0.3324866100164711 -1.959775542269447 108 88 57
0.1726494142287669 -0.3330473979836211 -1.9624346992389472 107 89 59
0.18017572632716972 -0.3337478656312872 -1.9630125358370825 109 89 60
0.18278655336612215 -0.3342128051314536 -1.9670416677138363 110 90 61
0.18967108151362322 -0.33488067494206153 -1.9680382675576655 112 92 62
0.1961647200108685 -0.3355288213274885 -1.969292179644353 112 91 62
0.20142630871258183 -0.3361176170899619 -1.9714056913483236 113 92 63
0.2068190456120106 -0.3367117920020825 -1.9734115109832504 112 91 62
0.1984137637847545 -0.33665616700522866 -1.985300903699231 108 87 56
0.20905905593444096 -0.33749674997010803 -1.9835278369481215 108 87 56
0.20759515192479916 -0.33776863860279216 -1.9904557616550793 111 90 59
0.20617159773568583 -0.3380432484277359 -1.9973689454022716 116 95 64
0.21193614376926673 -0.33865324373772043 -1.9990792932222392 114 93 62
0.21655535281814053 -0.3392091371623953 -2.001607226150421 110 89 58
0.22069948813989027 -0.33974238081463626 -2.0044706815884 105 84 53
0.22291461445595373 -0.3401860154862164 -2.0087372009668165 108 88 57
0.22795745487337615 -0.34075980251931937 -2.010926205830659 110 90 59
0.23052925909779576 -0.3412193395514608 -2.014921797950981 113 93 62
0.2345785098436367 -0.34174639421730096 -2.0178235405103107 116 97 64
0.2374552881505545 -0.3422193715237931 -2.0215847724871785 112 91 60
0.24121495354696015 -0.34273233828534233 -2.0246861791968938 111 90 59
0.23435537117722682 -0.34276241860810164 -2.035691124540797 109 87 55
0.23593252350060145 -0.3431769254586121 -2.0404304409561154 107 84 53
0.24357483429477167 -0.343865557330004 -2.0406267856771336 108 86 55
0.23566611534217707 -0.34385209649236614 -2.0524844302760044 109 85 55
0.23622902496526654 -0.34422174229827057 -2.058000336534581 107 83 52
0.2503248483410053 -0.34519809429476717 -2.0532945594472904 105 81 48
0.25369958063946807 -0.3456923765645493 -2.0566620944393375 105 81 47
0.25728550859566685 -0.3461957107936972 -2.0598629271493087 106 82 49
0.26286968121529386 -0.34678741406253105 -2.061533468189349 106 82 50
0.2640960161638011 -0.34718513406457396 -2.0665194955574746 111 86 55
0.26457290858688826 -0.3475499268717801 -2.0720831794827714 111 87 54
0.265408869344565 -0.3479309079111902 -2.077377213271975 126 102 70
0.2666174016707997 -0.3483285348751298 -2.0823888501148504 109 88 56
0.2650044090280044 -0.34860277183617605 -2.08958519138042 105 84 52
0.2681751310426228 -0.34908682231818156 -2.0930880924612087 101 80 45
0.2689780593246971 -0.3494674592270638 -2.098426685831654 99 78 43
0.27455518296400105 -0.350055668793711 -2.1000477358977476 95 75 40
0.2788730333063118 -0.3505884410009876 -2.102637505428953 90 70 35
0.27696561479332826 -0.3508519133201169 -2.110098236881279 88 67 33
0.28229963152288573 -0.351428000070107 -2.111881798636206 86 63 29
0.28525158677872453 -0.35190101509825145 -2.1155287603447124 85 64 29
0.28723419004424633 -0.3523323052597775 -2.1199377879290022 84 62 28
0.28861398126448445 -0.35273787599332834 -2.1248246564049076 84 61 28
0.29041326697977665 -0.3531614296127123 -2.129380460783387 84 61 28
0.28964397568072586 -0.35347613172967884 -2.135985084838408 84 61 28
0.2987416285497598 -0.35420854983430716 -2.1347120024731496 86 63 29
0.3017320506880719 -0.35468179502941966 -2.1383041312917546 85 63 27
0.299139129817784 -0.35492023714186943 -2.1463809991858693 85 62 27
0.3076401457425306 -0.3556244261094014 -2.145533025378573 80 58 22
0.31189154910907735 -0.3561495085373652 -2.14809172147847 81 59 22
0.31727489044181956 -0.35672109893558035 -2.1497223197248294 92 70 31
0.32479394864278577 -0.35738039837527 -2.149601091252782 96 74 35
0.3297636639123738 -0.3579328118729261 -2.1515331858621116 92 70 31
0.3278348475522476 -0.3582000315637802 -2.1590912699981395 91 69 30
0.33418130861629014 -0.35880833881552854 -2.1598829409466758 93 71 31
0.3461410699354822 -0.35964544200158505 -2.1560404543393994 92 70 31
0.3410564758103707 -0.35978392523004443 -2.1662019793812846 95 72 33
0.3436192433136053 -0.3602355175875721 -2.1700743396082265 90 67 27
0.3439501504019139 -0.36059639241972685 -2.175793602076895 87 65 25
0.34602351045360524 -0.3610281524531156 -2.1800719975323877 87 65 25
0.3474886908770584 -0.36143535935255366 -2.1848565577960493 88 66 26
0.35090689346361637 -0.36192115454766205 -2.188011238417854 92 70 30
0.3605274207646422 -0.3626549266956367 -2.185962209371248 92 70 30
0.358218410176565 -0.36291052647771754 -2.1939010420618583 94 72 32
0.3655207126752546 -0.3635495852326168 -2.193762009217672 96 74 33
0.36861058564728894 -0.36402020561999404 -2.1971568321546546 93 71 30
0.3692071523635637 -0.3643919936290129 -2.2026582408494026 90 68 27
0.37461044342109545 -0.36495342972595596 -2.204083180221884 92 70 30
0.3789386109273813 -0.3654717411964459 -2.206407729659201 97 75 34
0.38436957559048046 -0.36603254532871166 -2.207779463712873 98 77 35
0.3765477427089861 -0.3660758004383661 -2.220482641210516 99 77 37
0.38175371986815243 -0.3666277574731671 -2.222045694647938 100 78 38
0.3844104327827156 -0.36708014352895624 -2.225788134404649 101 79 39
0.39959499907055707 -0.36801564520401836 -2.218713355121577 101 79 38
0.40148953429927786 -0.36843664905875795 -2.2230795705607087 100 78 37
0.4021297461492668 -0.36880960343681835 -2.2285343800514203 101 79 38
0.40894464607797654 -0.3694186202873807 -2.2286222017939172 102 80 40
0.4143673894382278 -0.3699733545453363 -2.229901797857113 99 78 40
0.4133461968557052 -0.370282879965124 -2.2368021982746273 92 74 37
0.4129349117087867 -0.37061623339579564 -2.2431812842178216 85 69 35
0.40976790319874423 -0.3708465061853125 -2.251994823082309 84 69 38
0.4097808405319324 -0.3711973995829039 -2.258027977008964 80 66 40
0.4111119288248295 -0.3715980583229938 -2.262904564168993 86 75 54
0.4130156521721255 -0.3720201923219864 -2.2672762290317476 107 102 85
0.41827803653390533 -0.37256690009103777 -2.2686625041738897 133 132 121
0.42225180578918836 -0.37306507446565884 -2.2711814465961044 162 161 156
0.4242926552977531 -0.3734915215488551 -2.2754178913496137 181 181 177
0.4325489291941253 -0.37414590857778707 -2.2740849618163965 191 191 191
0.4406889887703859 -0.3747943067063782 -2.2728263771035344 199 199 200
-0.2017527487266425 -0.2845573860814923 -1.6083745938973852 205 204 203
-0.18255567829802777 -0.28599956710358926 -1.604388769140648 150 144 132
-0.16663053462900512 -0.28725078141990706 -1.6020187677252637 122 109 88
-0.15006234524413609 -0.2885357695937989 -1.5992670301371232 124 107 84
-0.1320530317262879 -0.28989983412074904 -1.595717612653948 119 101 76
-0.1173327269850526 -0.29107324744661434 -1.5938148687262397 119 99 72
-0.10368958251025484 -0.2921827332087466 -1.5924259915448338 123 102 73
-0.08801394156111586 -0.2934049778369075 -1.589933161765034 124 103 74
-0.07228666373597703 -0.29462720091760297 -1.5873629949944323 123 102 73
-0.05991940447110311 -0.29565664702284133 -1.5865090445831649 127 106 76
-0.04809325866356862 -0.29665334267976373 -1.5859023692995071 126 105 75
-0.04010233285831277 -0.2974320801363045 -1.58729020237731 128 107 78
-0.03030148760938789 -0.2983111766685903 -1.5876940935958355 122 102 72
-0.02029720982494876 -0.2991999820781054 -1.5879605561883015 119 98 68
-0.008335317823631838 -0.30019657348614737 -1.5871497597144728 129 106 75
0.0020846215182043215 -0.3011048875145443 -1.587129804914304 141 118 85
0.013708653197983867 -0.302078467614744 -1.5864296391755837 137 114 83
0.025015001492098232 -0.3030322698465604 -1.5858652481690525 133 110 76
0.03556049083626345 -0.3039417918442858 -1.585678779976269 130 107 72
0.04637444007121572 -0.3048643081520397 -1.5853140618359198 122 99 67
0.057889989682709586 -0.3058236771557528 -1.584532906148691 121 98 67
0.06893077274439613 -0.3067547461814017 -1.5839761334078988 126 103 69
0.07968549956210863 -0.3076680608152923 -1.5835425486634565 126 103 69
0.08159259939200614 -0.30809312425306873 -1.5879589220795822 126 103 69
0.0922630699427816 -0.30899890637949645 -1.5875222910967093 128 105 73
0.10027031668154907 -0.3097569628542416 -1.5885326149824213 124 101 70
0.10886688234255254 -0.31054587214286106 -1.58919140249066 124 101 70
0.11761358784556425 -0.3113414904265647 -1.5897409677349073 129 106 75
0.1253160566886254 -0.312078775666884 -1.5908508653521278 129 109 76
0.13299969393782102 -0.3128137535964448 -1.5919494296831704 126 104 70
0.14066452182100603 -0.31354642912469594 -1.5930367114371842 130 107 75
0.15462069169338105 -0.3146180553832236 -1.5905346947565926 128 104 74
0.16104848191368237 -0.31528070416780474 -1.5922699943249752 125 103 71
0.16548151206768236 -0.31583491038795436 -1.5951267093354782 130 108 73
0.16473121601428942 -0.316109971141069 -1.600942464358609 120 100 68
0.16802841482667918 -0.3166027012726291 -1.6044423654873845 100 82 55
0.17121535801703314 -0.3170892150384678 -1.6080004510953394 96 79 54
0.1734930655467588 -0.3175268761745247 -1.6120795416747362 88 72 47
0.17214394758029117 -0.31777115169628534 -1.618262152212127 84 69 44
0.16448667265745776 -0.3176806598235003 -1.6281305666029071 84 69 46
0.16941728650909238 -0.31826037827004283 -1.6306812797279828 91 76 54
0.17171624586247375 -0.31870004262569773 -1.634762902895281 101 86 65
0.17873326481010937 -0.31938894669662865 -1.6360682858012268 106 93 74
0.04244836627916815 -0.31520111267438977 -1.7676939923660293 123 111 96
0.043044712373752736 -0.31624474923225626 -1.7846278952769725 114 98 83
0.05002311380923197 -0.3169416871305448 -1.7861280392376593 108 92 75
0.05624405264613874 -0.31759865918724406 -1.7880747229326692 107 89 71
0.059223978038242864 -0.3180889291738087 -1.792005532828672 108 89 69
0.05393912631664588 -0.31815730730655034 -1.8010507733828052 111 92 70
0.057644636692367635 -0.31868501006997674 -1.8045393010904558 112 94 70
0.058076606800149366 -0.31904605990605106 -1.8100612781456604 111 93 71
0.05189840286910219 -0.3190725180432321 -1.8197222408223852 111 93 71
0.0552663275013926 -0.3195834900981946 -1.8234282475366683 111 94 71
0.06914156336993804 -0.3206241366919862 -1.8205178113797735 111 94 71
0.07356342582025677 -0.32118628949079103 -1.8235268812489038 110 93 70
0.07943961164983426 -0.32182089435820044 -1.825605469792102 111 92 70
0.09786333456218554 -0.32308311150737595 -1.8196990324152231 115 95 73
0.10248939720940564 -0.32365196287229814 -1.8225181205121408 113 94 71
0.10242543400464499 -0.3239863624281996 -1.8283242041928074 112 93 70
0.10492730605541956 -0.32444886445375903 -1.832493381841994 114 94 71
0.1105576327510367 -0.32506648632790636 -1.8346484149156377 118 97 74
0.11246477074487637 -0.32549893128590124 -1.8391907900818352 117 96 73
0.114097309945561 -0.32591782974116834 -1.8439111356095637 116 96 71
0.11481640152555939 -0.32629180242905376 -1.8492258257600658 116 96 70
0.10331121766440698 -0.32606521800431354 -1.862505731067506 117 96 69
0.100131015093613 -0.3262500261189841 -1.8704021633653554 115 94 67
0.10391215566910617 -0.3267765771066994 -1.8737582884753092 113 92 63
0.11129542426554107 -0.3274784791153985 -1.8747397197072884 113 92 63
0.11370906749014875 -0.32793718376725445 -1.8789755596580546 111 92 63
0.12411756234005356 -0.32878402027541065 -1.8779227754242154 109 90 60
0.12666676824100875 -0.3292481361709373 -1.882048959098435 108 89 60
0.12727041470443268 -0.32961810087518306 -1.887467282958582 107 88 59
0.1361843360687568 -0.3303889766133724 -1.8873450559533766 107 89 60
0.1487677697978781 -0.33133464144667496 -1.8847380968177174 107 89 58
0.14993137243982269 -0.33173002194535417 -1.8897558006520316 107 88 56
0.15045850241507763 -0.3320951420406696 -1.8952054443479454 106 85 54
0.15161910990036598 -0.33249083942109914 -1.9002330242888827 107 86 55
0.15304886236399595 -0.3328995426520724 -1.9050815301871744 108 87 56
0.15500698506683652 -0.33333346436626693 -1.909573127899144 109 88 57
0.15545241644616703 -0.33369574020489173 -1.9150959770006244 109 88 57
0.15733030365408984 -0.33412605756603636 -1.9196456186255029 110 89 60
0.1311912701682726 -0.3332361470388068 -1.943410464056362 112 91 62
0.13300165603815517 -0.33366672093693495 -1.9480651030144607 115 94 66
0.14388057604365134 -0.33452248328714734 -1.9464635433287651 115 94 66
0.15493316579103167 -0.33538421125795337 -1.9447049930766251 112 91 63
0.1560189470355814 -0.3357788967654339 -1.9498268273256638 111 91 62
0.17721708584933615 -0.3371093715004608 -1.940950570423341 110 91 61
0.17834238880093323 -0.33750387552885297 -1.946010395089616 110 91 61
0.17907518396768052 -0.33788042065094553 -1.9513485899145213 111 92 62
0.17102228192438806 -0.3378517908669044 -1.9628631749734196 109 91 61
0.17737274194152175 -0.33848858895671335 -1.9642722737924698 111 91 62
0.18315446099656474 -0.3390982056816154 -1.9660649353768092 111 90 61
0.18814508985813405 -0.3396706677271988 -1.9684022692920131 110 89 60
0.1980405239841948 -0.34046634950668814 -1.9672406443731896 111 90 61
0.19881118462979586 -0.34084454878409365 -1.9725506465865033 112 91 62
0.20147434923637886 -0.3413089897791605 -1.97651251735393 108 87 58
0.19276641050104415 -0.34125822961570934 -1.9886255547641076 106 85 54
0.2019223151032179 -0.34201699788523676 -1.9879358653496124 107 86 55
0.20050476543393358 -0.34229770070010557 -1.9948425696459884 109 88 57
0.1987682450800593 -0.34256491071100353 -2.001994301304352 110 89 58
0.20587308047679054 -0.34322911196065653 -2.0027469217114944 108 87 56
0.2115074489600196 -0.3438263459137532 -2.0045477534438754 104 83 52
0.2137431517656616 -0.34427125780276213 -2.00881328096598 102 81 50
0.2183086393886785 -0.34481960152345115 -2.0113724398112627 108 87 57
0.21980373543561416 -0.34523127565311074 -2.016174281536947 113 92 61
0.22360777969297518 -0.3457450641439467 -2.0192783140307595 121 100 69
0.22751355760281378 -0.3462628722677275 -2.022299349822364 104 84 52
0.23066929679700032 -0.3467472463554068 -2.025867406989826 104 83 52
0.23382846560039494 -0.3472314694056491 -2.029427772685943 105 84 53
0.23411305230128487 -0.3475898435271009 -2.0351237420550725 105 84 53
0.23499100024219677 -0.34797447714720653 -2.0403837068476607 105 84 53
0.24012464045932902 -0.3485441764802887 -2.042460690077748 108 85 54
0.22707221080250473 -0.34832567305861545 -2.0581848966592036 109 86 55
0.23963643827972947 -0.3492168469840565 -2.0546759921908175 109 86 55
0.24143890855384575 -0.349642108327713 -2.059251704324816 108 85 52
0.250711539821836 -0.3503880103481204 -2.058168299578701 108 84 52
0.24965443358431616 -0.3506900381649102 -2.064901913101259 108 84 53
0.25547148527414365 -0.35128610826655926 -2.0664105646974398 109 85 54
0.25682466212158894 -0.35169131662784997 -2.0713135288712525 112 88 56
0.25694197650824535 -0.3520442645345662 -2.0771661646711173 128 105 71
0.25884873511104134 -0.35247334100219924 -2.0816515796258583 112 89 57
0.26086954931341155 -0.35290723674583235 -2.0860492869853346 105 85 52
0.26249714530733737 -0.3533245891326241 -2.0907505976331673 102 82 49
0.264807007590929 -0.35377061023212086 -2.0949245270033425 97 77 43
0.26719810654522824 -0.3542199326601933 -2.099033745195504 93 73 38
0.27037994858344505 -0.3547020699875535 -2.1025246954324057 91 71 36
0.2724643135792708 -0.35513833099642766 -2.106868068155389 89 69 34
0.2736336466247591 -0.3555366893992489 -2.1119280858022638 86 64 29
0.27703381780050773 -0.35602728314197474 -2.115238013761756 85 62 28
0.27972250907085955 -0.35648824192234674 -2.1191023670732703 87 64 30
0.28119013003320037 -0.3568989494112179 -2.123928654769906 85 62 29
0.2840344287269464 -0.3573660426855779 -2.1276658248386555 86 64 30
0.28165292549216325 -0.3576200171142549 -2.1355529245883487 85 62 28
0.2834271999006793 -0.3580438730703134 -2.140146664334953 87 64 31
0.29835673193082163 -0.3590002684326679 -2.1342259043319323 86 63 28
0.2999094847217877 -0.359413565110433 -2.1389695131618613 83 61 24
0.29493106134916264 -0.35956430012753343 -2.1489644548339815 90 68 31
0.30350666905024365 -0.3602601732433308 -2.148065647526015 87 65 28
0.306236847797196 -0.36072075573853213 -2.1518617342935165 85 63 26
0.31263134838781137 -0.36132706099875495 -2.152684442722212 90 68 29
0.31797809088877355 -0.36189060902584946 -2.1543387299341146 92 70 31
0.32122105447863336 -0.3623700324110253 -2.157692225855597 97 75 36
0.32473598745296844 -0.3628598357201163 -2.1608175932047997 97 75 36
0.32991506320083713 -0.363414620662073 -2.1625721490589576 95 73 34
0.33567885987623547 -0.36399145044872516 -2.1638316032662295 95 73 34
0.33817670143527356 -0.3644397837102574 -2.1677648202355617 96 74 35
0.3356175169123781 -0.36469123949259963 -2.17587375613286 95 73 34
0.3380887933421357 -0.3651389119251386 -2.179835285240857 91 69 30
0.3421575395629735 -0.3656481616942714 -2.182467247215379 91 69 30
0.3439075332366197 -0.36606756331596735 -2.187021110062288 92 70 31
0.3477046329047059 -0.36656556098867843 -2.189865824790194 92 70 31
0.3558237038157149 -0.36722831979870924 -2.189082010317797 92 70 31
0.3536840594616406 -0.36749853346208117 -2.1968859266336334 94 72 31
0.35886731704496805 -0.3680478823149982 -2.198541413773473 96 74 33
0.3594092851757527 -0.3684207524776777 -2.2041012925144834 95 73 32
0.3665609163578247 -0.3690431886291233 -2.2040709123867455 90 68 28
0.37325537442747975 -0.36964704622562267 -2.2044047092977674 94 72 32
0.3785425113225545 -0.3701969399993848 -2.2059146617165526 99 77 36
0.3729396749107616 -0.3703397514374054 -2.2167050266940147 100 78 38
0.3758540847851824 -0.37080111937295 -2.220239915243938 100 78 39
0.37982138007174027 -0.37130120536257305 -2.2228666028377 100 78 39
0.38140787051281183 -0.37171290326688505 -2.227532619713867 99 77 38
0.40387990427709936 -0.3728923855250111 -2.2141789287291593 98 76 36
0.4105992371144133 -0.3734894021155913 -2.2143588198020097 99 77 37
0.41117931893046245 -0.37386111588289006 -2.219842138503818 101 78 38
0.41189561718444956 -0.3742381406847559 -2.225213115112839 99 78 39
0.40864803854333137 -0.37447194432563297 -2.234046702897826 92 73 36
0.408973855317842 -0.37483607031948696 -2.2397794436161416 87 71 34
0.41387777589186087 -0.3753651652870034 -2.2415054178320895 84 69 37
0.41200309332545554 -0.37565074555742956 -2.2491768115463175 81 67 38
0.4112041831698198 -0.37597573097051024 -2.2559176231726563 80 68 44
0.41116135898785455 -0.3763283226432128 -2.2620028750622967 94 85 65
0.411292684681022 -0.37668761496722797 -2.2679429732666887 119 115 101
0.4179623826600505 -0.377277896916176 -2.2680818376753025 146 147 139
0.4213130194736195 -0.3777503167263683 -2.27115523355887 171 172 168
0.425044801453936 -0.3782356698540381 -2.2738813712141543 186 187 184
0.4328090063577312 -0.3788610035382083 -2.272987382457444 195 195 194
0.4432523307415917 -0.3795776804774544 -2.2696598691150593 200 200 201
0.45181729075753324 -0.38022706813217855 -2.267983073030346 205 205 207
-0.19037354772102866 -0.29071404497865216 -1.6078187209718378 201 200 197
-0.17139289584114925 -0.29211345060600424 -1.6038968670707408 135 129 117
-0.1528643269133947 -0.29348410207411796 -1.600145815348947 120 106 87
-0.1373394834142011 -0.2946847662279481 -1.597885715463892 119 102 79
-0.12059099445602539 -0.2959501711620832 -1.594942014203783 121 100 74
-0.10632633611338205 -0.2970753058323127 -1.5932361952519676 126 104 74
-0.09147279193934188 -0.2982302159369733 -1.5911780318140614 125 104 73
-0.07534233273654523 -0.299452524665213 -1.5884037927674743 122 101 70
-0.062044385305883853 -0.3005163623517443 -1.5870664114091617 130 109 78
-0.050077127350930284 -0.30150487805310466 -1.586389280877329 129 108 77
-0.04070346717990936 -0.30234949532797983 -1.587048206028139 125 104 73
-0.031394906877523 -0.3031889477149769 -1.5877144072520781 128 106 75
-0.022861199275745592 -0.30398462649552566 -1.5887665218855964 123 101 70
-0.01125395095647741 -0.3049458026408857 -1.5881503057235575 122 99 67
-0.0003191815587642033 -0.30586841279896404 -1.5878592805995546 134 111 77
0.01140303143211685 -0.3068316468664664 -1.587110787094801 136 113 81
0.0227379593868986 -0.30777182509461554 -1.5865352781209725 135 113 77
0.03198507683717011 -0.30859745953707235 -1.5870571294178604 135 113 76
0.043243589146293004 -0.30952962055638855 -1.586457112468347 129 106 74
0.05348954773211195 -0.3104053977286627 -1.5863752292545494 131 108 77
0.06705279344283394 -0.31145694639864197 -1.584444508983958 133 110 76
0.07935231097294043 -0.3124383960889896 -1.5831650410133635 127 104 70
0.08700119511100407 -0.3131695775495906 -1.5844124758502058 134 111 77
0.09147095497089475 -0.3137303335238595 -1.5873983544378436 124 101 69
0.09908256886654848 -0.3144573427978468 -1.5886294067832007 130 107 77
0.10520000429211018 -0.3151039150422499 -1.5906718141720428 138 115 85
0.11372732606891311 -0.3158769672406299 -1.5913506244394313 124 101 71
0.118117407671196 -0.31643025624643467 -1.5943260403017803 124 101 67
0.12185721690429396 -0.3169487543635348 -1.5976582069924106 125 102 69
0.13320862448178294 -0.3178667317977665 -1.5966833636229096 125 103 72
0.14989448466639627 -0.3190622453177797 -1.5926489099742536 116 94 65
0.153245504860208 -0.31955686118771987 -1.5961422734799955 127 105 76
0.15423877658819912 -0.31992807571959225 -1.6009755192010775 108 86 58
0.1576247104703446 -0.32042411929679004 -1.604442284489137 109 91 64
0.15919629332704038 -0.3208255271471062 -1.608945619406084 99 83 57
0.16075828026076827 -0.32122651002131697 -1.6134557139643886 92 75 50
0.1491005443377374 -0.3209434781344547 -1.6256117967429666 86 70 46
0.15073797941008554 -0.3213500052344599 -1.6301059905485134 84 68 45
0.1555492793169605 -0.3219201126438913 -1.6327536413539991 94 79 57
0.1614169992446614 -0.32254386651731304 -1.6347731237045482 101 87 69
0.16287587363666467 -0.3229405729462683 -1.63936075913272 109 97 82
0.16710095507517508 -0.3234789523578222 -1.642323862856358 110 103 88
0.04087255218395347 -0.32245746480270787 -1.8084950747200108 114 99 80
0.04437789876335241 -0.3229738464270056 -1.8121321904998489 115 101 80
0.03682738394245899 -0.3229470151691753 -1.8226514006864256 116 100 80
0.040273935430132024 -0.3234611070961359 -1.826335245587002 117 100 81
0.04398616116258858 -0.3239878452412597 -1.8298468260208984 117 101 81
0.04803017150089528 -0.32453035838858063 -1.8331429696629553 116 100 80
0.07317935655070074 -0.3260988034950381 -1.8231148366687513 115 98 77
0.07891836947256148 -0.3267201117937902 -1.8252800129237463 114 96 76
0.08559911276644261 -0.32738611499984105 -1.826832336424597 115 98 77
0.09055223965670822 -0.3279676023249602 -1.829466294061909 115 98 78
0.09131723442039041 -0.32834668013749674 -1.8347642437960499 115 97 77
0.09835387193637535 -0.32902735856040377 -1.8360474970008969 113 94 74
0.10001644285849054 -0.3294492864904622 -1.8407655688230666 115 95 75
0.10155563077873186 -0.32986539087199135 -1.8455644804348978 115 95 73
0.10381416533206256 -0.33031590399426825 -1.8498997964874224 116 97 73
0.10607231711893994 -0.33076633257521837 -1.8542342393220224 117 97 73
0.10574689127309289 -0.3310941033349537 -1.8602493255908301 117 98 73
0.1075727634313367 -0.33152424666528113 -1.8648689888486716 116 97 71
0.11808569206502662 -0.3323645580196992 -1.8637994490928287 114 96 68
0.1200441523892245 -0.3327999810326938 -1.8683156989986918 115 96 67
0.12232825099191869 -0.33325070404873314 -1.8726174127599795 116 96 69
0.12490363999659737 -0.3337150007140016 -1.8767253166144044 115 95 68
0.12764625821048692 -0.3341869682913057 -1.8807198969695949 117 97 70
0.12978614563179325 -0.33463065639088846 -1.885112236780685 115 96 70
0.13145633829939962 -0.3350524673577757 -1.8898172545079712 108 91 64
0.13312695008089492 -0.33547437089401955 -1.8945232283738038 108 91 61
0.1327136755294237 -0.3357999656691127 -1.9006291890565254 108 90 59
0.1259543005134589 -0.33583339035393656 -1.9110175102064286 111 91 62
0.1514599835222269 -0.3373534191910905 -1.8996526385172694 111 91 62
0.15230074013295103 -0.337735921830267 -1.9048983954475025 111 91 62
0.15395048065324268 -0.3381557219478066 -1.909599134820149 111 91 61
0.15420954785072627 -0.3385121214032406 -1.9152488706944595 112 92 62
0.15338483791920932 -0.33881959898298863 -1.9216464184663944 113 93 64
0.15582159175240273 -0.3392758330102257 -1.925819467586446 115 95 67
0.14375349908299984 -0.3390751781816619 -1.9399647907269448 118 96 70
0.15496514084840918 -0.339929208225191 -1.9381118007695608 117 96 70
0.15106697059569052 -0.3401005063710788 -1.946673288739407 111 90 64
0.15298930345679973 -0.34053465720830767 -1.9512205306233887 111 90 64
0.16755936527681248 -0.34153531231581136 -1.9469661001545824 109 89 62
0.17081755324434578 -0.3420276046329908 -1.9505550852689253 111 91 63
0.162275983132519 -0.3419939706662302 -1.962399535741762 110 90 63
0.1683849542180701 -0.3426137152985581 -1.9640006257073193 109 91 61
0.17459870665133148 -0.34323708122299756 -1.9655106718412065 111 91 62
0.17672767671174694 -0.3436789581376715 -1.9698882527907435 110 89 60
0.18834485109163512 -0.34453875229465436 -1.9675433802477154 109 88 59
0.1924248924176558 -0.3450650774106264 -1.970513443819327 111 90 61
0.19602408105074587 -0.34556981445891816 -1.9738172884320502 114 93 64
0.19782035097189377 -0.3459953964455171 -1.9784028454473246 105 84 55
0.197173045047214 -0.3463145926090164 -1.9847407236645265 104 83 52
0.19474662542412313 -0.34655717329662084 -1.992368660252158 99 78 47
0.19381007828356356 -0.34686536649788063 -1.9989408371801907 104 83 52
0.19742791448219243 -0.3473709391878411 -2.0022317115214627 106 85 54
0.19953440922018917 -0.3478110291229383 -2.0066117396561776 108 87 56
0.20829209044839714 -0.3485366108926955 -2.0061531166369857 110 89 58
0.20752800644468905 -0.34885292499120457 -2.0126119724244336 111 90 59
0.21031887428234408 -0.34932164066789073 -2.0164814481403366 119 98 67
0.21629271440622655 -0.3499255889934146 -2.0180118250354893 120 99 68
0.2165683367951473 -0.3502867746262776 -2.0237184295833934 107 86 55
0.21950408134373423 -0.35076090714369357 -2.02746895260507 102 81 51
0.22101628200898804 -0.3511747575198467 -2.032268971661033 103 82 51
0.2190233047007364 -0.3514413397982692 -2.0396728363813263 104 83 52
0.22320418082572302 -0.3519677316277333 -2.0424974884198273 107 86 55
0.22877345833853469 -0.3525515859009968 -2.0442760385024252 109 89 57
0.21901093313456055 -0.35249570815194553 -2.0575187468321228 111 91 60
0.2208792617194575 -0.3529259445280205 -2.062078282977 110 89 58
0.23778631313764087 -0.3539789787169972 -2.055313248879605 110 89 58
0.23434171472298793 -0.35418800871770373 -2.063853571517832 112 90 59
0.24192285182359174 -0.3548521926584757 -2.0640666239608434 106 84 53
0.24315006441835574 -0.35525424969197994 -2.0690813965301365 108 86 55
0.2494816056070811 -0.35586525888925047 -2.070211329115906 107 86 54
0.24975640022189016 -0.3562282032700812 -2.0759488746681956 123 102 69
0.2501556173487064 -0.3565966359726014 -2.081598401519531 119 97 65
0.2523196278405878 -0.3570369679679724 -2.0858989369980057 108 87 56
0.2547602999417342 -0.35748841919369323 -2.0899854211883064 102 82 49
0.25556589858567647 -0.35787392345164093 -2.0953330252013234 95 75 42
0.25799326576674153 -0.35832480122483995 -2.0994291486506107 87 67 33
0.25992128921335733 -0.3587555844519584 -2.1039111789169778 90 70 35
0.2638810187694892 -0.3592673741837959 -2.1068103137057705 90 70 35
0.26567844951365005 -0.3596927183406644 -2.1113901623624565 86 66 31
0.27111995570563807 -0.36026243712664946 -2.113115386068486 87 65 31
0.2730921243473704 -0.3606942865205272 -2.1175512891452692 89 66 32
0.2752056463835124 -0.3611316923997454 -2.1218757210362997 90 67 33
0.2773070810937628 -0.36156858194703106 -2.1262089885319946 90 67 33
0.27876551450385656 -0.3619802999819862 -2.131051090613383 89 66 32
0.276542654108475 -0.36224874257169165 -2.1388204914393607 88 66 30
0.28445381606477016 -0.3629117211752905 -2.138533550084599 90 68 32
0.29611001696862427 -0.3637180399022771 -2.1352277650943146 91 69 31
0.2813737880801084 -0.36350408909346654 -2.1530257772284283 88 66 27
0.28997075332204536 -0.3641912083303653 -2.15215036795125 90 68 29
0.2970290607845069 -0.36481764901264124 -2.1524850427618403 97 75 36
0.3063746206033522 -0.3655300337356101 -2.150948932975772 95 73 34
0.3057320468297967 -0.3658605830986047 -2.157471901253 94 72 33
0.3089301497087105 -0.3663373804802022 -2.160886207619646 94 72 33
0.30926879691081366 -0.36670584968831565 -2.1666243758122583 98 76 37
0.31271945033126314 -0.36719186514480034 -2.1698275246868635 98 76 37
0.31915386204354096 -0.36778937602297346 -2.1705797210885023 96 74 35
0.3256184943570928 -0.3683868191315537 -2.1712868530916256 95 73 34
0.32993194449822616 -0.36890295489612734 -2.1737454240322887 95 73 34
0.32832666214121387 -0.369198861299045 -2.1810816966621767 94 72 33
0.33107956851901266 -0.36965682726305504 -2.18482457741021 92 70 31
0.3373369601016129 -0.37024365748231125 -2.185653435385595 93 71 32
0.3400883846275512 -0.37070066072540336 -2.1893821913572378 94 72 33
0.34284282941415634 -0.37115755441998916 -2.1931047057773823 92 70 31
0.3432868449883092 -0.37153005698713504 -2.198757944526883 91 69 30
0.3488494102370543 -0.37208874147888077 -2.200120662611967 91 69 29
0.35399671838204305 -0.37263142999296056 -2.201816388657962 94 72 31
0.3590982597480554 -0.3731715998384797 -2.203536038657657 95 73 32
0.3634764521873176 -0.37368494929922036 -2.2058534093585545 94 72 32
0.3687892958133743 -0.37423105147735164 -2.20736628908024 99 77 38
0.37474869626427504 -0.37479926261960655 -2.208313383586165 99 77 38
0.3644396935943535 -0.37478913098903316 -2.2231237723490507 99 77 38
0.37032459391594597 -0.3753547255004708 -2.2241348915395647 101 79 40
0.37574943268374295 -0.3759030416555358 -2.225522448102679 100 78 39
0.3970201532950283 -0.37700616953582683 -2.2132628673714745 99 77 38
0.39916805355730967 -0.37743591829594975 -2.2174078671855844 99 77 38
0.4082848286173244 -0.3781081148227579 -2.2155247144138084 97 75 36
0.40832271918754826 -0.3784636377917594 -2.2214810580925572 99 78 40
0.40176244662493793 -0.37859187211618983 -2.2331831325854865 95 75 38
0.40168747174611247 -0.3789454478025498 -2.2392705736458116 86 68 34
0.40307500457162015 -0.3793496607076069 -2.2440888114692763 81 66 32
0.40085071393954014 -0.37963081362393647 -2.2520752051000814 80 66 37
0.4068268385865291 -0.3801917045850194 -2.2528742206535046 75 63 36
0.40839886465211134 -0.38060245929708714 -2.2575349541594107 81 70 49
0.4081796646579358 -0.3809529507478112 -2.263779842145452 105 98 80
0.4069649571223206 -0.38127062742176876 -2.270916612111004 133 131 121
0.41624394412426324 -0.38193985531884955 -2.268747527108199 160 161 155
0.42083187102326575 -0.3824509186179834 -2.270721442426696 179 179 177
0.4231952094643367 -0.3828875132078538 -2.274669107372697 192 192 191
0.42460876796233576 -0.38329263808905534 -2.2794649433005665 198 198 199
-0.1800696803080274 -0.296777037248404 -1.6077801720320608 190 189 183
-0.1607147735137242 -0.2981663209516773 -1.6036210523884775 126 118 103
-0.14245318753907366 -0.2994930262966099 -1.5999630806630103 116 104 85
-0.12895027235694467 -0.30056078710279965 -1.5987111657840487 117 100 76
-0.1121347100416561 -0.30180346151295223 -1.5956948322174902 125 105 77
-0.0988495194637834 -0.3028541928800016 -1.5944662415460102 131 110 79
-0.08405761502263565 -0.30398281849996595 -1.592407286371984 130 109 78
-0.0686379527758113 -0.3051420489083826 -1.5899714082113618 130 109 78
-0.05227549235693074 -0.3063484058312971 -1.5869889154851868 132 109 78
-0.042830519866314254 -0.307184901729281 -1.5876137817432687 132 109 78
-0.0349024280729221 -0.30793951052949015 -1.5890165633354085 135 112 81
-0.024321934122506383 -0.3088328217371642 -1.5889840051592437 131 108 77
-0.012391407569480983 -0.30979534541931003 -1.5881976923584393 130 107 75
-0.00045450260726176417 -0.31075599724290653 -1.5873710026494567 140 117 81
0.010147607013071824 -0.3116444190246368 -1.5872259576924335 136 113 80
0.021389614782987842 -0.3125644153781365 -1.5867030277374896 133 110 77
0.03168028988513938 -0.3134326544460017 -1.5866612698133022 130 107 73
0.04032943329941663 -0.3142134766186642 -1.5874814338226642 131 108 75
0.050870522042468835 -0.3150912021900264 -1.58724374944492 135 112 79
0.06244276027375145 -0.31602052015018633 -1.5864090561132849 135 112 78
0.0753150789748841 -0.31701500691318757 -1.5848236716035204 134 111 77
0.08362581416289261 -0.3177713290365959 -1.585713050715722 130 107 73
0.09137774354565337 -0.31849740583051933 -1.5868876873452422 131 108 75
0.09899102413050265 -0.319215039438632 -1.588117382135452 128 105 72
0.10448726798580932 -0.31982271161563847 -1.590505179545283 137 114 82
0.10902025472790489 -0.3203802362171515 -1.5934179937645514 131 108 76
0.11299730935315011 -0.3209087564060674 -1.596632771116299 128 103 71
0.12196957073538073 -0.3216915524528796 -1.5970282244075498 123 99 71
0.13765290311936806 -0.3228142371397194 -1.5936069188014539 111 90 63
0.14159277280172233 -0.32333757535732044 -1.5967876137661479 122 102 75
0.1453436781296647 -0.3238508782564975 -1.6000679914782685 115 95 69
0.148819526539401 -0.324349857918395 -1.6034982258840178 93 71 48
0.15280376358252223 -0.32487411636212565 -1.6066314732630314 115 94 71
0.1531978212430004 -0.3252172564426214 -1.6118184310252763 93 76 52
0.15238913926721614 -0.32550035970927704 -1.6177041029805985 84 70 45
0.14044605152852807 -0.3252263879056939 -1.6300366807657198 84 70 46
0.14616560849683385 -0.32583823843993853 -1.6321780702450286 81 67 43
0.15069732927359986 -0.3263899919011774 -1.6349960513671815 92 76 55
0.15294334230722423 -0.32682744320234575 -1.6391384132813998 110 97 82
0.1551249657137701 -0.3272616202127316 -1.6433171739542294 107 98 87
0.15788973093316033 -0.327724606707072 -1.6471521599668364 142 139 131
0.01796837282627839 -0.3270297492357306 -1.8337439232150912 121 106 90
0.021202602929993652 -0.32753348746083727 -1.8375961298661143 120 104 88
0.024433949910586117 -0.32803680284841413 -1.8414453414248737 118 102 86
0.025192019723092707 -0.3284234346639932 -1.8468447901967924 118 103 85
0.05448850144192541 -0.3301500520885645 -1.8342494975885875 119 104 85
0.06168814143167878 -0.33083551960966784 -1.8355266357821236 118 101 83
0.06744726102009424 -0.3314524710633517 -1.8376973821495133 121 104 85
0.07321086092803386 -0.3320687360960344 -1.8398502884810153 122 105 87
0.07895949713513084 -0.3326834077527638 -1.84199771580514 117 100 82
0.08567906567210282 -0.3333421841426003 -1.8435080771736125 116 98 80
0.09281679271027699 -0.3343657913514544 -1.8505344222466968 113 95 75
0.09269831122233863 -0.3347074478028755 -1.856422650862901 116 98 76
0.0954429970388555 -0.3351809406091449 -1.8604619911287932 119 101 77
0.09730350920275765 -0.3356138009248461 -1.8650736228024059 119 101 77
0.09870146200531393 -0.3360255852954103 -1.8699876838012546 117 100 75
0.10266078091025232 -0.33655407507004376 -1.873227078020724 116 99 73
0.11015178762099176 -0.33724238429079834 -1.8741390173704253 117 99 73
0.11295774017023252 -0.3377172848807257 -1.8781151320125447 120 100 73
0.11576255700191784 -0.3381919346256058 -1.8820886557041818 121 101 74
0.11816613574409018 -0.338648318966528 -1.8863247922939377 119 99 72
0.11943794348402303 -0.33905377997465375 -1.891311689824278 116 98 72
0.12276052637479562 -0.33955125095881344 -1.8949337947450318 109 93 66
0.1266258319937661 -0.34007263359280127 -1.8981873817368342 108 92 65
0.12906382393964944 -0.34052998612695623 -1.902390975856085 109 91 64
0.12505653461284771 -0.3407009485370971 -1.9109305152359322 114 94 68
0.13160113558234965 -0.34134076389406115 -1.9123712863547293 116 96 70
0.13546805708228815 -0.34186118403344173 -1.9156064690261347 114 94 68
0.12872348824510493 -0.3419137084823695 -1.926040882410779 116 96 70
0.1272291961404568 -0.34219900170966744 -1.9329345210685076 116 96 69
0.12699862298539188 -0.3425405054582873 -1.9389789926114123 116 96 70
0.13388333921070594 -0.34319335901731013 -1.9401562238228034 117 97 71
0.14193996457830227 -0.3438960522525036 -1.940507686879903 117 95 71
0.1534852517116284 -0.3447487765318788 -1.9384287619575096 117 95 71
0.1503296078940859 -0.3449624227178335 -1.9464764371734262 114 92 68
0.15906948828560508 -0.34569107587487874 -1.9462945853357296 112 91 66
0.16211790505614754 -0.34617295834156087 -1.950044100291584 107 87 60
0.1646421457513717 -0.3466320658237467 -1.954154889499469 110 90 63
0.1669431120435837 -0.34708147631176645 -1.958419632894733 111 91 64
0.16674976400044494 -0.3474243197026985 -1.9644337975489365 109 91 61
0.16909494866159513 -0.3478757586057633 -1.9686698589146858 110 90 60
0.17226960144207737 -0.34836230853667993 -1.9723186836813933 110 89 60
0.1798256787590835 -0.34903396628682826 -1.9728596411928512 109 88 59
0.1837915928444952 -0.34955275138245556 -1.9759272059747466 107 86 57
0.18636764520409121 -0.3500125690262659 -1.9799764841696437 113 92 63
0.18769645773613142 -0.3504199228573425 -1.9849143149886648 109 88 59
0.19015476925489583 -0.35087466716501986 -1.9890454527739756 102 81 50
0.19009505725053155 -0.3512243116885344 -1.9949841678096494 102 81 50
0.18901199773226574 -0.35153193207850286 -2.0016690407159166 103 82 51
0.18784498760737123 -0.35183684307937224 -2.0084274824976847 105 84 53
0.19711318917659082 -0.35257363930492924 -2.007633500927889 110 89 58
0.19853630828817215 -0.35298549061096096 -2.012513029662026 110 89 58
0.1998364433437072 -0.35339242990899195 -2.0174845471479173 116 95 64
0.201633749030394 -0.35381988808423803 -2.0220952746905883 122 101 70
0.20333663270241809 -0.3542435364738542 -2.0267759818822695 112 91 61
0.20674733499788722 -0.354736721248449 -2.030201484243641 108 87 58
0.20793756956245624 -0.35513949873908496 -2.0352590157259267 108 87 58
0.20621524602338015 -0.3554247420712625 -2.042474869848005 111 90 59
0.2106748122197084 -0.3559600239177707 -2.0451192866275645 112 91 60
0.22195455887461435 -0.35676861180226804 -2.0426775728430178 113 92 61
0.2109311545145679 -0.3566818300529953 -2.056841375768147 112 92 61
0.20888161792189142 -0.3569565282897199 -2.06434423356842 111 92 60
0.22822733835753628 -0.3580833990232563 -2.0558045304876185 110 91 59
0.22690465799342274 -0.3583862345584385 -2.062748759770059 113 92 61
0.22886695330831464 -0.3588197521660737 -2.0672272009035124 108 87 56
0.23384097328090658 -0.3593719174172004 -2.069425473846519 102 81 50
0.23633620351037254 -0.3598259724327689 -2.073492768236891 105 85 52
0.24148570300290262 -0.36038376824670726 -2.0755367132078653 117 98 65
0.2428363424092902 -0.3607925553318293 -2.080467619082937 119 98 66
0.24291209085596976 -0.3611519357525702 -2.086377436823843 106 85 55
0.24532053336909787 -0.3616021911783361 -2.090504066104767 101 80 49
0.2485596910400143 -0.36208440977448925 -2.093988987328589 101 80 48
0.24891447840495318 -0.3624552843697158 -2.0996959399132065 96 76 43
0.25107667095886643 -0.3628959031430137 -2.104010083028912 88 68 34
0.255233533643084 -0.36341271673051495 -2.106774122904721 89 69 34
0.2581901164357038 -0.36388323071576956 -2.1104633953089262 89 69 34
0.2628790489328786 -0.3644192495402634 -2.1127952094001596 90 70 35
0.2654401324609421 -0.36487404938503687 -2.116781680514225 93 71 36
0.26828866863728107 -0.3653395272930446 -2.120539702582968 92 69 35
0.27131626075722437 -0.3658114970042978 -2.124152749785736 90 67 33
0.2722983785959675 -0.36620660597208843 -2.1293767244880786 91 68 33
0.27802477998453345 -0.3667789600681517 -2.1308471260398045 93 71 34
0.2780504253128544 -0.36713839994445285 -2.1368289200574915 93 71 34
0.2937521675707576 -0.3680790094189382 -2.130333035968311 94 72 35
0.29211064740404297 -0.3683758593565419 -2.137628746565282 94 72 34
0.2922927716748885 -0.36874072699118193 -2.1434797350543153 91 69 30
0.29214393375086517 -0.3690939361863166 -2.149604397815997 90 68 29
0.2961449054303273 -0.36959921150067127 -2.1523961015389097 97 75 36
0.2972686047497657 -0.3699992749183609 -2.1575024512292056 101 79 40
0.30084621509525566 -0.3704884946797056 -2.160625109407821 98 76 37
0.30368458024795275 -0.37095058502506084 -2.1643408225236045 97 75 36
0.2981321043681525 -0.3711105751044231 -2.174885708617511 98 76 37
0.3005509382995021 -0.37155827601394353 -2.178954845999808 97 75 36
0.30651590569921905 -0.3721324718797975 -2.1801181092871467 97 75 36
0.3092225526113461 -0.3725896823644772 -2.1839387230699887 97 75 36
0.3100789018316449 -0.37298111858216454 -2.1892793803750106 97 75 36
0.312931693761584 -0.3734433286613368 -2.1929766598671327 94 72 33
0.31590683307037554 -0.37390959694072634 -2.1965685572243685 95 73 34
0.32321706804852923 -0.3745274549157469 -2.1965570250148168 97 75 36
0.3285700183178401 -0.37507555674258697 -2.1981504353379164 97 75 36
0.3345748179492685 -0.37564539205182684 -2.1991842594370303 91 69 30
0.33759314757567144 -0.3761107159176183 -2.202699156932829 91 69 30
0.34040326715858377 -0.376568564605182 -2.2063838670330105 90 68 27
0.34710770820955 -0.37715995575100564 -2.2067874238312406 88 66 25
0.3566273044045905 -0.37784636928032267 -2.204793732082899 91 69 28
0.36106991459465404 -0.3783576872611962 -2.207060941755424 96 74 34
0.366667935838243 -0.3789075342553512 -2.2083363808475087 97 75 38
0.36764455488490033 -0.37930014497553705 -2.213526317333133 99 77 40
0.3709226870191301 -0.379770503410194 -2.2167574481841004 98 76 39
0.36967143079278847 -0.38008861510899145 -2.223856261106133 98 76 37
0.3761428663912519 -0.3806654855261543 -2.2243467939097554 99 77 38
0.37946846755747654 -0.38113648645036013 -2.2275214328927744 101 79 40
0.38228394662299947 -0.3815902056514962 -2.2311294099795718 98 76 38
0.3870698111582676 -0.38210865819778717 -2.2330297876356813 95 73 36
0.38845713565098744 -0.38251470747127664 -2.2378628825923452 93 73 36
0.3904059956290111 -0.3829392668693008 -2.242210369596884 94 75 40
0.3954299603840646 -0.38346395137436523 -2.243877774097008 83 67 34
0.39743984944797534 -0.38389004436352403 -2.2481644785536217 76 61 31
0.3976939106164754 -0.38425942533745566 -2.2539891215790018 74 60 34
0.39627464067977886 -0.38457548104151185 -2.261291534931774 72 61 34
0.3964559320269768 -0.3849436949766386 -2.2671997307493648 86 77 55
0.3987989274427889 -0.38538127811673695 -2.271206905651432 115 109 94
0.41489282339206773 -0.3862549891148014 -2.2630353740009865 147 144 137
0.42435830827213333 -0.38691536570889346 -2.260682403323085 170 170 167
0.4365570735754133 -0.3876595633199997 -2.2558606303396425 185 185 184
0.4233552834191313 -0.38760574289386146 -2.2736624138879034 195 195 196
0.42064080247944907 -0.38788298773248603 -2.2821499325608112 200 200 202
-0.16888350184098977 -0.3028542322403104 -1.607257504114961 182 180 175
-0.14975357136332001 -0.3042007042828156 -1.603167471730529 117 112 99
-0.1314018511786803 -0.3055029022999413 -1.599417934215872 113 100 79
-0.11220632185993085 -0.3068453142879046 -1.5951700006662046 120 101 74
-0.09626881663652809 -0.3080150851001941 -1.5925583888518025 128 108 78
-0.08628513997819376 -0.3088738878435805 -1.5930120363527354 131 110 80
-0.0725803801003011 -0.3099229310087297 -1.5914817554724412 131 110 78
-0.0578254311967944 -0.31102344678994753 -1.5893547757194215 132 110 76
-0.04512087269399356 -0.3120157783319054 -1.5882653013253367 136 113 79
-0.03521763525638344 -0.31286210904491807 -1.5886232273965857 132 109 75
-0.02482205509313662 -0.31373185854189484 -1.5886896030220719 131 108 74
-0.013541926351721023 -0.31464487727324936 -1.58825198615252 133 110 77
-0.002108100133086044 -0.31556364163743506 -1.5876974029686106 137 114 82
0.008499722436992485 -0.31643830899838077 -1.5875522453564763 136 113 82
0.019012117091157132 -0.317306198068752 -1.5874264701595857 132 109 77
0.0303208175297196 -0.31821245319222596 -1.5868372540804194 125 102 70
0.03850666748875087 -0.3189589587649928 -1.5879114582922027 130 107 75
0.04773795665005098 -0.31975671625793256 -1.5883918631214953 129 106 74
0.059962341071811476 -0.32070324877615314 -1.5872060541186133 131 108 76
0.06921350985505764 -0.3214983737263146 -1.5876153585104846 132 108 77
0.08153111462560564 -0.32244525412591457 -1.5863065941779044 133 108 75
0.08770131643311224 -0.32308292899699537 -1.588359611000076 129 107 74
0.09551907970934731 -0.32380169301672596 -1.5894821115827593 125 104 72
0.10627699013627251 -0.32466520910174507 -1.588944807982435 125 104 73
0.10230886384675197 -0.3247966753720831 -1.5966040159461063 122 101 71
0.11017878063740455 -0.3255150008123156 -1.5976472282674794 123 100 70
0.11519758739454827 -0.3260912756798953 -1.6002720905886214 114 92 67
0.1295893914866219 -0.3271282958967871 -1.5975937536135807 125 104 79
0.13368461647738156 -0.3276567142182331 -1.6007004462402703 117 97 71
0.13663059974999103 -0.3281283140931916 -1.6044519767488201 109 89 64
0.1421720690756893 -0.32872656459452376 -1.6067194928533286 92 73 49
0.1433457022279449 -0.329110943538236 -1.6114721844484678 99 81 59
0.1455731474586653 -0.3295467669249957 -1.6156227071413949 89 74 51
0.14547998000891837 -0.3298698645070208 -1.6211085693612148 87 72 50
0.13273635946748913 -0.32958078383249345 -1.6339124346103786 85 69 48
0.13779772201497476 -0.3301552926555159 -1.6364492512899793 92 76 57
0.14219197772809122 -0.33069692053657673 -1.6393620517158816 103 90 73
0.14612265294728977 -0.33121568356820036 -1.642535870880939 122 111 98
0.1501310223564174 -0.3317377042445964 -1.6456564202024728 148 144 137
0.013633354810390741 -0.332546650118678 -1.847552413578319 126 112 96
0.01800589553341081 -0.33310058996110126 -1.8506993411787476 125 111 95
0.022371342616113288 -0.3336536473621106 -1.8538414324723713 122 108 92
0.03575783829299739 -0.33461330668628614 -1.8512685729342708 123 107 91
0.04244028041175785 -0.3352684581907039 -1.852904038169382 122 106 90
