ply
format ascii 1.0
element vertex 853
property float x
property float y
property float z
property float nx
property float ny
property float nz
property uchar diffuse_red
property uchar diffuse_green
property uchar diffuse_blue
property uchar class
property uchar detection
end_header
0.3053 -0.2257 -1.9660 -0.016 -0.791 0.612 111 89 52 0 0
0.3102 -0.2742 -2.0116 0.599 -0.785 0.160 114 90 52 0 0
0.3103 -0.2750 -2.0168 0.625 -0.580 0.522 119 97 57 0 0
0.3173 -0.3341 -2.1230 0.522 -0.817 0.246 114 91 50 0 0
0.3178 -0.3363 -2.1390 0.631 -0.664 0.401 113 90 47 0 0
0.3184 -0.3434 -2.1391 0.434 -0.881 0.191 114 90 46 0 0
0.3290 -0.4467 -2.2530 0.464 -0.857 0.223 86 71 41 0 0
0.3294 -0.4437 -2.2858 0.476 -0.855 -0.205 183 183 184 0 0
0.2744 -0.0165 -1.5195 0.520 -0.330 0.788 114 94 65 0 0
0.2836 -0.1111 -1.5927 0.413 -0.345 0.843 114 95 66 0 0
0.2840 -0.1164 -1.5951 0.413 -0.345 0.843 103 84 56 0 0
0.2940 -0.2255 -1.6496 0.652 -0.688 -0.319 105 85 59 0 0
0.2917 -0.1643 -1.7805 0.632 -0.743 0.221 89 72 39 0 0
0.2919 -0.1655 -1.7853 0.632 -0.743 0.221 99 81 46 0 0
0.2929 -0.1727 -1.8031 0.402 -0.869 0.288 116 94 60 0 0
0.2931 -0.1736 -1.8082 0.252 -0.917 0.310 117 95 58 0 0
0.2926 -0.1651 -1.8193 0.694 -0.700 -0.170 110 88 51 0 0
0.2967 -0.2057 -1.8602 -0.293 -0.759 0.582 112 90 53 0 0
0.2968 -0.2052 -1.8662 0.200 -0.931 0.304 108 86 49 0 0
0.2970 -0.2067 -1.8709 0.200 -0.931 0.304 113 91 54 0 0
0.2972 -0.2069 -1.8764 0.095 -0.984 0.149 115 93 56 0 0
0.3003 -0.2270 -1.9483 0.202 -0.930 0.307 114 92 56 0 0
0.3007 -0.2317 -1.9507 0.283 -0.744 0.605 113 91 54 0 0
0.3010 -0.2346 -1.9543 0.531 -0.671 0.517 110 88 51 0 0
0.3062 -0.2830 -2.0171 0.514 -0.602 0.611 123 101 58 0 0
0.3077 -0.2955 -2.0425 0.118 -0.956 0.267 109 86 45 0 0
0.3126 -0.3355 -2.1224 0.281 -0.854 0.437 114 91 49 0 0
0.3179 -0.3875 -2.1740 0.393 -0.807 0.440 144 115 68 0 0
0.3192 -0.3982 -2.1946 -0.108 -0.914 0.390 146 118 73 0 0
0.3199 -0.4063 -2.1995 0.236 -0.643 0.728 152 124 77 0 0
0.3213 -0.4177 -2.2194 -0.031 -0.820 0.571 143 114 70 0 0
0.3216 -0.4205 -2.2230 0.191 -0.796 0.575 136 107 64 0 0
0.3240 -0.4435 -2.2505 -0.102 -0.817 0.568 95 81 44 0 0
0.2725 -0.0463 -1.5421 0.804 -0.580 0.131 110 89 58 0 0
0.2729 -0.0497 -1.5456 0.788 -0.516 0.337 103 82 53 0 0
0.2733 -0.0546 -1.5484 0.680 -0.358 0.639 108 87 58 0 0
0.2796 -0.1197 -1.5936 0.613 -0.341 0.712 108 88 57 0 0
0.2861 -0.1585 -1.7623 0.705 -0.680 0.202 108 89 53 0 0
0.2863 -0.1599 -1.7670 0.655 -0.706 0.267 96 78 45 0 0
0.2866 -0.1625 -1.7709 0.560 -0.524 0.642 104 84 53 0 0
0.2878 -0.1724 -1.7870 0.400 -0.720 0.567 121 98 61 0 0
0.2906 -0.2008 -1.8133 -0.286 -0.687 0.668 120 97 63 0 0
0.2922 -0.2074 -1.8652 0.095 -0.820 0.564 113 91 54 0 0
0.2977 -0.2441 -1.9885 0.338 -0.807 0.485 111 87 49 0 0
0.3005 -0.2750 -2.0003 -0.164 -0.901 0.401 109 87 50 0 0
0.3009 -0.2796 -2.0027 0.478 -0.845 0.237 108 86 49 0 0
0.3033 -0.2929 -2.0684 0.478 -0.870 0.119 109 86 45 0 0
0.3074 -0.3322 -2.1138 0.224 -0.946 0.234 109 86 44 0 0
0.3194 -0.4444 -2.2502 0.081 -0.747 0.660 92 78 38 0 0
0.3197 -0.4473 -2.2536 0.081 -0.747 0.660 89 74 43 0 0
0.3199 -0.4490 -2.2581 0.359 -0.809 0.466 92 79 54 0 0
0.3201 -0.4508 -2.2625 0.408 -0.792 0.455 92 80 58 0 0
0.3242 -0.5022 -2.2574 0.162 -0.116 0.980 206 206 208 0 0
0.2727 -0.0983 -1.5736 0.703 -0.618 0.353 108 89 61 0 0
0.2729 -0.1004 -1.5778 0.703 -0.618 0.353 102 83 55 0 0
0.2855 -0.2401 -1.6257 0.727 -0.452 0.517 101 78 50 0 0
0.2859 -0.2432 -1.6344 0.353 -0.487 0.799 104 84 54 0 0
0.2862 -0.2436 -1.6447 0.854 -0.514 0.081 108 88 61 0 0
0.2826 -0.1690 -1.7784 0.300 -0.907 0.296 105 84 50 0 0
0.2828 -0.1702 -1.7831 0.164 -0.975 0.151 100 79 44 0 0
0.2831 -0.1736 -1.7866 0.436 -0.713 0.549 98 77 43 0 0
0.2859 -0.2015 -1.8132 -0.124 -0.691 0.712 120 98 62 0 0
0.2874 -0.2096 -1.8529 0.082 -0.951 0.300 117 95 57 0 0
0.2872 -0.2056 -1.8612 -0.088 -0.636 0.766 113 91 54 0 0
0.2876 -0.2094 -1.8643 -0.088 -0.636 0.766 108 86 49 0 0
0.2881 -0.2154 -1.8659 -0.021 -0.736 0.677 109 87 49 0 0
0.2882 -0.2142 -1.8723 0.085 -0.939 0.334 106 84 45 0 0
0.2940 -0.2643 -1.9569 0.147 -0.924 0.353 107 83 45 0 0
0.2965 -0.2843 -1.9997 0.161 -0.902 0.402 109 87 50 0 0
0.2967 -0.2847 -2.0110 0.243 -0.819 0.520 110 88 51 0 0
0.2971 -0.2886 -2.0138 0.343 -0.799 0.494 125 102 68 0 0
0.2989 -0.2967 -2.0718 0.373 -0.880 0.294 106 83 42 0 0
0.3024 -0.3313 -2.1033 0.091 -0.894 0.439 99 77 36 0 0
0.3039 -0.3427 -2.1294 0.236 -0.852 0.467 96 73 35 0 0
0.3043 -0.3470 -2.1319 -0.010 -0.916 0.400 94 72 32 0 0
0.3104 -0.4044 -2.2023 0.656 -0.580 0.483 147 119 72 0 0
0.3154 -0.4552 -2.2411 0.065 -0.765 0.641 95 81 40 0 0
0.3153 -0.4511 -2.2508 0.146 -0.904 0.402 88 73 41 0 0
0.3154 -0.4515 -2.2564 0.287 -0.706 0.648 86 73 49 0 0
0.2680 -0.1001 -1.5676 0.393 -0.857 0.334 91 72 40 0 0
0.2683 -0.1026 -1.5715 0.350 -0.881 0.318 105 86 54 0 0
0.2685 -0.1042 -1.5761 0.357 -0.853 0.381 99 79 52 0 0
0.2687 -0.1060 -1.5804 0.474 -0.725 0.499 88 68 45 0 0
0.2718 -0.1406 -1.5880 0.322 -0.406 0.855 117 94 63 0 0
0.2728 -0.1506 -1.5983 0.040 -0.357 0.933 94 75 46 0 0
0.2734 -0.1564 -1.6004 0.099 -0.333 0.938 120 99 64 0 0
0.2820 -0.2499 -1.6413 0.854 -0.514 0.081 97 76 46 0 0
0.2781 -0.1725 -1.7765 0.451 -0.855 0.258 102 82 48 0 0
0.2783 -0.1750 -1.7805 0.112 -0.870 0.480 106 86 51 0 0
0.2829 -0.2113 -1.8578 0.049 -0.954 0.296 113 91 54 0 0
0.2829 -0.2097 -1.8645 0.010 -0.778 0.628 111 89 52 0 0
0.2832 -0.2126 -1.8682 0.023 -0.889 0.458 108 86 48 0 0
0.2834 -0.2147 -1.8725 0.085 -0.939 0.334 107 85 46 0 0
0.2847 -0.2284 -1.8800 0.432 -0.792 0.432 109 87 50 0 0
0.2860 -0.2412 -1.8882 0.502 -0.864 -0.035 107 85 46 0 0
0.2858 -0.2327 -1.9169 0.728 -0.667 -0.157 108 86 47 0 0
0.2864 -0.2374 -1.9250 0.824 -0.425 0.375 106 84 47 0 0
0.2876 -0.2502 -1.9331 0.240 -0.445 0.863 107 84 46 0 0
0.2894 -0.2680 -1.9489 -0.040 -0.752 0.658 106 82 44 0 0
0.2894 -0.2664 -1.9558 0.433 -0.782 0.447 105 81 43 0 0
0.2913 -0.2799 -1.9977 0.292 -0.778 0.557 103 81 44 0 0
0.2917 -0.2837 -2.0006 0.354 -0.677 0.645 103 81 44 0 0
0.2923 -0.2895 -2.0078 0.591 -0.625 0.510 104 84 47 0 0
0.2974 -0.3295 -2.0994 0.293 -0.823 0.486 105 82 40 0 0
0.2977 -0.3318 -2.1034 0.091 -0.894 0.439 102 80 39 0 0
0.2985 -0.3386 -2.1156 0.318 -0.935 0.160 109 87 46 0 0
0.2988 -0.3408 -2.1197 0.316 -0.943 0.108 104 82 41 0 0
0.2992 -0.3438 -2.1291 0.236 -0.852 0.467 96 74 36 0 0
0.3054 -0.3996 -2.2070 -0.068 -0.916 0.395 144 115 70 0 0
0.3107 -0.4521 -2.2505 0.389 -0.876 0.284 92 78 44 0 0
0.3114 -0.4528 -2.2860 0.476 -0.812 -0.338 178 177 177 0 0
0.2718 -0.1937 -1.5953 -0.157 -0.509 0.846 130 105 69 0 0
0.2726 -0.1698 -1.7508 0.624 -0.777 0.088 93 75 47 0 0
0.2789 -0.2219 -1.8510 0.075 -0.995 -0.063 109 87 50 0 0
0.2801 -0.2318 -1.8725 0.210 -0.805 0.554 107 85 48 0 0
0.2803 -0.2328 -1.8774 0.349 -0.769 0.536 106 84 47 0 0
0.2810 -0.2397 -1.8840 0.331 -0.884 0.331 106 84 45 0 0
0.2824 -0.2516 -1.9041 0.576 -0.762 -0.295 107 85 46 0 0
0.2822 -0.2476 -1.9126 0.526 -0.808 0.265 108 86 47 0 0
0.2825 -0.2498 -1.9167 0.309 -0.690 0.655 102 80 43 0 0
0.2828 -0.2523 -1.9206 0.458 -0.597 0.658 100 78 41 0 0
0.2832 -0.2563 -1.9235 0.453 -0.734 0.506 104 82 45 0 0
0.2840 -0.2617 -1.9425 0.292 -0.847 0.445 94 72 35 0 0
0.2842 -0.2638 -1.9467 0.292 -0.847 0.445 96 74 37 0 0
0.2858 -0.2754 -1.9785 0.180 -0.929 0.323 105 83 46 0 0
0.2862 -0.2780 -1.9881 0.256 -0.966 0.033 101 79 42 0 0
0.2865 -0.2797 -1.9925 0.320 -0.859 0.400 102 80 43 0 0
0.2868 -0.2825 -1.9963 0.460 -0.808 0.367 102 80 43 0 0
0.2874 -0.2884 -2.0034 0.444 -0.524 0.727 104 82 45 0 0
0.2896 -0.3041 -2.0496 0.055 -0.891 0.451 104 81 40 0 0
0.2930 -0.3323 -2.1035 0.091 -0.894 0.439 95 73 32 0 0
0.2942 -0.3420 -2.1252 0.491 -0.736 0.466 103 81 42 0 0
0.3059 -0.4539 -2.2375 -0.155 -0.801 0.578 108 91 43 0 0
0.3072 -0.4630 -2.2652 0.464 -0.883 0.076 104 96 81 0 0
0.2528 -0.0507 -1.4875 0.737 -0.589 0.331 111 91 58 0 0
0.2536 -0.0582 -1.4943 0.199 -0.828 0.524 112 92 59 0 0
0.2548 -0.0711 -1.4982 0.690 -0.629 0.359 112 92 59 0 0
0.2596 -0.1112 -1.5729 0.823 -0.458 0.337 106 83 50 0 0
0.2650 -0.1686 -1.5941 0.023 -0.233 0.972 114 90 54 0 0
0.2671 -0.1933 -1.5959 -0.157 -0.509 0.846 129 106 65 0 0
0.2678 -0.2002 -1.5973 -0.046 -0.326 0.944 125 102 62 0 0
0.2737 -0.2609 -1.6354 0.823 -0.534 0.194 99 79 45 0 0
0.2679 -0.1763 -1.7250 0.377 -0.919 0.117 97 79 53 0 0
0.2682 -0.1778 -1.7296 0.337 -0.907 0.252 66 49 31 0 0
0.2707 -0.1967 -1.7785 0.445 -0.852 0.277 104 82 44 0 0
0.2747 -0.2337 -1.8211 0.671 -0.694 -0.262 109 87 50 0 0
0.2753 -0.2321 -1.8671 0.307 -0.783 0.542 106 84 46 0 0
0.2756 -0.2343 -1.8713 0.402 -0.633 0.662 108 86 49 0 0
0.2759 -0.2366 -1.8753 0.460 -0.590 0.664 107 84 47 0 0
0.2777 -0.2507 -1.9108 0.408 -0.871 0.272 107 85 46 0 0
0.2781 -0.2540 -1.9142 0.182 -0.581 0.793 106 84 47 0 0
0.2790 -0.2639 -1.9185 -0.263 -0.707 0.656 101 79 42 0 0
0.2792 -0.2655 -1.9231 0.249 -0.933 0.260 103 81 44 0 0
0.2793 -0.2629 -1.9421 -0.102 -0.995 -0.017 90 68 31 0 0
0.2811 -0.2755 -1.9788 0.138 -0.865 0.482 104 82 45 0 0
0.2813 -0.2775 -1.9831 0.075 -0.981 0.179 103 81 44 0 0
0.2814 -0.2774 -1.9890 0.340 -0.922 0.187 101 79 42 0 0
0.2841 -0.2968 -2.0440 0.786 -0.558 0.265 103 80 41 0 0
0.2865 -0.3228 -2.0530 0.166 -0.718 0.675 101 78 37 0 0
0.2884 -0.3345 -2.1023 -0.051 -0.901 0.431 94 72 33 0 0
0.2887 -0.3372 -2.1061 0.298 -0.843 0.447 97 75 36 0 0
0.2891 -0.3411 -2.1088 0.429 -0.903 -0.014 100 78 39 0 0
0.2935 -0.3790 -2.1722 0.399 -0.779 0.484 122 94 49 0 0
0.2938 -0.3813 -2.1761 0.321 -0.793 0.518 121 93 48 0 0
0.3005 -0.4464 -2.2329 0.171 -0.675 0.717 120 98 58 0 0
0.3020 -0.4578 -2.2585 0.246 -0.908 0.339 82 68 44 0 0
0.3029 -0.4681 -2.2612 0.393 -0.905 -0.162 98 89 72 0 0
0.2521 -0.0897 -1.5260 0.611 -0.781 0.129 99 78 49 0 0
0.2523 -0.0904 -1.5310 0.611 -0.781 0.129 83 63 37 0 0
0.2522 -0.0883 -1.5375 0.395 -0.211 0.894 94 76 49 0 0
0.2596 -0.1606 -1.5937 0.660 -0.498 0.562 101 79 44 0 0
0.2627 -0.1952 -1.5952 0.360 -0.254 0.898 133 106 70 0 0
0.2634 -0.1792 -1.7236 0.517 -0.854 0.046 92 75 49 0 0
0.2659 -0.1960 -1.7794 0.314 -0.934 0.172 106 84 47 0 0
0.2668 -0.2063 -1.7783 0.655 -0.618 0.435 113 90 51 0 0
0.2675 -0.2128 -1.7852 0.670 -0.559 0.488 119 97 58 0 0
0.2754 -0.2708 -1.9483 0.580 -0.680 0.449 99 77 40 0 0
0.2795 -0.3027 -2.0226 0.662 -0.747 0.069 134 111 73 0 0
0.2828 -0.3309 -2.0705 0.466 -0.521 0.716 121 93 57 0 0
0.2832 -0.3346 -2.0735 0.466 -0.521 0.716 130 100 54 0 0
0.2835 -0.3375 -2.0770 0.564 -0.588 0.580 167 136 83 0 0
0.2837 -0.3384 -2.0821 0.666 -0.745 0.040 123 94 48 0 0
0.2837 -0.3378 -2.0885 0.567 -0.806 -0.169 100 78 36 0 0
0.2840 -0.3377 -2.1062 0.359 -0.843 0.401 97 75 38 0 0
0.2851 -0.3467 -2.1225 0.564 -0.787 0.251 95 73 36 0 0
0.2868 -0.3622 -2.1393 0.479 -0.586 0.653 103 79 40 0 0
0.2985 -0.4719 -2.2583 0.108 -0.962 0.252 87 77 59 0 0
0.2474 -0.0904 -1.5206 0.781 -0.613 0.118 106 83 53 0 0
0.2477 -0.0931 -1.5245 0.617 -0.779 0.113 105 84 55 0 0
0.2479 -0.0950 -1.5289 0.828 -0.474 0.299 88 67 41 0 0
0.2481 -0.0960 -1.5337 0.791 -0.470 0.392 85 67 40 0 0
0.2483 -0.0968 -1.5386 0.644 -0.326 0.693 101 82 53 0 0
0.2488 -0.1018 -1.5412 0.645 -0.388 0.658 92 71 44 0 0
0.2540 -0.1521 -1.5882 0.620 -0.532 0.576 110 91 61 0 0
0.2612 -0.2287 -1.6025 0.227 -0.322 0.919 139 113 77 0 0
0.2653 -0.2688 -1.6314 0.545 -0.830 0.117 101 80 46 0 0
0.2616 -0.2012 -1.7765 0.388 -0.919 -0.067 103 81 43 0 0
0.2622 -0.2076 -1.7779 0.493 -0.814 0.306 108 86 48 0 0
0.2626 -0.2115 -1.7809 0.239 -0.347 0.907 120 97 61 0 0
0.2631 -0.2164 -1.7833 0.423 -0.796 0.433 125 103 64 0 0
0.2745 -0.3050 -1.9924 0.422 -0.770 0.478 93 73 38 0 0
0.2743 -0.2986 -2.0204 0.708 -0.351 0.613 114 90 55 0 0
0.2749 -0.3038 -2.0222 0.787 -0.395 0.475 129 105 62 0 0
0.2812 -0.3552 -2.1279 0.168 -0.727 0.666 93 71 34 0 0
0.2835 -0.3769 -2.1454 0.399 -0.876 0.270 109 85 41 0 0
0.2939 -0.4678 -2.2807 0.558 -0.827 -0.072 175 175 173 0 0
0.2944 -0.4742 -2.2808 0.603 -0.780 0.169 191 190 194 0 0
0.2351 -0.0201 -1.4453 0.464 -0.831 0.306 110 89 56 0 0
0.2432 -0.0988 -1.5060 0.553 -0.793 0.256 111 88 56 0 0
0.2429 -0.0939 -1.5138 0.526 -0.839 -0.143 102 79 48 0 0
0.2430 -0.0945 -1.5188 0.521 -0.851 0.061 103 79 50 0 0
0.2497 -0.1555 -1.5866 0.620 -0.532 0.576 108 85 49 0 0
0.2504 -0.1625 -1.5933 0.456 -0.681 0.572 113 90 54 0 0
0.2553 -0.2155 -1.6000 -0.058 -0.816 0.574 156 127 86 0 0
0.2613 -0.2757 -1.6275 -0.363 -0.767 0.529 100 79 44 0 0
0.2614 -0.2750 -1.6385 0.594 -0.797 -0.107 108 87 54 0 0
0.2592 -0.2207 -1.8143 0.704 -0.567 0.427 106 84 47 0 0
0.2613 -0.2427 -1.8163 -0.500 -0.750 0.434 106 84 47 0 0
0.2759 -0.3504 -2.1206 0.221 -0.801 0.557 92 70 33 0 0
0.2765 -0.3555 -2.1282 0.046 -0.817 0.575 94 72 35 0 0
0.2794 -0.3831 -2.1526 0.090 -0.918 0.387 114 89 46 0 0
0.2858 -0.4405 -2.2219 -0.065 -0.862 0.503 116 92 53 0 0
0.2384 -0.0972 -1.5124 0.265 -0.946 -0.189 103 79 48 0 0
0.2387 -0.0993 -1.5166 0.457 -0.869 0.189 99 75 45 0 0
0.2389 -0.1004 -1.5213 0.112 -0.823 0.557 104 82 51 0 0
0.2392 -0.1034 -1.5250 0.643 -0.691 0.330 104 83 54 0 0
0.2473 -0.1784 -1.6006 0.336 -0.300 0.893 106 83 47 0 0
0.2495 -0.2024 -1.5974 0.166 -0.259 0.952 142 117 78 0 0
0.2501 -0.2084 -1.5992 0.078 -0.396 0.915 145 118 75 0 0
0.2516 -0.2233 -1.6117 0.578 -0.784 0.227 137 113 75 0 0
0.2571 -0.2786 -1.6367 0.540 -0.830 -0.142 102 81 47 0 0
0.2528 -0.2105 -1.7657 0.404 -0.529 0.746 104 80 46 0 0
0.2544 -0.2241 -1.7846 -0.162 -0.952 0.258 111 89 50 0 0
0.2567 -0.2449 -1.8097 0.388 -0.900 0.200 104 82 45 0 0
0.2745 -0.3826 -2.1418 0.017 -0.982 0.187 111 87 46 0 0
0.2748 -0.3840 -2.1524 -0.056 -0.901 0.429 116 92 51 0 0
0.2832 -0.4618 -2.2334 0.102 -0.754 0.649 106 85 45 0 0
0.2835 -0.4645 -2.2369 0.183 -0.971 0.155 92 75 35 0 0
0.2836 -0.4650 -2.2424 -0.094 -0.852 0.514 89 72 33 0 0
0.2274 -0.0412 -1.4408 0.415 -0.536 0.735 121 98 67 0 0
0.2314 -0.0780 -1.4751 -0.076 -0.528 0.846 111 88 56 0 0
0.2349 -0.1102 -1.5111 0.337 -0.648 0.682 112 89 56 0 0
0.2349 -0.1090 -1.5171 0.035 -0.869 0.494 107 86 52 0 0
0.2354 -0.1135 -1.5200 -0.059 -0.965 0.257 110 89 55 0 0
0.2379 -0.1361 -1.5449 0.467 -0.444 0.765 128 103 62 0 0
0.2467 -0.2226 -1.5966 0.680 -0.299 0.669 140 114 71 0 0
0.2468 -0.2225 -1.6019 0.739 -0.335 0.584 133 108 72 0 0
0.2473 -0.2276 -1.6042 0.632 -0.401 0.663 131 107 70 0 0
0.2517 -0.2401 -1.8189 -0.334 -0.864 0.376 100 78 42 0 0
0.2609 -0.3117 -1.9889 0.329 -0.941 -0.080 100 80 45 0 0
0.2610 -0.3119 -1.9945 0.081 -0.994 0.070 89 69 35 0 0
0.2696 -0.3806 -2.1440 0.020 -0.947 0.321 101 77 39 0 0
0.2698 -0.3820 -2.1488 -0.124 -0.739 0.662 104 81 42 0 0
0.2775 -0.4553 -2.2041 0.144 -0.852 0.503 119 93 53 0 0
0.2785 -0.4622 -2.2277 0.128 -0.870 0.477 109 87 46 0 0
0.2786 -0.4621 -2.2337 -0.050 -0.780 0.624 107 86 45 0 0
0.2789 -0.4649 -2.2371 0.060 -0.979 0.193 97 78 37 0 0
0.2804 -0.4799 -2.2415 0.270 -0.793 0.547 83 70 36 0 0
0.2801 -0.4725 -2.2722 0.421 -0.881 0.214 113 107 95 0 0
0.2189 -0.0054 -1.4163 0.344 -0.757 0.556 125 103 70 0 0
0.2298 -0.1057 -1.5085 0.076 -0.996 0.055 117 94 58 0 0
0.2307 -0.1133 -1.5204 -0.059 -0.965 0.257 117 94 56 0 0
0.2325 -0.1299 -1.5380 0.467 -0.444 0.765 123 98 57 0 0
0.2329 -0.1340 -1.5411 0.358 -0.531 0.768 128 102 62 0 0
0.2334 -0.1388 -1.5437 0.467 -0.444 0.765 129 103 61 0 0
0.2367 -0.1674 -1.5809 0.505 -0.504 0.701 121 96 49 0 0
0.2376 -0.1767 -1.5863 0.427 -0.374 0.823 149 124 76 0 0
0.2422 -0.2232 -1.5966 0.751 -0.300 0.589 143 117 73 0 0
0.2431 -0.2322 -1.6019 0.698 -0.288 0.655 130 104 67 0 0
0.2424 -0.2086 -1.7128 -0.008 -0.940 0.341 91 72 46 0 0
0.2465 -0.2362 -1.8164 0.360 -0.854 0.375 98 75 41 0 0
0.2478 -0.2499 -1.8128 0.319 -0.855 0.410 95 72 38 0 0
0.2509 -0.2728 -1.8811 0.275 -0.959 -0.067 95 73 38 0 0
0.2544 -0.2991 -1.9528 0.171 -0.587 0.791 95 72 38 0 0
0.2618 -0.3553 -2.0946 0.374 -0.898 0.233 93 71 32 0 0
0.2642 -0.3771 -2.1180 0.406 -0.846 0.346 94 72 35 0 0
0.2739 -0.4629 -2.2277 0.128 -0.870 0.477 113 91 52 0 0
0.2740 -0.4630 -2.2335 -0.209 -0.921 0.329 111 90 50 0 0
0.2744 -0.4663 -2.2365 0.304 -0.868 0.394 95 77 36 0 0
0.2762 -0.4841 -2.2443 0.396 -0.826 0.401 77 62 32 0 0
0.2756 -0.4748 -2.2707 0.448 -0.891 -0.077 103 97 83 0 0
0.2221 -0.0808 -1.4690 0.471 -0.852 0.229 120 97 63 0 0
0.2276 -0.1284 -1.5338 0.688 -0.457 0.564 129 105 69 0 0
0.2282 -0.1346 -1.5357 0.625 -0.267 0.734 125 101 61 0 0
0.2332 -0.1791 -1.5853 0.642 -0.401 0.653 148 122 76 0 0
0.2423 -0.2418 -1.8131 0.386 -0.806 0.449 97 74 41 0 0
0.2432 -0.2511 -1.8124 0.006 -0.778 0.628 97 74 42 0 0
0.2439 -0.2580 -1.8134 0.063 -0.594 0.802 96 75 40 0 0
0.2445 -0.2639 -1.8205 0.583 -0.720 0.375 97 77 42 0 0
0.2454 -0.2616 -1.9007 0.334 -0.941 0.060 96 73 39 0 0
0.2454 -0.2609 -1.9069 0.569 -0.809 0.151 95 72 38 0 0
0.2478 -0.2827 -1.9254 -0.231 -0.859 0.458 94 71 38 0 0
0.2479 -0.2833 -1.9306 -0.189 -0.462 0.867 94 71 39 0 0
0.2500 -0.3019 -1.9513 0.486 -0.675 0.555 94 71 39 0 0
0.2515 -0.3135 -1.9827 -0.018 -0.998 0.063 89 69 34 0 0
0.2564 -0.3522 -2.0685 0.715 -0.698 0.038 110 84 45 0 0
0.1969 0.0685 -1.0117 -0.748 -0.655 -0.106 183 184 186 0 0
0.1985 0.0641 -1.0983 -0.016 -0.988 0.155 99 89 78 0 0
0.1986 0.0634 -1.1030 -0.016 -0.988 0.155 101 91 81 0 0
0.1987 0.0628 -1.1077 0.022 -0.972 0.233 102 93 82 0 0
0.1989 0.0619 -1.1123 -0.016 -0.988 0.155 115 106 95 0 0
0.2076 0.0100 -1.3977 0.489 -0.515 0.704 121 99 75 0 0
0.2230 -0.1300 -1.5280 0.797 -0.517 0.313 116 90 57 0 0
0.2233 -0.1325 -1.5319 0.736 -0.343 0.583 115 93 58 0 0
0.2237 -0.1367 -1.5349 0.736 -0.343 0.583 134 110 69 0 0
0.2243 -0.1425 -1.5371 0.639 -0.229 0.734 136 107 68 0 0
0.2258 -0.1558 -1.5510 0.242 -0.963 -0.117 141 113 66 0 0
0.2259 -0.1557 -1.5563 0.306 -0.952 -0.017 151 123 75 0 0
0.2346 -0.2393 -1.5984 0.804 -0.302 0.512 135 106 70 0 0
0.2393 -0.2519 -1.8683 0.777 -0.594 0.209 91 71 38 0 0
0.2398 -0.2571 -1.8704 0.613 -0.357 0.705 91 71 38 0 0
0.2417 -0.2737 -1.8926 -0.229 -0.967 0.115 95 72 40 0 0
0.2410 -0.2642 -1.9050 0.650 -0.754 0.101 95 72 40 0 0
0.2434 -0.2855 -1.9295 -0.129 -0.551 0.824 90 67 35 0 0
0.2454 -0.3064 -1.9257 -0.077 -0.672 0.736 89 66 34 0 0
0.2463 -0.3061 -2.0003 0.117 -0.949 0.292 89 69 36 0 0
0.2521 -0.3545 -2.0847 0.558 -0.618 0.553 107 84 47 0 0
0.2523 -0.3562 -2.0892 0.573 -0.725 0.381 97 75 37 0 0
0.2526 -0.3583 -2.0933 0.413 -0.855 0.314 91 71 32 0 0
0.2528 -0.3595 -2.0982 0.257 -0.951 0.171 92 71 34 0 0
0.2530 -0.3615 -2.1024 0.314 -0.646 0.696 88 66 29 0 0
0.2670 -0.4793 -2.2919 0.282 -0.899 0.336 193 193 195 0 0
0.1923 0.0710 -1.0321 -0.359 -0.862 0.357 108 97 83 0 0
0.1927 0.0676 -1.0407 0.513 -0.858 0.030 114 102 83 0 0
0.1928 0.0677 -1.0457 0.418 -0.907 0.057 88 74 52 0 0
0.1938 0.0642 -1.0985 -0.016 -0.988 0.155 94 74 49 0 0
0.1939 0.0634 -1.1032 -0.016 -0.988 0.155 89 70 43 0 0
0.1940 0.0626 -1.1078 0.022 -0.972 0.233 86 66 39 0 0
0.1941 0.0629 -1.1129 0.048 -0.997 0.061 90 70 43 0 0
0.1942 0.0626 -1.1178 0.048 -0.997 0.061 90 69 42 0 0
0.1943 0.0623 -1.1226 0.076 -0.997 -0.007 95 74 46 0 0
0.2116 -0.0734 -1.4365 0.536 -0.544 0.645 120 95 60 0 0
0.2163 -0.1150 -1.4835 0.696 -0.718 -0.001 125 100 67 0 0
0.2176 -0.1270 -1.4982 -0.028 -0.662 0.749 130 105 70 0 0
0.2177 -0.1274 -1.5033 0.271 -0.808 0.523 125 101 65 0 0
0.2386 -0.2854 -1.9301 0.125 -0.615 0.779 88 65 33 0 0
0.2407 -0.3063 -1.9263 0.002 -0.738 0.675 89 66 34 0 0
0.2413 -0.3032 -2.0030 0.405 -0.808 0.428 88 68 34 0 0
0.2469 -0.3507 -2.0765 0.561 -0.339 0.756 119 92 52 0 0
0.2474 -0.3548 -2.0791 0.605 -0.372 0.704 140 111 67 0 0
0.2476 -0.3571 -2.0831 0.655 -0.645 0.394 121 98 57 0 0
0.2479 -0.3590 -2.0874 0.676 -0.623 0.395 100 78 40 0 0
0.2481 -0.3611 -2.0916 0.543 -0.769 0.337 95 75 37 0 0
0.2507 -0.3842 -2.1137 0.196 -0.817 0.542 93 71 34 0 0
0.2624 -0.4800 -2.2919 0.485 -0.819 0.305 191 191 193 0 0
0.2633 -0.4895 -2.2890 0.281 -0.432 0.857 200 200 202 0 0
0.2636 -0.4925 -2.2923 0.416 -0.889 0.194 204 204 206 0 0
0.1847 0.0904 -0.9516 0.504 -0.696 0.512 181 181 183 0 0
0.1850 0.0882 -0.9557 0.405 -0.853 0.330 181 180 179 0 0
0.1853 0.0862 -0.9599 0.552 -0.805 0.216 182 181 179 0 0
0.1853 0.0867 -0.9649 0.655 -0.751 0.083 182 181 179 0 0
0.1854 0.0863 -0.9695 0.655 -0.751 0.083 178 177 176 0 0
0.1855 0.0856 -0.9741 0.701 -0.711 -0.046 170 168 166 0 0
0.1855 0.0855 -0.9789 0.786 -0.618 -0.003 161 156 153 0 0
0.1902 0.0572 -1.1359 0.267 -0.949 0.168 80 56 27 0 0
0.2023 -0.0298 -1.4215 0.152 -0.551 0.820 129 103 66 0 0
0.2053 -0.0613 -1.4114 0.552 -0.812 0.190 122 95 60 0 0
0.2060 -0.0671 -1.4138 0.331 -0.565 0.756 120 95 60 0 0
0.2316 -0.2700 -1.8623 0.352 -0.905 -0.240 86 66 33 0 0
0.2315 -0.2680 -1.8693 0.589 -0.807 -0.037 88 68 35 0 0
0.2354 -0.3021 -1.9128 0.281 -0.504 0.817 88 65 33 0 0
0.2360 -0.3066 -1.9266 0.002 -0.738 0.675 86 63 31 0 0
0.2429 -0.3580 -2.0770 0.605 -0.372 0.704 136 109 64 0 0
0.2433 -0.3610 -2.0805 0.712 -0.501 0.493 134 110 65 0 0
0.2435 -0.3624 -2.0852 0.676 -0.623 0.395 98 76 36 0 0
0.2436 -0.3636 -2.0901 0.543 -0.769 0.337 93 73 37 0 0
0.2554 -0.4657 -2.2215 0.002 -0.892 0.453 107 84 43 0 0
0.2579 -0.4860 -2.2568 -0.015 -0.963 0.269 77 64 35 0 0
0.2592 -0.4952 -2.2904 0.129 -0.964 0.233 203 203 205 0 0
0.1800 0.0914 -0.9473 0.498 -0.579 0.646 181 182 182 0 0
0.1803 0.0881 -0.9510 0.546 -0.610 0.574 182 181 179 0 0
0.1807 0.0848 -0.9548 0.607 -0.681 0.411 174 171 164 0 0
0.1812 0.0816 -0.9682 0.642 -0.766 0.032 108 99 85 0 0
0.1813 0.0814 -0.9730 0.600 -0.800 -0.014 114 103 84 0 0
0.1855 0.0563 -1.1258 0.361 -0.867 0.344 73 49 19 0 0
0.1855 0.0568 -1.1309 0.267 -0.949 0.168 82 58 27 0 0
0.1856 0.0560 -1.1356 0.267 -0.949 0.168 80 58 26 0 0
0.1860 0.0530 -1.1395 0.298 -0.952 0.078 78 56 24 0 0
0.1860 0.0529 -1.1445 0.294 -0.947 0.131 81 58 26 0 0
0.2032 -0.0844 -1.4317 0.410 -0.844 0.346 137 108 71 0 0
0.2042 -0.0936 -1.4375 0.379 -0.595 0.709 122 94 62 0 0
0.2101 -0.1441 -1.5003 0.631 -0.742 0.226 117 92 57 0 0
0.2185 -0.2167 -1.5916 0.113 -0.163 0.980 115 91 52 0 0
0.2269 -0.2955 -1.6289 0.465 -0.767 0.443 92 70 37 0 0
0.2258 -0.2661 -1.7986 0.630 -0.768 0.111 93 71 37 0 0
0.2257 -0.2636 -1.8168 0.436 -0.787 0.436 88 68 34 0 0
0.2260 -0.2657 -1.8210 0.086 -0.643 0.761 90 70 36 0 0
0.2258 -0.2634 -1.8281 0.084 -0.995 0.048 91 71 38 0 0
0.2271 -0.2746 -1.8428 0.126 -0.991 -0.050 92 72 40 0 0
0.2271 -0.2721 -1.8613 0.352 -0.905 -0.240 87 65 33 0 0
0.2310 -0.3036 -1.9235 -0.294 -0.525 0.798 86 63 31 0 0
0.2321 -0.3067 -2.0013 0.510 -0.808 0.295 85 65 32 0 0
0.2324 -0.3083 -2.0059 0.510 -0.808 0.295 88 68 35 0 0
0.2341 -0.3256 -2.0043 0.650 -0.759 -0.039 91 70 38 0 0
0.2360 -0.3408 -2.0388 0.563 -0.825 -0.044 93 69 35 0 0
0.2385 -0.3605 -2.0756 0.424 -0.356 0.833 117 93 48 0 0
0.2383 -0.3586 -2.0830 0.520 -0.736 0.432 139 115 68 0 0
0.2389 -0.3643 -2.0842 0.347 -0.918 0.190 110 87 48 0 0
0.2508 -0.4657 -2.2221 0.215 -0.758 0.616 107 85 44 0 0
0.2546 -0.4958 -2.2904 0.129 -0.964 0.233 203 203 204 0 0
0.1711 0.1313 -0.9356 0.604 -0.109 0.789 180 180 183 0 0
0.1765 0.0802 -0.9535 0.482 -0.841 0.246 106 89 64 0 0
0.1769 0.0776 -0.9671 0.566 -0.820 0.087 110 94 68 0 0
0.1799 0.0584 -1.0576 0.190 -0.923 0.335 76 55 24 0 0
0.1801 0.0567 -1.0620 0.268 -0.943 0.199 81 60 29 0 0
0.1807 0.0522 -1.0751 0.264 -0.929 0.259 86 63 31 0 0
0.1812 0.0524 -1.1245 0.151 -0.978 0.142 66 42 15 0 0
0.1816 0.0489 -1.1332 0.094 -0.949 0.300 78 57 25 0 0
0.1965 -0.0673 -1.4091 0.025 -0.906 0.424 122 98 61 0 0
0.1968 -0.0693 -1.4134 0.025 -0.906 0.424 128 104 67 0 0
0.1987 -0.0863 -1.4310 0.410 -0.844 0.346 135 107 68 0 0
0.2036 -0.1276 -1.4884 0.456 -0.435 0.776 129 106 65 0 0
0.2041 -0.1323 -1.4912 0.491 -0.361 0.792 123 99 61 0 0
0.2054 -0.1440 -1.5007 0.608 -0.604 0.515 116 92 54 0 0
0.2057 -0.1464 -1.5047 0.587 -0.563 0.582 84 60 29 0 0
0.2065 -0.1536 -1.5166 0.727 -0.417 0.546 128 101 56 0 0
0.2228 -0.3005 -1.6210 0.186 -0.672 0.717 85 64 31 0 0
0.2226 -0.2974 -1.6281 0.385 -0.760 0.523 96 73 41 0 0
0.2185 -0.2466 -1.7458 0.263 -0.826 0.499 132 110 72 0 0
0.2187 -0.2479 -1.7504 0.218 -0.772 0.597 107 87 49 0 0
0.2209 -0.2622 -1.8182 0.713 -0.634 0.299 87 67 32 0 0
0.2221 -0.2738 -1.8215 -0.567 -0.619 0.543 89 69 37 0 0
0.2225 -0.2760 -1.8367 0.052 -0.998 -0.039 90 69 38 0 0
0.2225 -0.2758 -1.8424 0.052 -0.998 -0.039 90 69 38 0 0
0.2227 -0.2706 -1.9079 0.507 -0.849 0.149 89 66 34 0 0
0.2230 -0.2723 -1.9181 0.507 -0.849 0.149 89 66 34 0 0
0.2319 -0.3464 -2.0407 0.458 -0.862 -0.216 92 68 33 0 0
0.2338 -0.3618 -2.0693 0.578 -0.814 -0.058 88 65 31 0 0
0.2337 -0.3588 -2.0891 0.388 -0.918 -0.079 110 86 49 0 0
0.2341 -0.3620 -2.0924 0.489 -0.862 0.134 87 67 35 0 0
0.2359 -0.3780 -2.1088 0.218 -0.768 0.602 85 62 27 0 0
0.2362 -0.3804 -2.1127 0.181 -0.907 0.380 90 67 33 0 0
0.2486 -0.4872 -2.2451 0.104 -0.934 0.342 82 69 32 0 0
0.2488 -0.4862 -2.2759 0.274 -0.923 -0.268 126 120 108 0 0
0.1670 0.1255 -0.9340 0.569 -0.116 0.814 180 180 180 0 0
0.1720 0.0790 -0.9485 0.417 -0.829 0.374 117 92 57 0 0
0.1722 0.0773 -0.9528 0.336 -0.911 0.238 109 82 45 0 0
0.1748 0.0598 -1.0339 0.314 -0.935 0.163 83 62 31 0 0
0.1750 0.0590 -1.0385 0.314 -0.935 0.163 84 63 32 0 0
0.1751 0.0583 -1.0431 0.314 -0.935 0.163 69 48 17 0 0
0.1751 0.0585 -1.0530 0.018 -0.937 0.348 85 64 33 0 0
0.1766 0.0515 -1.1244 0.051 -0.981 0.190 79 55 25 0 0
0.1767 0.0510 -1.1292 0.014 -0.995 0.094 78 55 24 0 0
0.1778 0.0460 -1.1925 0.214 -0.878 0.429 69 50 18 0 0
0.1910 -0.0596 -1.4079 -0.007 -0.545 0.838 125 99 63 0 0
0.1941 -0.0877 -1.4254 0.172 -0.948 0.269 144 117 77 0 0
0.1943 -0.0889 -1.4300 0.228 -0.931 0.283 143 114 73 0 0
0.1949 -0.0952 -1.4321 0.096 -0.898 0.429 142 113 73 0 0
0.1952 -0.0972 -1.4363 0.096 -0.898 0.429 137 109 70 0 0
0.2019 -0.1539 -1.5167 0.643 -0.756 -0.126 92 68 32 0 0
0.2099 -0.2227 -1.5941 -0.069 -0.292 0.954 113 85 45 0 0
0.2140 -0.2480 -1.7453 0.081 -0.835 0.544 119 97 63 0 0
0.2166 -0.2680 -1.7981 0.848 -0.314 0.426 91 71 36 0 0
0.2161 -0.2616 -1.8135 0.300 -0.773 0.559 88 68 33 0 0
0.2163 -0.2636 -1.8177 0.467 -0.816 0.341 89 69 34 0 0
0.2177 -0.2742 -1.8383 0.309 -0.876 0.370 89 68 37 0 0
0.2178 -0.2755 -1.8431 0.305 -0.876 0.373 89 68 37 0 0
0.2180 -0.2768 -1.8477 0.212 -0.934 0.288 90 69 38 0 0
0.2185 -0.2810 -1.8504 0.616 -0.784 -0.080 89 68 37 0 0
0.2184 -0.2801 -1.8566 0.602 -0.781 -0.164 91 68 37 0 0
0.2220 -0.3094 -1.9089 0.561 -0.820 -0.117 86 63 31 0 0
0.2245 -0.3238 -2.0067 0.556 -0.606 0.570 89 69 36 0 0
0.2286 -0.3569 -2.0737 0.579 -0.762 0.289 85 61 32 0 0
0.2370 -0.4284 -2.1611 -0.159 -0.962 0.224 104 81 40 0 0
0.2437 -0.4863 -2.2345 0.040 -0.670 0.741 86 72 31 0 0
0.2444 -0.4901 -2.2669 0.339 -0.926 -0.164 88 80 60 0 0
0.1631 0.1181 -0.9319 0.576 -0.088 0.813 179 180 180 0 0
0.1676 0.0768 -0.9480 0.418 -0.816 0.399 124 96 56 0 0
0.1679 0.0740 -0.9519 0.411 -0.893 0.185 147 120 80 0 0
0.1718 0.0487 -1.0840 0.168 -0.947 0.275 81 56 26 0 0
0.1732 0.0447 -1.1922 0.238 -0.917 0.319 72 53 20 0 0
0.1794 0.0028 -1.3750 0.273 -0.414 0.868 104 89 60 0 0
0.1863 -0.0601 -1.4080 -0.207 -0.670 0.713 128 102 66 0 0
0.1898 -0.0911 -1.4240 0.159 -0.804 0.573 130 106 66 0 0
0.1906 -0.0986 -1.4307 0.258 -0.962 0.091 140 111 71 0 0
0.1907 -0.0991 -1.4357 0.258 -0.962 0.091 146 117 74 0 0
0.1977 -0.1576 -1.5203 0.667 -0.742 -0.066 117 88 46 0 0
0.1996 -0.1721 -1.5598 0.256 -0.640 0.725 155 123 75 0 0
0.2073 -0.2417 -1.5939 0.288 -0.119 0.950 127 102 63 0 0
0.2130 -0.2952 -1.5988 0.046 -0.847 0.530 189 162 122 0 0
0.2130 -0.2951 -1.6041 0.283 -0.756 0.591 131 105 62 0 0
0.2134 -0.2986 -1.6072 0.250 -0.894 0.373 117 92 55 0 0
0.2097 -0.2501 -1.7608 0.027 -0.986 0.167 86 67 33 0 0
0.2125 -0.2739 -1.7946 0.770 -0.345 0.537 91 71 36 0 0
0.2122 -0.2687 -1.8147 0.443 -0.864 0.239 87 67 32 0 0
0.2132 -0.2764 -1.8429 0.212 -0.934 0.288 87 66 35 0 0
0.2134 -0.2778 -1.8475 0.212 -0.934 0.288 88 67 36 0 0
0.2139 -0.2825 -1.8498 0.473 -0.876 0.093 89 68 37 0 0
0.2141 -0.2839 -1.8544 0.602 -0.781 -0.164 88 65 34 0 0
0.2151 -0.2897 -1.8897 0.298 -0.946 -0.126 88 65 33 0 0
0.2182 -0.3181 -1.8975 0.173 -0.889 0.424 88 65 33 0 0
0.2185 -0.3209 -1.9011 0.231 -0.821 0.522 86 63 31 0 0
0.2183 -0.3190 -1.9081 0.278 -0.960 0.026 85 62 30 0 0
0.2196 -0.3259 -1.9597 0.397 -0.914 -0.081 89 68 37 0 0
0.2198 -0.3267 -1.9820 0.595 -0.693 0.407 83 63 30 0 0
0.2206 -0.3320 -2.0009 0.565 -0.743 0.360 89 69 36 0 0
0.2231 -0.3535 -2.0247 0.711 -0.479 0.515 89 70 35 0 0
0.2248 -0.3660 -2.0728 0.702 -0.695 0.155 95 70 37 0 0
0.2387 -0.4834 -2.2318 -0.022 -0.812 0.584 101 84 36 0 0
0.2390 -0.4855 -2.2359 -0.089 -0.589 0.803 88 75 30 0 0
0.2402 -0.4940 -2.2639 0.407 -0.910 -0.078 93 82 62 0 0
0.2402 -0.4935 -2.2704 0.407 -0.910 -0.078 112 104 90 0 0
0.1653 0.0583 -0.9854 0.335 -0.852 0.403 83 64 36 0 0
0.1659 0.0555 -1.0231 0.126 -0.984 0.125 84 63 32 0 0
0.1729 0.0183 -1.3719 0.372 -0.293 0.881 103 87 62 0 0
0.1784 -0.0323 -1.3850 0.602 -0.463 0.650 135 108 65 0 0
0.1794 -0.0409 -1.3914 -0.036 -0.712 0.701 140 111 69 0 0
0.1812 -0.0566 -1.4047 0.111 -0.668 0.736 125 100 63 0 0
0.1815 -0.0595 -1.4085 0.231 -0.770 0.595 129 102 66 0 0
0.1852 -0.0925 -1.4236 0.230 -0.776 0.588 138 113 75 0 0
0.1862 -0.1012 -1.4297 0.430 -0.903 0.022 144 115 76 0 0
0.1866 -0.1041 -1.4387 0.030 -0.906 0.422 165 134 90 0 0
0.1869 -0.1066 -1.4426 0.019 -0.799 0.602 159 131 88 0 0
0.1875 -0.1119 -1.4451 0.121 -0.651 0.750 146 117 77 0 0
0.1932 -0.1606 -1.5033 0.671 -0.700 0.244 115 92 61 0 0
0.1932 -0.1597 -1.5142 0.191 -0.982 0.009 124 101 59 0 0
0.1929 -0.1562 -1.5214 -0.238 -0.959 0.152 128 102 55 0 0
0.1941 -0.1659 -1.5477 -0.064 -0.986 0.151 150 119 72 0 0
0.1950 -0.1729 -1.5597 0.431 -0.610 0.665 142 113 64 0 0
0.1965 -0.1835 -1.6016 0.369 -0.926 -0.074 123 102 58 0 0
0.1969 -0.1874 -1.6046 0.508 -0.341 0.791 114 91 49 0 0
0.2085 -0.2959 -1.5987 0.026 -0.743 0.668 180 156 111 0 0
0.2090 -0.2992 -1.6072 0.099 -0.967 0.236 131 108 70 0 0
0.2088 -0.2967 -1.6139 0.226 -0.972 0.066 89 66 34 0 0
0.2084 -0.2793 -1.7914 0.821 -0.317 0.475 94 72 37 0 0
0.2076 -0.2703 -1.8140 0.239 -0.952 0.191 85 65 32 0 0
0.2090 -0.2804 -1.8461 0.404 -0.841 0.359 87 67 34 0 0
0.2094 -0.2840 -1.8492 0.599 -0.699 0.391 89 69 36 0 0
0.2100 -0.2889 -1.8514 0.614 -0.767 -0.188 86 65 33 0 0
0.2098 -0.2868 -1.8584 0.452 -0.786 0.422 85 65 32 0 0
0.2110 -0.2961 -1.8856 0.557 -0.830 0.032 88 65 33 0 0
0.2111 -0.2968 -1.8907 0.432 -0.894 -0.122 88 65 33 0 0
0.2135 -0.3184 -1.8978 0.298 -0.906 0.300 88 65 33 0 0
0.2137 -0.3194 -1.9027 0.075 -0.972 0.222 85 62 30 0 0
0.2107 -0.2889 -1.9361 0.613 -0.741 -0.273 84 61 30 0 0
0.2151 -0.3294 -1.9462 0.499 -0.851 -0.164 84 63 31 0 0
0.2162 -0.3366 -1.9864 0.801 -0.548 0.239 85 64 33 0 0
0.2161 -0.3347 -1.9993 0.571 -0.596 0.564 89 68 37 0 0
0.2168 -0.3398 -2.0069 0.244 -0.501 0.830 87 64 32 0 0
0.2189 -0.3591 -2.0208 0.164 -0.656 0.736 87 67 32 0 0
0.2192 -0.3599 -2.0375 0.561 -0.786 0.260 89 68 35 0 0
0.2195 -0.3626 -2.0412 0.217 -0.758 0.615 86 63 31 0 0
0.2198 -0.3649 -2.0451 0.468 -0.705 0.533 83 60 28 0 0
0.2213 -0.3772 -2.0701 0.227 -0.859 -0.459 120 92 52 0 0
0.2208 -0.3719 -2.0802 0.227 -0.859 -0.459 128 103 64 0 0
0.2289 -0.4386 -2.1890 0.076 -0.845 0.529 120 96 52 0 0
0.2294 -0.4430 -2.1911 0.320 -0.624 0.712 118 94 50 0 0
0.1603 0.0605 -0.9767 0.336 -0.856 0.393 102 78 42 0 0
0.1608 0.0569 -0.9851 0.344 -0.887 0.307 89 65 35 0 0
0.1615 0.0542 -1.0374 0.337 -0.923 0.186 85 65 32 0 0
0.1618 0.0522 -1.0416 0.176 -0.975 0.139 81 60 30 0 0
0.1734 -0.0300 -1.3811 0.695 -0.488 0.528 131 104 64 0 0
0.1771 -0.0631 -1.4019 0.477 -0.362 0.801 133 104 64 0 0
0.1804 -0.0921 -1.4137 0.456 -0.826 0.331 151 122 79 0 0
0.1834 -0.1178 -1.4424 0.481 -0.725 0.493 174 144 102 0 0
0.1890 -0.1622 -1.5342 0.473 -0.553 0.686 149 119 69 0 0
0.1893 -0.1647 -1.5381 0.569 -0.785 0.246 150 118 67 0 0
0.1971 -0.2326 -1.5946 -0.296 -0.201 0.934 140 116 77 0 0
0.2041 -0.2970 -1.5984 0.279 -0.692 0.665 178 153 110 0 0
0.2043 -0.2983 -1.6029 0.418 -0.841 0.344 150 124 82 0 0
0.1991 -0.2413 -1.7235 0.365 -0.892 0.266 87 65 34 0 0
0.2007 -0.2529 -1.7653 0.216 -0.972 0.092 86 66 33 0 0
0.2042 -0.2837 -1.7889 0.685 -0.221 0.694 91 68 35 0 0
0.2045 -0.2838 -1.8275 0.560 -0.801 0.210 86 65 34 0 0
0.2047 -0.2835 -1.8556 0.253 -0.917 -0.309 87 67 34 0 0
0.2073 -0.3060 -1.8790 -0.158 -0.884 0.440 86 63 31 0 0
0.2069 -0.3011 -1.8881 0.108 -0.994 -0.019 88 65 33 0 0
0.2090 -0.3191 -1.9033 -0.063 -0.980 0.190 85 62 30 0 0
0.2089 -0.3182 -1.9096 -0.050 -0.979 -0.196 84 61 29 0 0
0.2146 -0.3627 -2.0185 0.170 -0.627 0.760 93 72 38 0 0
0.2157 -0.3702 -2.0530 0.563 -0.688 0.459 85 62 31 0 0
0.2159 -0.3719 -2.0574 0.282 -0.908 0.309 84 62 30 0 0
0.2172 -0.3837 -2.0596 0.271 -0.873 -0.406 85 61 28 0 0
0.2168 -0.3796 -2.0687 0.271 -0.873 -0.406 107 81 43 0 0
0.2165 -0.3755 -2.0779 0.271 -0.873 -0.406 123 98 61 0 0
0.2173 -0.3817 -2.1021 0.056 -0.750 0.660 87 64 31 0 0
0.2218 -0.4188 -2.1593 0.498 -0.791 0.356 94 72 34 0 0
0.2280 -0.4705 -2.2267 0.028 -0.950 0.311 104 82 43 0 0
0.2309 -0.4939 -2.2773 0.307 -0.912 -0.273 133 128 118 0 0
0.1562 0.0567 -0.9804 0.344 -0.887 0.307 113 89 54 0 0
0.1563 0.0553 -0.9847 0.344 -0.887 0.307 83 57 27 0 0
0.1566 0.0534 -0.9889 0.301 -0.945 0.130 87 62 33 0 0
0.1570 0.0525 -1.0370 0.210 -0.978 0.015 80 59 31 0 0
0.1582 0.0457 -1.0885 0.145 -0.976 0.162 72 50 19 0 0
0.1622 0.0171 -1.2121 0.149 -0.765 0.627 148 124 86 0 0
0.1684 -0.0280 -1.3772 0.540 -0.336 0.772 105 83 47 0 0
0.1689 -0.0324 -1.3803 0.584 -0.616 0.528 120 93 54 0 0
0.1692 -0.0351 -1.3843 0.537 -0.649 0.539 134 107 65 0 0
0.1700 -0.0420 -1.3862 0.436 -0.690 0.577 138 109 69 0 0
0.1703 -0.0444 -1.3903 0.294 -0.738 0.608 136 107 65 0 0
0.1727 -0.0654 -1.4011 0.715 -0.436 0.547 132 103 63 0 0
0.1841 -0.1608 -1.5248 0.681 -0.335 0.651 132 104 58 0 0
0.1859 -0.1754 -1.5484 0.522 -0.830 0.197 146 116 65 0 0
0.1891 -0.2008 -1.6082 0.721 -0.286 0.631 111 89 50 0 0
0.1945 -0.2424 -1.7177 0.455 -0.779 0.431 68 49 25 0 0
0.2002 -0.2849 -1.8551 0.253 -0.917 -0.309 85 65 33 0 0
0.2030 -0.3097 -1.8769 -0.038 -0.849 0.528 85 62 30 0 0
0.2022 -0.3016 -1.8882 0.108 -0.994 -0.019 85 62 31 0 0
0.2042 -0.3193 -1.8924 -0.373 -0.921 -0.112 84 61 30 0 0
0.2042 -0.3185 -1.8986 -0.146 -0.982 0.121 83 60 29 0 0
0.2043 -0.3192 -1.9037 -0.036 -0.992 0.118 83 60 29 0 0
0.2042 -0.3178 -1.9103 -0.050 -0.979 -0.196 83 60 29 0 0
0.2060 -0.3310 -1.9630 0.384 -0.905 0.185 88 67 36 0 0
0.2105 -0.3654 -2.0515 0.103 -0.844 0.527 82 59 27 0 0
0.2095 -0.3553 -2.0771 0.226 -0.198 0.954 82 61 29 0 0
0.2208 -0.4488 -2.2050 0.154 -0.742 0.653 126 102 58 0 0
0.2267 -0.4987 -2.2674 0.339 -0.941 -0.014 95 86 67 0 0
0.2272 -0.5026 -2.2698 0.081 -0.489 0.868 127 121 109 0 0
0.1526 0.0505 -1.0316 0.196 -0.979 -0.060 79 58 29 0 0
0.1525 0.0512 -1.0367 0.176 -0.975 0.139 79 58 32 0 0
0.1526 0.0505 -1.0414 0.176 -0.975 0.139 69 47 21 0 0
0.1526 0.0511 -1.0464 0.155 -0.976 0.151 77 56 27 0 0
0.1530 0.0491 -1.0702 0.059 -0.948 0.313 76 53 23 0 0
0.1539 0.0449 -1.1379 0.188 -0.982 -0.012 79 58 32 0 0
0.1553 0.0360 -1.1896 0.324 -0.847 0.421 84 62 30 0 0
0.1519 0.0748 -1.3402 0.948 -0.251 0.197 83 75 59 0 0
0.1523 0.0716 -1.3441 0.833 -0.041 0.551 94 83 63 0 0
0.1678 -0.0642 -1.3967 0.502 -0.304 0.809 136 110 68 0 0
0.1692 -0.0765 -1.4012 0.763 -0.496 0.415 143 113 72 0 0
0.1762 -0.1359 -1.4650 0.068 -0.997 0.031 192 162 121 0 0
0.1768 -0.1412 -1.4675 0.169 -0.972 0.163 174 145 97 0 0
0.1793 -0.1622 -1.4825 0.434 -0.727 0.531 143 113 70 0 0
0.1796 -0.1650 -1.4862 0.329 -0.690 0.645 115 90 52 0 0
0.1797 -0.1655 -1.4911 0.363 -0.759 0.540 136 109 73 0 0
0.1798 -0.1645 -1.5126 0.388 -0.922 -0.001 95 72 36 0 0
0.1816 -0.1788 -1.5521 0.156 -0.627 0.763 143 113 63 0 0
0.1832 -0.1936 -1.5491 -0.195 -0.894 0.402 142 112 60 0 0
0.1957 -0.2898 -1.8077 0.432 -0.672 0.601 80 59 30 0 0
0.1956 -0.2866 -1.8432 0.051 -0.920 -0.387 84 63 33 0 0
0.1956 -0.2862 -1.8546 0.143 -0.941 -0.307 84 62 33 0 0
0.1993 -0.3174 -1.8942 0.053 -0.998 -0.042 81 57 28 0 0
0.1998 -0.3210 -1.9029 0.029 -0.994 0.107 80 57 28 0 0
0.1997 -0.3195 -1.9096 0.150 -0.977 -0.153 79 56 27 0 0
0.1991 -0.3132 -1.9311 -0.223 -0.778 0.587 79 56 26 0 0
0.1993 -0.3146 -1.9415 -0.465 -0.775 0.429 83 62 31 0 0
0.2044 -0.3562 -1.9958 0.501 -0.864 -0.054 87 65 33 0 0
0.2048 -0.3572 -2.0469 0.482 -0.861 0.160 88 65 33 0 0
0.2134 -0.4269 -2.1772 0.575 -0.812 0.101 101 78 41 0 0
0.2159 -0.4476 -2.2007 0.432 -0.802 0.413 120 96 51 0 0
0.2171 -0.4580 -2.2093 0.133 -0.873 0.470 120 96 53 0 0
0.2179 -0.4639 -2.2219 -0.067 -0.867 0.493 116 93 52 0 0
0.1485 0.0469 -1.0647 0.295 -0.890 0.347 77 52 25 0 0
0.1489 0.0443 -1.0834 0.034 -0.993 0.113 91 68 36 0 0
0.1490 0.0437 -1.0881 0.150 -0.945 0.291 90 68 36 0 0
0.1494 0.0442 -1.1579 0.240 -0.944 0.225 53 32 11 0 0
0.1509 0.0329 -1.1987 0.356 -0.831 0.427 81 59 30 0 0
0.1642 -0.0743 -1.3921 -0.209 -0.579 0.788 135 107 66 0 0
0.1642 -0.0739 -1.3975 0.250 -0.408 0.878 130 101 61 0 0
0.1646 -0.0779 -1.4008 0.450 -0.550 0.704 134 104 63 0 0
0.1756 -0.1698 -1.4996 0.162 -0.970 0.180 87 63 34 0 0
0.1758 -0.1711 -1.5146 0.355 -0.871 0.340 94 69 29 0 0
0.1767 -0.1786 -1.5210 0.647 -0.376 0.663 135 107 66 0 0
0.1771 -0.1813 -1.5248 0.629 -0.385 0.675 117 86 41 0 0
0.1783 -0.1912 -1.5508 0.443 -0.875 0.197 129 101 51 0 0
0.1785 -0.1928 -1.5552 0.150 -0.605 0.782 124 96 46 0 0
0.1785 -0.1916 -1.5664 0.225 -0.931 0.288 147 118 64 0 0
0.1896 -0.2881 -1.5996 0.112 -0.991 0.071 141 115 77 0 0
0.1909 -0.2998 -1.6082 0.301 -0.944 0.133 109 83 45 0 0
0.1878 -0.2639 -1.7539 0.128 -0.963 0.237 98 77 42 0 0
0.1878 -0.2640 -1.7592 0.518 -0.841 0.157 80 61 28 0 0
0.1883 -0.2684 -1.7618 0.520 -0.725 0.453 77 58 28 0 0
0.1912 -0.2918 -1.8068 0.432 -0.672 0.601 80 59 28 0 0
0.1913 -0.2916 -1.8235 0.571 -0.672 0.471 83 62 31 0 0
0.1914 -0.2918 -1.8289 0.451 -0.892 0.022 84 63 32 0 0
0.1944 -0.3135 -1.9314 0.077 -0.836 0.544 76 52 24 0 0
0.1948 -0.3162 -1.9408 0.332 -0.738 0.588 83 62 31 0 0
0.2061 -0.4064 -2.1243 0.134 -0.850 0.510 86 63 29 0 0
0.2123 -0.4567 -2.2051 0.216 -0.913 0.347 120 95 54 0 0
0.2125 -0.4584 -2.2096 0.216 -0.913 0.347 121 96 55 0 0
0.2127 -0.4600 -2.2141 0.231 -0.882 0.410 120 95 55 0 0
0.2135 -0.4666 -2.2261 -0.109 -0.881 0.461 113 91 50 0 0
0.1422 0.0554 -0.9470 0.345 -0.893 0.290 74 52 23 0 0
0.1431 0.0519 -1.0227 0.127 -0.973 0.193 79 55 27 0 0
0.1437 0.0487 -1.0704 -0.111 -0.993 0.046 91 66 35 0 0
0.1594 -0.0735 -1.3928 -0.209 -0.579 0.788 143 111 72 0 0
0.1888 -0.3198 -1.6226 0.238 -0.953 0.188 100 80 46 0 0
0.1812 -0.2495 -1.7144 0.144 -0.947 0.289 39 28 14 0 0
0.1812 -0.2485 -1.7205 0.199 -0.903 0.380 62 48 31 0 0
0.1814 -0.2502 -1.7248 0.199 -0.903 0.380 73 57 36 0 0
0.1816 -0.2511 -1.7516 0.024 -1.000 0.013 86 67 42 0 0
0.1823 -0.2566 -1.7590 0.163 -0.643 0.748 103 81 50 0 0
0.1835 -0.2672 -1.7630 -0.106 -0.810 0.577 79 58 27 0 0
0.1841 -0.2715 -1.7767 -0.206 -0.850 0.484 63 43 21 0 0
0.1868 -0.2938 -1.8058 0.432 -0.672 0.601 79 58 27 0 0
0.2084 -0.4636 -2.2056 0.096 -0.976 0.193 121 96 55 0 0
0.2085 -0.4646 -2.2106 0.258 -0.910 0.325 120 95 54 0 0
0.1378 0.0539 -0.9467 0.353 -0.850 0.392 83 62 32 0 0
0.1387 0.0475 -0.9829 0.254 -0.929 0.271 87 66 39 0 0
0.1385 0.0513 -1.0227 0.127 -0.973 0.193 83 59 31 0 0
0.1385 0.0514 -1.0276 -0.107 -0.964 0.242 71 48 20 0 0
0.1390 0.0480 -1.0606 0.127 -0.956 0.264 87 59 30 0 0
0.1392 0.0468 -1.0650 0.127 -0.956 0.264 84 58 26 0 0
0.1414 0.0327 -1.1890 0.264 -0.894 0.362 60 43 18 0 0
0.1417 0.0310 -1.1933 0.264 -0.894 0.362 52 36 17 0 0
0.1416 0.0313 -1.1985 0.281 -0.955 0.094 49 34 15 0 0
0.1647 -0.1570 -1.4602 -0.134 -0.786 0.603 159 130 84 0 0
0.1653 -0.1622 -1.4678 0.491 -0.712 0.502 159 128 88 0 0
0.1655 -0.1636 -1.4723 0.478 -0.554 0.681 120 92 51 0 0
0.1666 -0.1724 -1.4937 0.448 -0.815 0.369 142 113 69 0 0
0.1667 -0.1734 -1.4983 0.419 -0.893 0.165 123 96 55 0 0
0.1669 -0.1743 -1.5031 0.419 -0.893 0.165 130 104 67 0 0
0.1767 -0.2501 -1.7144 0.144 -0.947 0.289 62 51 32 0 0
0.1773 -0.2542 -1.7555 0.120 -0.644 0.756 102 83 49 0 0
0.1777 -0.2574 -1.7589 0.164 -0.725 0.669 104 83 47 0 0
0.1781 -0.2605 -1.7623 0.164 -0.725 0.669 81 58 26 0 0
0.1821 -0.2927 -1.8291 -0.016 -0.995 0.100 78 57 26 0 0
0.1857 -0.3191 -1.9340 0.523 -0.811 0.263 82 59 30 0 0
0.1910 -0.3619 -2.0102 0.585 -0.507 0.633 95 72 37 0 0
0.1979 -0.4162 -2.1406 0.304 -0.910 0.283 83 60 27 0 0
0.1343 0.0446 -0.9535 0.217 -0.970 0.113 62 40 13 0 0
0.1373 0.0279 -1.1974 0.080 -0.815 0.574 64 49 23 0 0
0.1391 0.0128 -1.2115 0.134 -0.660 0.739 128 107 78 0 0
0.1460 -0.0399 -1.3678 0.180 -0.673 0.717 130 107 71 0 0
0.1466 -0.0457 -1.3703 0.105 -0.740 0.664 137 113 70 0 0
0.1527 -0.0964 -1.4030 0.536 -0.563 0.629 109 85 51 0 0
0.1569 -0.1316 -1.4269 0.450 -0.691 0.566 157 127 83 0 0
0.1596 -0.1539 -1.4569 0.169 -0.904 0.392 175 146 100 0 0
0.1805 -0.3271 -1.6136 0.106 -0.862 0.496 76 53 22 0 0
0.1752 -0.2750 -1.7807 0.430 -0.869 0.246 90 71 40 0 0
0.1789 -0.3050 -1.8433 0.463 -0.856 0.228 79 58 27 0 0
0.1782 -0.2978 -1.8707 -0.291 -0.663 0.690 74 53 23 0 0
0.1792 -0.3059 -1.8762 0.055 -0.933 0.356 77 56 27 0 0
0.1793 -0.3071 -1.8810 0.005 -0.911 0.412 78 56 28 0 0
0.1799 -0.3114 -1.8835 -0.104 -0.915 0.389 78 54 26 0 0
0.1811 -0.3216 -1.8930 -0.094 -0.798 0.595 75 53 24 0 0
0.1813 -0.3233 -1.8974 0.010 -0.834 0.552 75 54 25 0 0
0.1815 -0.3245 -1.9022 -0.289 -0.886 0.363 77 56 27 0 0
0.1810 -0.3198 -1.9169 0.256 -0.954 -0.156 78 55 27 0 0
0.1887 -0.3805 -2.0653 -0.098 -0.876 0.472 82 61 30 0 0
0.1934 -0.4178 -2.1458 -0.134 -0.882 0.451 82 59 25 0 0
0.2017 -0.4862 -2.2281 0.320 -0.868 0.381 112 91 46 0 0
0.2046 -0.5097 -2.2484 0.039 -0.895 0.445 87 73 45 0 0
0.2047 -0.5107 -2.2534 0.096 -0.992 0.086 85 71 42 0 0
0.2045 -0.5084 -2.2675 0.122 -0.991 0.055 98 87 72 0 0
0.1208 0.1186 -0.8998 -0.119 -0.322 0.939 179 179 180 0 0
0.1302 0.0450 -1.0943 0.086 -0.907 0.412 69 49 20 0 0
0.1340 0.0163 -1.2081 0.131 -0.761 0.635 120 103 72 0 0
0.1416 -0.0434 -1.3664 0.206 -0.712 0.671 121 100 72 0 0
0.1420 -0.0467 -1.3701 0.206 -0.712 0.671 117 95 62 0 0
0.1446 -0.0680 -1.3859 0.433 -0.573 0.696 162 133 80 0 0
0.1493 -0.1074 -1.4082 0.141 -0.708 0.692 178 147 98 0 0
0.1522 -0.1318 -1.4168 0.329 -0.889 0.317 182 151 103 0 0
0.1524 -0.1333 -1.4212 0.265 -0.895 0.359 159 127 84 0 0
0.1527 -0.1352 -1.4254 0.208 -0.906 0.369 145 114 73 0 0
0.1529 -0.1369 -1.4297 0.208 -0.906 0.369 147 117 75 0 0
0.1531 -0.1389 -1.4338 0.191 -0.923 0.334 156 125 81 0 0
0.1545 -0.1501 -1.4488 0.009 -0.760 0.650 150 120 80 0 0
0.1557 -0.1597 -1.4646 -0.049 -0.747 0.663 189 155 106 0 0
0.1569 -0.1690 -1.4909 0.533 -0.824 0.191 124 92 52 0 0
0.1578 -0.1763 -1.4922 0.049 -0.829 0.557 109 80 45 0 0
0.1582 -0.1796 -1.4956 0.472 -0.764 0.440 109 86 54 0 0
0.1585 -0.1823 -1.4994 0.372 -0.715 0.592 80 60 27 0 0
0.1692 -0.2701 -1.5909 0.219 -0.122 0.968 130 105 64 0 0
0.1761 -0.3278 -1.6135 0.108 -0.941 0.320 76 52 23 0 0
0.1711 -0.2803 -1.7776 -0.008 -0.902 0.432 80 60 30 0 0
0.1771 -0.3276 -1.9005 -0.044 -0.999 -0.023 77 56 27 0 0
0.1834 -0.3754 -2.0642 0.101 -0.926 0.364 79 58 27 0 0
0.1874 -0.4078 -2.1136 0.281 -0.859 0.428 84 63 32 0 0
0.1877 -0.4098 -2.1178 0.281 -0.859 0.428 84 63 32 0 0
0.1885 -0.4161 -2.1419 0.222 -0.950 0.221 78 55 24 0 0
0.1968 -0.4839 -2.2189 0.125 -0.928 0.352 122 97 55 0 0
0.2000 -0.5100 -2.2487 0.039 -0.895 0.445 93 78 46 0 0
0.1163 0.1168 -0.8994 0.139 -0.242 0.960 179 178 178 0 0
0.1250 0.0460 -0.9733 0.099 -0.979 0.179 69 45 17 0 0
0.1254 0.0437 -1.0013 0.121 -0.978 0.171 78 57 28 0 0
0.1252 0.0482 -1.1155 -0.170 -0.980 0.105 78 60 39 0 0
0.1253 0.0477 -1.1202 -0.170 -0.980 0.105 76 57 35 0 0
0.1255 0.0461 -1.1246 0.149 -0.989 0.022 79 59 36 0 0
0.1264 0.0392 -1.1570 0.016 -0.910 0.414 71 49 25 0 0
0.1289 0.0196 -1.1996 0.109 -0.920 0.375 83 62 32 0 0
0.1291 0.0178 -1.2039 0.109 -0.920 0.375 108 93 61 0 0
0.1359 -0.0385 -1.2461 0.858 -0.500 -0.114 122 99 73 0 0
0.1306 0.0070 -1.2809 0.599 -0.694 -0.399 97 83 62 0 0
0.1484 -0.1378 -1.4295 0.208 -0.906 0.369 178 143 93 0 0
0.1532 -0.1766 -1.4923 0.049 -0.829 0.557 132 105 61 0 0
0.1647 -0.2709 -1.5908 0.084 -0.083 0.993 132 107 66 0 0
0.1658 -0.2796 -1.5908 0.083 -0.243 0.967 130 101 61 0 0
0.1713 -0.3252 -1.6103 0.117 -0.861 0.494 79 56 23 0 0
0.1668 -0.2829 -1.7873 0.633 -0.759 0.152 100 78 42 0 0
0.1669 -0.2838 -1.7922 0.633 -0.759 0.152 110 87 48 0 0
0.1713 -0.3182 -1.8852 0.560 -0.614 0.556 71 50 21 0 0
0.1716 -0.3209 -1.8889 0.684 -0.658 0.315 73 52 23 0 0
0.1723 -0.3258 -1.9022 0.192 -0.847 0.495 76 57 27 0 0
0.1784 -0.3735 -2.0488 0.235 -0.920 0.313 83 62 31 0 0
0.1795 -0.3824 -2.0707 0.233 -0.859 0.456 81 60 29 0 0
0.1828 -0.4091 -2.1131 0.290 -0.870 0.400 80 59 28 0 0
0.1831 -0.4111 -2.1173 0.281 -0.859 0.428 78 57 26 0 0
0.1872 -0.4439 -2.1659 0.427 -0.847 0.317 95 73 36 0 0
0.1874 -0.4454 -2.1704 0.328 -0.845 0.424 96 74 37 0 0
0.1876 -0.4474 -2.1746 0.328 -0.845 0.424 98 76 39 0 0
0.1903 -0.4691 -2.1970 0.275 -0.907 0.320 111 87 43 0 0
0.1962 -0.5174 -2.2603 0.082 -0.989 0.121 87 74 54 0 0
0.1119 0.1150 -0.8990 0.167 -0.222 0.961 179 178 178 0 0
0.1204 0.0455 -0.9352 0.137 -0.913 0.384 97 74 43 0 0
0.1206 0.0437 -0.9394 0.128 -0.971 0.204 70 50 24 0 0
0.1209 0.0420 -1.0010 -0.108 -0.889 0.444 78 57 28 0 0
0.1210 0.0417 -1.0057 0.227 -0.973 0.047 82 61 34 0 0
0.1220 0.0366 -1.1612 0.154 -0.895 0.420 73 50 25 0 0
0.1231 0.0278 -1.1930 0.125 -0.867 0.483 95 74 42 0 0
0.1315 -0.0405 -1.2254 0.430 -0.656 0.621 187 162 114 0 0
0.1319 -0.0438 -1.2291 0.430 -0.656 0.621 187 158 105 0 0
0.1328 -0.0516 -1.2408 0.130 -0.652 0.747 124 100 67 0 0
0.1513 -0.1989 -1.5067 0.221 -0.799 0.559 79 54 23 0 0
0.1604 -0.2732 -1.5897 0.215 -0.159 0.964 134 109 68 0 0
0.1613 -0.2804 -1.5907 0.095 -0.334 0.938 129 99 59 0 0
0.1620 -0.2862 -1.5924 0.195 -0.222 0.955 140 110 70 0 0
0.1630 -0.2926 -1.6731 0.413 -0.641 -0.647 113 92 59 0 0
0.1608 -0.2727 -1.7396 0.268 -0.875 0.405 60 45 24 0 0
0.1620 -0.2820 -1.7773 0.396 -0.748 0.532 80 59 31 0 0
0.1657 -0.3120 -1.8398 -0.072 -0.979 0.189 76 55 26 0 0
0.1647 -0.3029 -1.8517 0.300 -0.925 0.235 75 56 26 0 0
0.1664 -0.3172 -1.8640 0.144 -0.982 -0.121 71 50 25 0 0
0.1677 -0.3270 -1.8962 0.429 -0.655 0.622 73 54 24 0 0
0.1672 -0.3230 -1.9047 -0.094 -0.854 0.511 76 57 27 0 0
0.1724 -0.3640 -1.9991 -0.270 -0.960 0.076 81 60 29 0 0
0.1733 -0.3709 -2.0282 0.068 -0.994 0.082 83 62 31 0 0
0.1740 -0.3757 -2.0533 0.335 -0.836 0.435 90 69 38 0 0
0.1743 -0.3783 -2.0570 0.186 -0.861 0.473 86 65 34 0 0
0.1750 -0.3841 -2.0699 0.338 -0.850 0.404 81 59 28 0 0
0.1752 -0.3857 -2.0744 0.402 -0.857 0.323 85 62 27 0 0
0.1831 -0.4487 -2.1741 0.242 -0.830 0.503 95 73 36 0 0
0.1846 -0.4613 -2.1867 0.281 -0.601 0.749 117 94 51 0 0
0.1850 -0.4639 -2.1904 0.281 -0.761 0.585 110 86 44 0 0
0.1858 -0.4705 -2.1964 0.210 -0.908 0.363 113 89 45 0 0
0.1864 -0.4759 -2.2094 0.170 -0.778 0.604 118 95 46 0 0
0.1914 -0.5164 -2.2439 0.199 -0.924 0.326 95 78 40 0 0
0.1917 -0.5186 -2.2479 0.207 -0.894 0.397 91 76 42 0 0
0.1919 -0.5204 -2.2522 0.330 -0.936 0.119 85 70 43 0 0
0.1158 0.0449 -0.9352 0.137 -0.913 0.384 79 57 31 0 0
0.1161 0.0431 -0.9394 0.128 -0.971 0.204 70 49 27 0 0
0.1162 0.0417 -0.9437 0.042 -0.993 0.110 67 45 22 0 0
0.1273 -0.0443 -1.2241 0.416 -0.570 0.709 150 126 84 0 0
0.1264 -0.0354 -1.3502 0.665 -0.544 0.511 95 80 57 0 0
0.1277 -0.0462 -1.3607 0.408 -0.522 0.749 110 88 55 0 0
0.1343 -0.0998 -1.3922 0.243 -0.772 0.588 163 132 83 0 0
0.1347 -0.1024 -1.3960 0.366 -0.791 0.491 180 150 102 0 0
0.1416 -0.1582 -1.4404 0.180 -0.887 0.425 160 127 83 0 0
0.1561 -0.2747 -1.5892 0.277 -0.154 0.948 143 118 78 0 0
0.1570 -0.2824 -1.5899 0.326 -0.327 0.887 137 109 68 0 0
0.1588 -0.2936 -1.8141 0.382 -0.836 0.393 78 57 28 0 0
0.1622 -0.3204 -1.8789 0.500 -0.689 0.525 75 54 27 0 0
0.1622 -0.3209 -1.8842 0.380 -0.810 0.447 76 55 26 0 0
0.1625 -0.3230 -1.8883 0.380 -0.810 0.447 72 51 22 0 0
0.1628 -0.3253 -1.8922 0.484 -0.683 0.547 71 51 22 0 0
0.1631 -0.3280 -1.8959 0.484 -0.683 0.547 72 53 23 0 0
0.1687 -0.3713 -2.0284 0.068 -0.994 0.082 77 56 25 0 0
0.1689 -0.3732 -2.0327 0.233 -0.940 0.249 75 54 23 0 0
0.1689 -0.3735 -2.0383 0.121 -0.990 0.065 77 56 25 0 0
0.1694 -0.3769 -2.0529 0.341 -0.815 0.468 87 64 33 0 0
0.1697 -0.3792 -2.0569 0.186 -0.861 0.473 81 58 27 0 0
0.1698 -0.3803 -2.0618 -0.018 -0.906 0.422 79 56 25 0 0
0.1702 -0.3829 -2.0714 0.321 -0.927 0.193 80 57 26 0 0
0.1704 -0.3848 -2.0756 0.155 -0.926 0.344 80 57 24 0 0
