ply
format ascii 1.0
element vertex 856
property float x
property float y
property float z
property float nx
property float ny
property float nz
property uchar diffuse_red
property uchar diffuse_green
property uchar diffuse_blue
property uchar class
property uchar detection
end_header
-0.2620 0.2630 -1.9295 -0.658 0.452 0.602 89 68 37 0 0
-0.2774 0.2704 -1.9646 -0.834 0.451 0.318 90 67 34 0 0
-0.2809 0.2721 -1.9737 -0.698 0.586 0.412 86 63 32 0 0
-0.2920 0.2774 -2.0005 -0.746 0.578 0.330 72 51 24 0 0
-0.3238 0.2930 -2.0880 -0.753 0.487 0.442 96 76 35 0 0
-0.3257 0.2939 -2.0924 -0.733 0.439 0.519 120 96 51 0 0
-0.3280 0.2949 -2.0965 -0.733 0.439 0.519 155 127 79 0 0
-0.3340 0.2976 -2.1034 -0.692 0.348 0.632 128 103 67 0 0
-0.3341 0.2978 -2.1094 -0.544 0.608 0.578 88 68 35 0 0
-0.3464 0.3032 -2.1170 -0.921 0.380 -0.089 84 60 25 0 0
-0.3638 0.3118 -2.1687 -0.939 0.307 0.153 87 65 28 0 0
-0.3703 0.3150 -2.1873 -0.826 0.215 0.521 88 64 28 0 0
-0.4185 0.3372 -2.2662 -0.615 0.639 0.462 101 90 66 0 0
0.0928 0.0932 -0.8935 -0.017 0.180 0.984 156 153 147 0 0
0.0292 0.1221 -0.9850 -0.324 0.852 -0.412 76 57 31 0 0
0.0883 0.1006 -1.1065 -0.985 -0.052 0.163 29 20 14 0 0
-0.1904 0.2278 -1.5232 -0.965 -0.184 0.189 72 48 20 0 0
-0.2189 0.2414 -1.5868 -0.444 0.421 0.791 142 122 80 0 0
-0.2241 0.2436 -1.5891 -0.439 0.539 0.719 148 127 81 0 0
-0.2226 0.2431 -1.5954 -0.319 0.286 0.904 151 125 87 0 0
-0.2927 0.2732 -1.6268 -0.640 0.661 0.392 117 95 54 0 0
-0.2487 0.2607 -1.8509 -0.861 0.456 0.224 79 56 25 0 0
-0.2515 0.2620 -1.8546 -0.937 0.345 0.055 79 56 25 0 0
-0.2548 0.2641 -1.8810 -0.869 0.436 0.232 87 66 37 0 0
-0.2560 0.2648 -1.8917 -0.773 0.581 0.256 83 59 31 0 0
-0.2607 0.2678 -1.9289 -0.895 0.068 0.442 84 63 32 0 0
-0.2618 0.2685 -1.9397 -0.728 0.361 0.583 80 57 26 0 0
-0.2796 0.2770 -1.9790 -0.737 0.476 0.480 85 62 31 0 0
-0.2895 0.2817 -2.0008 -0.745 0.592 0.309 70 49 22 0 0
-0.2891 0.2817 -2.0071 -0.794 0.546 0.268 71 50 23 0 0
-0.3212 0.2972 -2.0884 -0.753 0.487 0.442 96 75 34 0 0
-0.3233 0.2982 -2.0926 -0.733 0.439 0.519 127 101 57 0 0
-0.3256 0.2993 -2.0967 -0.733 0.439 0.519 154 127 81 0 0
-0.3279 0.3003 -2.1008 -0.733 0.439 0.519 153 124 85 0 0
-0.3291 0.3010 -2.1059 -0.753 0.487 0.442 114 91 55 0 0
-0.3349 0.3037 -2.1190 -0.675 0.599 0.431 83 60 24 0 0
-0.3448 0.3078 -2.1167 -0.845 0.499 0.191 83 59 23 0 0
-0.3701 0.3203 -2.1917 -0.829 0.295 0.475 86 62 26 0 0
-0.3722 0.3213 -2.1960 -0.829 0.295 0.475 83 59 23 0 0
-0.4038 0.3350 -2.2164 -0.766 0.213 0.607 99 76 34 0 0
-0.4071 0.3368 -2.2318 -0.918 0.338 0.206 98 75 33 0 0
-0.4299 0.3470 -2.2597 -0.663 0.086 0.744 150 147 139 0 0
0.0857 0.1055 -1.0489 -0.993 0.021 -0.113 61 41 18 0 0
0.0901 0.1038 -1.0555 -0.914 0.271 0.301 63 45 22 0 0
0.0888 0.1045 -1.0601 -0.914 0.271 0.301 64 48 24 0 0
0.0888 0.1057 -1.1059 -0.967 0.092 0.239 30 21 14 0 0
0.0877 0.1063 -1.1106 -0.928 0.218 0.303 26 18 11 0 0
0.0864 0.1070 -1.1152 -0.989 0.088 0.122 23 16 10 0 0
0.0918 0.1055 -1.1431 -0.992 0.030 0.121 15 14 9 0 0
0.0889 0.1068 -1.1471 -0.954 0.028 0.300 10 9 6 0 0
0.0442 0.1264 -1.1860 -0.697 0.294 0.654 114 95 61 0 0
-0.0098 0.1498 -1.2199 -0.234 0.331 0.914 113 97 54 0 0
-0.0157 0.1523 -1.2225 -0.220 0.405 0.887 104 90 47 0 0
-0.0729 0.1798 -1.3624 -0.450 0.608 0.654 109 87 54 0 0
-0.0754 0.1810 -1.3664 -0.464 0.545 0.698 121 100 67 0 0
-0.0788 0.1825 -1.3700 -0.702 0.347 0.622 118 97 65 0 0
-0.1651 0.2209 -1.4672 -0.961 0.095 0.258 89 66 32 0 0
-0.1660 0.2214 -1.4720 -0.986 -0.008 0.164 80 58 24 0 0
-0.1708 0.2239 -1.4906 -0.762 0.472 0.443 142 115 65 0 0
-0.1719 0.2245 -1.4953 -0.828 0.246 0.504 146 115 67 0 0
-0.1774 0.2270 -1.5028 -0.644 0.157 0.749 92 67 36 0 0
-0.1734 0.2258 -1.5211 -0.502 0.815 0.291 69 45 17 0 0
-0.1909 0.2331 -1.5217 -0.974 -0.176 0.143 78 54 26 0 0
-0.1833 0.2302 -1.5315 -0.920 0.084 -0.383 69 43 15 0 0
-0.2856 0.2761 -1.6571 -0.399 0.843 0.362 113 91 56 0 0
-0.2322 0.2566 -1.7587 -0.465 0.877 -0.120 111 87 52 0 0
-0.2344 0.2580 -1.7741 -0.330 0.714 0.617 85 62 31 0 0
-0.2236 0.2548 -1.8213 -0.687 0.578 0.442 75 56 24 0 0
-0.2489 0.2662 -1.8550 -0.843 0.472 0.259 79 56 25 0 0
-0.2583 0.2726 -1.9467 -0.704 0.413 0.578 78 55 25 0 0
-0.2877 0.2864 -2.0065 -0.763 0.220 0.608 71 50 23 0 0
-0.2870 0.2863 -2.0130 -0.747 0.614 0.255 72 50 24 0 0
-0.2876 0.2868 -2.0244 -0.532 0.814 0.233 73 50 22 0 0
-0.2894 0.2878 -2.0349 -0.778 0.422 0.464 93 70 35 0 0
-0.2934 0.2896 -2.0376 -0.658 0.642 0.394 115 92 62 0 0
-0.3017 0.2933 -2.0488 -0.523 0.500 0.691 88 66 31 0 0
-0.3157 0.2998 -2.0733 -0.984 0.045 0.171 81 58 27 0 0
-0.3196 0.3015 -2.0760 -0.357 0.645 0.676 86 64 30 0 0
-0.3231 0.3032 -2.0851 -0.716 0.667 0.207 97 75 35 0 0
-0.3339 0.3086 -2.1182 -0.758 0.160 0.633 83 59 23 0 0
-0.3585 0.3202 -2.1697 -0.806 0.514 0.293 87 64 28 0 0
-0.3682 0.3247 -2.1855 -0.716 0.215 0.664 88 64 28 0 0
-0.4301 0.3523 -2.2576 -0.712 0.096 0.695 157 155 148 0 0
0.0737 0.1149 -1.0187 -0.752 0.298 -0.588 59 40 18 0 0
0.0896 0.1097 -1.0697 -0.854 0.495 0.158 42 33 21 0 0
0.0887 0.1102 -1.0745 -0.888 0.411 0.204 29 24 13 0 0
0.0881 0.1108 -1.0895 -0.899 0.436 0.052 41 34 25 0 0
0.0700 0.1201 -1.1543 -0.607 0.540 0.583 128 109 81 0 0
0.0672 0.1214 -1.1583 -0.607 0.540 0.583 123 102 67 0 0
0.0644 0.1226 -1.1624 -0.607 0.540 0.583 113 92 57 0 0
0.0617 0.1239 -1.1664 -0.607 0.540 0.583 124 101 61 0 0
0.0464 0.1308 -1.1860 -0.652 0.419 0.631 139 117 78 0 0
-0.0129 0.1563 -1.2228 -0.267 0.523 0.810 109 94 50 0 0
-0.0199 0.1593 -1.2249 -0.206 0.437 0.875 94 79 33 0 0
-0.0593 0.1758 -1.2331 -0.417 0.677 0.607 136 108 75 0 0
-0.1609 0.2244 -1.4684 -0.809 0.571 0.140 86 63 31 0 0
-0.1645 0.2260 -1.4717 -0.956 0.248 0.158 77 56 24 0 0
-0.1692 0.2284 -1.4903 -0.731 0.591 0.341 146 119 71 0 0
-0.1707 0.2291 -1.4948 -0.731 0.591 0.341 140 110 66 0 0
-0.1761 0.2314 -1.4971 -0.868 0.075 0.491 142 114 74 0 0
-0.1822 0.2343 -1.5095 -0.624 0.514 0.588 75 51 22 0 0
-0.1849 0.2355 -1.5134 -0.624 0.514 0.588 72 48 20 0 0
-0.1906 0.2381 -1.5207 -0.993 -0.114 0.042 70 46 18 0 0
-0.1831 0.2353 -1.5304 -0.929 0.123 -0.350 70 45 16 0 0
-0.1850 0.2361 -1.5347 -0.979 0.145 0.141 70 45 16 0 0
-0.1844 0.2360 -1.5404 -0.925 0.161 -0.345 115 93 54 0 0
-0.1833 0.2358 -1.5464 -0.969 0.057 -0.242 154 125 78 0 0
-0.1818 0.2353 -1.5526 -0.969 0.057 -0.242 165 134 87 0 0
-0.1906 0.2391 -1.5583 -0.684 0.425 0.593 55 37 11 0 0
-0.1944 0.2410 -1.5667 -0.602 0.745 0.289 71 49 23 0 0
-0.2191 0.2518 -1.5897 -0.469 0.488 0.736 146 120 85 0 0
-0.2231 0.2535 -1.5926 -0.244 0.388 0.889 139 113 75 0 0
-0.2542 0.2748 -1.8958 -0.787 0.579 0.212 89 67 36 0 0
-0.2583 0.2769 -1.9101 -0.667 0.354 0.656 80 59 28 0 0
-0.2614 0.2792 -1.9487 -0.595 0.419 0.686 71 47 19 0 0
-0.2866 0.2920 -2.0355 -0.644 0.717 0.267 81 58 29 0 0
-0.2988 0.2974 -2.0495 -0.523 0.500 0.691 81 61 27 0 0
-0.3130 0.3040 -2.0738 -0.660 0.709 0.247 82 59 27 0 0
-0.3181 0.3067 -2.0935 -0.629 0.744 0.224 142 117 72 0 0
-0.3192 0.3073 -2.0986 -0.629 0.744 0.224 148 121 76 0 0
-0.3691 0.3304 -2.1890 -0.746 0.444 0.496 86 62 26 0 0
0.0522 0.1283 -0.9956 -0.441 0.862 -0.250 108 89 60 0 0
0.0784 0.1183 -1.0246 -0.873 0.175 -0.455 62 44 21 0 0
0.0872 0.1151 -1.0428 -0.808 0.505 -0.302 60 43 17 0 0
0.0893 0.1152 -1.0739 -0.941 0.163 0.295 34 29 20 0 0
0.0895 0.1152 -1.0791 -0.927 0.367 0.074 36 30 19 0 0
0.0893 0.1155 -1.0840 -0.927 0.367 0.074 41 34 24 0 0
0.0890 0.1157 -1.0890 -0.950 0.285 0.130 42 35 26 0 0
0.0885 0.1161 -1.0939 -0.950 0.285 0.130 37 30 22 0 0
0.0907 0.1159 -1.1204 -0.927 0.203 0.316 19 15 10 0 0
0.0649 0.1279 -1.1669 -0.559 0.580 0.592 125 99 57 0 0
-0.0090 0.1599 -1.2236 -0.339 0.489 0.803 113 97 49 0 0
-0.0075 0.1624 -1.3339 -0.140 0.864 0.485 131 105 66 0 0
-0.1415 0.2205 -1.4356 -0.661 0.612 0.435 101 78 49 0 0
-0.1583 0.2286 -1.4740 -0.738 0.666 0.111 70 49 19 0 0
-0.1701 0.2342 -1.4993 -0.723 0.682 0.112 145 118 79 0 0
-0.1666 0.2329 -1.5066 -0.900 0.405 0.163 79 56 22 0 0
-0.1659 0.2328 -1.5123 -0.873 0.437 -0.215 77 54 25 0 0
-0.1872 0.2429 -1.5590 -0.635 0.463 0.619 57 40 13 0 0
-0.1892 0.2438 -1.5632 -0.738 0.579 0.347 60 41 16 0 0
-0.1907 0.2446 -1.5678 -0.667 0.670 0.327 72 50 24 0 0
-0.2204 0.2576 -1.5930 -0.319 0.206 0.925 155 127 85 0 0
-0.2433 0.2672 -1.6005 -0.246 0.105 0.964 124 103 67 0 0
-0.2437 0.2746 -1.8558 -0.839 0.544 -0.025 80 57 26 0 0
-0.2535 0.2799 -1.9006 -0.834 0.492 0.250 84 63 32 0 0
-0.2557 0.2809 -1.9047 -0.854 0.378 0.358 81 60 29 0 0
-0.2567 0.2815 -1.9098 -0.834 0.269 0.481 82 61 30 0 0
-0.2826 0.2947 -2.0013 -0.651 0.517 0.556 70 49 22 0 0
-0.2823 0.2948 -2.0074 -0.700 0.572 0.428 70 48 23 0 0
-0.2836 0.2955 -2.0123 -0.636 0.754 0.168 68 46 22 0 0
-0.3093 0.3078 -2.0751 -0.572 0.790 0.221 82 59 27 0 0
-0.3222 0.3145 -2.1246 -0.820 0.457 0.344 83 59 23 0 0
-0.3248 0.3157 -2.1284 -0.572 0.630 0.525 83 59 23 0 0
-0.3467 0.3256 -2.1581 -0.731 0.359 0.581 83 59 23 0 0
-0.4003 0.3495 -2.2201 -0.890 0.260 0.375 95 72 30 0 0
-0.4227 0.3598 -2.2607 -0.532 0.578 0.619 171 170 166 0 0
0.0592 0.1281 -0.9143 -0.335 0.854 0.397 102 83 53 0 0
0.0804 0.1263 -1.1516 -0.751 0.449 0.484 78 62 30 0 0
-0.0011 0.1651 -1.3360 -0.158 0.845 0.511 114 91 55 0 0
-0.0054 0.1670 -1.3392 -0.394 0.823 0.409 129 112 69 0 0
-0.0080 0.1682 -1.3433 -0.221 0.743 0.632 123 102 63 0 0
-0.0654 0.1928 -1.3788 -0.580 0.689 0.434 85 65 36 0 0
-0.1369 0.2255 -1.4954 -0.577 0.748 0.327 100 76 35 0 0
-0.1349 0.2251 -1.5072 -0.510 0.718 0.473 142 110 63 0 0
-0.1372 0.2261 -1.5113 -0.590 0.711 0.382 145 118 77 0 0
-0.1611 0.2359 -1.5086 -0.857 0.508 0.084 79 57 22 0 0
-0.1610 0.2360 -1.5140 -0.907 0.374 0.191 75 54 24 0 0
-0.1619 0.2365 -1.5188 -0.566 0.133 0.814 74 50 23 0 0
-0.2409 0.2713 -1.6007 -0.278 0.026 0.960 115 94 62 0 0
-0.2418 0.2790 -1.8557 -0.962 0.271 -0.044 85 62 31 0 0
-0.2509 0.2834 -1.8778 -0.533 0.680 0.504 98 75 44 0 0
-0.2436 0.2809 -1.8947 -0.748 0.613 0.253 95 72 41 0 0
-0.2539 0.2858 -1.9161 -0.727 0.462 0.508 82 62 30 0 0
-0.2666 0.2931 -1.9886 -0.869 0.389 0.305 75 54 25 0 0
-0.2811 0.2996 -2.0068 -0.924 0.312 0.222 68 47 22 0 0
-0.2894 0.3042 -2.0477 -0.643 0.331 0.691 89 66 37 0 0
-0.3081 0.3126 -2.0744 -0.974 0.076 0.213 82 59 27 0 0
-0.3095 0.3133 -2.0792 -0.868 0.436 0.236 101 79 42 0 0
-0.3992 0.3544 -2.2254 -0.915 0.146 0.376 99 76 34 0 0
-0.4030 0.3564 -2.2403 -0.914 0.316 0.254 99 76 35 0 0
-0.4143 0.3616 -2.2605 -0.611 0.755 0.236 142 137 127 0 0
0.1304 0.1034 -0.8920 -0.053 0.159 0.986 177 177 179 0 0
0.0690 0.1368 -1.1720 -0.795 0.347 0.498 143 112 65 0 0
0.0486 0.1459 -1.1946 -0.710 0.493 0.503 148 120 70 0 0
0.0008 0.1698 -1.3411 -0.418 0.754 0.507 119 101 61 0 0
-0.0022 0.1711 -1.3450 -0.619 0.686 0.382 116 97 58 0 0
-0.0035 0.1718 -1.3497 -0.733 0.627 0.265 116 96 57 0 0
-0.0640 0.1976 -1.3838 -0.600 0.753 0.270 99 81 47 0 0
-0.1313 0.2264 -1.4283 -0.824 0.446 0.350 123 97 59 0 0
-0.1274 0.2271 -1.5049 -0.557 0.598 0.576 171 138 89 0 0
-0.1304 0.2286 -1.5140 -0.701 0.709 0.075 146 119 80 0 0
-0.1576 0.2394 -1.5040 -0.848 0.266 -0.458 121 97 63 0 0
-0.1570 0.2394 -1.5097 -0.874 0.479 0.079 78 55 25 0 0
-0.1576 0.2397 -1.5148 -0.862 0.504 0.059 73 49 23 0 0
-0.2138 0.2651 -1.5945 -0.337 0.222 0.915 161 139 99 0 0
-0.2731 0.2905 -1.6330 -0.652 0.738 0.172 105 83 47 0 0
-0.2512 0.2915 -1.9693 -0.554 0.658 0.510 88 65 33 0 0
-0.3045 0.3161 -2.0637 -0.578 0.686 0.442 80 56 28 0 0
-0.3080 0.3180 -2.0787 -0.869 -0.069 0.490 100 77 41 0 0
-0.3120 0.3201 -2.0934 -0.755 0.655 -0.039 148 123 78 0 0
-0.4079 0.3640 -2.2523 -0.612 0.413 0.675 103 84 51 0 0
-0.4108 0.3653 -2.2557 -0.612 0.413 0.675 111 99 80 0 0
-0.4104 0.3653 -2.2622 -0.611 0.755 0.236 152 148 141 0 0
0.0722 0.1331 -0.9171 -0.450 0.792 0.411 97 80 51 0 0
0.0967 0.1279 -1.0743 -0.925 0.367 -0.095 40 34 28 0 0
0.0972 0.1278 -1.0795 -0.925 0.367 -0.095 41 34 27 0 0
0.0838 0.1355 -1.1512 -0.823 0.427 0.376 69 49 19 0 0
0.0710 0.1413 -1.1719 -0.795 0.347 0.498 143 116 71 0 0
0.0691 0.1422 -1.1763 -0.860 0.305 0.410 132 104 64 0 0
0.0118 0.1705 -1.3401 -0.143 0.807 0.572 110 91 58 0 0
0.0083 0.1721 -1.3437 -0.177 0.798 0.576 118 98 62 0 0
0.0031 0.1743 -1.3466 -0.430 0.713 0.554 112 92 57 0 0
0.0017 0.1750 -1.3512 -0.595 0.730 0.335 109 89 54 0 0
-0.0012 0.1763 -1.3552 -0.507 0.565 0.651 99 79 46 0 0
-0.0044 0.1777 -1.3589 -0.507 0.565 0.651 109 88 57 0 0
-0.1535 0.2431 -1.5105 -0.951 0.278 0.133 78 54 26 0 0
-0.1548 0.2437 -1.5152 -0.881 0.466 0.088 74 50 24 0 0
-0.1571 0.2448 -1.5192 -0.302 0.166 0.939 73 51 24 0 0
-0.2482 0.2845 -1.6044 -0.265 0.325 0.908 163 139 93 0 0
-0.2687 0.2938 -1.6345 -0.733 0.673 0.101 83 66 35 0 0
-0.2443 0.2939 -1.9671 -0.717 0.639 0.279 85 62 31 0 0
-0.2456 0.2946 -1.9720 -0.717 0.639 0.279 85 62 30 0 0
-0.2471 0.2953 -1.9768 -0.769 0.576 0.278 86 63 34 0 0
-0.2586 0.3003 -1.9856 -0.830 0.424 0.363 79 56 25 0 0
-0.2602 0.3011 -1.9903 -0.776 0.456 0.435 76 54 26 0 0
-0.2740 0.3073 -2.0091 -0.693 0.712 0.113 68 46 22 0 0
-0.3184 0.3290 -2.1285 -0.819 0.231 0.525 81 57 21 0 0
-0.3988 0.3652 -2.2403 -0.837 0.358 0.413 97 75 35 0 0
0.0846 0.1366 -1.0288 -0.825 0.394 -0.406 74 54 29 0 0
0.0980 0.1326 -1.0739 -0.899 0.434 -0.067 36 29 23 0 0
0.0984 0.1326 -1.0792 -0.899 0.434 -0.067 37 30 23 0 0
0.0988 0.1326 -1.0844 -0.899 0.434 -0.067 35 28 20 0 0
0.0977 0.1333 -1.0942 -0.955 0.243 0.171 26 19 13 0 0
0.0950 0.1350 -1.1136 -0.807 0.500 0.313 52 34 15 0 0
0.0938 0.1356 -1.1183 -0.791 0.515 0.330 68 50 26 0 0
0.0718 0.1464 -1.1766 -0.757 0.475 0.449 106 83 50 0 0
-0.0109 0.1816 -1.2294 -0.105 0.915 0.390 119 96 58 0 0
0.0212 0.1723 -1.3488 -0.138 0.441 0.887 107 88 58 0 0
0.0139 0.1753 -1.3507 -0.155 0.577 0.802 114 95 65 0 0
-0.1397 0.2425 -1.5064 -0.859 0.412 0.305 151 122 81 0 0
-0.1494 0.2466 -1.5117 -0.716 0.253 0.651 77 53 25 0 0
-0.1536 0.2484 -1.5147 -0.711 0.218 0.668 76 52 26 0 0
-0.1381 0.2430 -1.5451 -0.739 0.347 0.577 68 44 18 0 0
-0.2450 0.2883 -1.6052 -0.264 0.286 0.921 159 135 88 0 0
-0.2406 0.2969 -1.9389 -0.786 0.563 0.256 73 51 26 0 0
-0.3168 0.3337 -2.1281 -0.819 0.231 0.525 83 59 23 0 0
-0.3236 0.3368 -2.1406 -0.649 0.523 0.553 81 57 21 0 0
-0.3231 0.3368 -2.1470 -0.842 0.307 0.443 82 58 23 0 0
-0.4024 0.3721 -2.2474 -0.702 0.279 0.655 103 83 48 0 0
-0.4051 0.3733 -2.2510 -0.794 0.595 -0.124 104 89 63 0 0
0.0479 0.1621 -1.2021 -0.491 0.556 0.671 180 153 110 0 0
-0.0052 0.1849 -1.2413 -0.228 0.890 0.395 117 96 66 0 0
-0.1413 0.2484 -1.5098 -0.806 0.519 0.283 83 60 26 0 0
-0.1445 0.2498 -1.5133 -0.486 0.854 0.184 76 53 24 0 0
-0.1331 0.2461 -1.5413 -0.633 0.250 0.732 74 51 25 0 0
-0.1355 0.2472 -1.5454 -0.581 0.325 0.746 71 47 20 0 0
-0.1539 0.2553 -1.5672 -0.654 0.269 0.708 46 31 13 0 0
-0.1546 0.2558 -1.5722 -0.681 0.623 0.384 56 36 16 0 0
-0.1608 0.2585 -1.5794 -0.533 0.555 0.639 99 77 45 0 0
-0.2445 0.3051 -1.9815 -0.939 0.261 0.225 84 62 31 0 0
-0.3147 0.3381 -2.1282 -0.740 0.477 0.475 81 57 22 0 0
-0.3208 0.3410 -2.1412 -0.649 0.523 0.553 83 59 23 0 0
-0.3219 0.3416 -2.1463 -0.564 0.622 0.543 84 60 25 0 0
0.1455 0.1187 -0.9136 0.145 0.628 0.765 177 176 178 0 0
0.0979 0.1447 -1.1233 -0.781 0.526 0.336 61 43 17 0 0
0.0940 0.1469 -1.1424 -0.772 0.547 0.323 85 67 37 0 0
0.0515 0.1660 -1.2026 -0.491 0.556 0.671 113 93 61 0 0
0.0050 0.1859 -1.2397 -0.076 0.846 0.528 98 81 57 0 0
0.0014 0.1874 -1.2433 -0.228 0.890 0.395 115 99 75 0 0
-0.1337 0.2504 -1.5075 -0.966 0.196 0.171 129 103 65 0 0
-0.1304 0.2493 -1.5147 -0.805 0.572 -0.154 83 60 27 0 0
-0.1399 0.2532 -1.5148 -0.792 0.131 0.596 77 54 23 0 0
-0.1420 0.2541 -1.5189 -0.764 0.468 0.444 76 52 25 0 0
-0.1299 0.2500 -1.5420 -0.532 0.518 0.670 70 48 23 0 0
-0.1367 0.2530 -1.5489 -0.507 0.431 0.746 118 91 46 0 0
-0.1533 0.2601 -1.5609 -0.764 0.503 0.403 42 24 3 0 0
-0.1520 0.2597 -1.5671 -0.714 0.246 0.655 36 21 6 0 0
-0.1512 0.2596 -1.5730 -0.803 0.555 0.216 59 38 17 0 0
-0.1546 0.2611 -1.5764 -0.842 0.449 0.298 75 54 24 0 0
-0.2095 0.2839 -1.5976 -0.252 0.327 0.911 141 121 84 0 0
-0.1995 0.2843 -1.7359 -0.840 0.538 -0.071 106 83 49 0 0
-0.1915 0.2825 -1.7807 -0.572 0.710 0.411 92 72 36 0 0
-0.1879 0.2815 -1.7945 -0.841 0.336 0.425 111 87 51 0 0
-0.1921 0.2835 -1.8030 -0.902 0.235 0.363 126 104 67 0 0
-0.1937 0.2843 -1.8076 -0.902 0.235 0.363 95 75 43 0 0
-0.2638 0.3203 -2.0480 -0.331 0.609 0.721 122 96 60 0 0
-0.3177 0.3451 -2.1420 -0.718 0.478 0.506 83 59 25 0 0
-0.3196 0.3460 -2.1465 -0.764 0.315 0.563 84 60 26 0 0
-0.3214 0.3468 -2.1510 -0.815 0.363 0.452 86 62 28 0 0
-0.3381 0.3541 -2.1670 -0.809 0.299 0.506 86 62 28 0 0
-0.3841 0.3751 -2.2421 -0.788 0.564 0.245 97 73 32 0 0
-0.3937 0.3798 -2.2702 -0.762 0.583 0.281 178 180 176 0 0
0.0127 0.1881 -1.2421 -0.076 0.846 0.528 97 85 68 0 0
-0.1320 0.2549 -1.5073 -0.899 0.225 0.375 105 79 42 0 0
-0.1242 0.2521 -1.5171 -0.744 0.607 -0.281 81 58 26 0 0
-0.1253 0.2527 -1.5218 -0.771 0.610 -0.184 79 56 25 0 0
-0.1271 0.2539 -1.5370 -0.572 0.329 0.752 71 50 25 0 0
-0.1310 0.2558 -1.5455 -0.544 0.433 0.718 78 56 22 0 0
-0.1412 0.2602 -1.5559 -0.544 0.433 0.718 149 117 73 0 0
-0.1517 0.2645 -1.5607 -0.515 0.646 0.564 58 39 15 0 0
-0.2519 0.3067 -1.6186 -0.487 0.780 0.393 77 58 23 0 0
-0.1968 0.2885 -1.7363 -0.840 0.538 -0.071 105 82 48 0 0
-0.1904 0.2883 -1.8085 -0.855 0.367 0.367 86 66 34 0 0
-0.3115 0.3476 -2.1334 -0.738 0.501 0.452 81 57 23 0 0
-0.3135 0.3485 -2.1378 -0.738 0.501 0.452 81 57 23 0 0
-0.3155 0.3495 -2.1421 -0.738 0.501 0.452 81 57 23 0 0
-0.3177 0.3505 -2.1463 -0.691 0.368 0.623 82 58 24 0 0
-0.3241 0.3533 -2.1530 -0.538 0.422 0.730 84 60 26 0 0
-0.3305 0.3563 -2.1657 -0.711 0.293 0.639 85 61 27 0 0
-0.3332 0.3575 -2.1694 -0.711 0.293 0.639 86 62 28 0 0
-0.3363 0.3588 -2.1729 -0.872 0.231 0.431 86 62 28 0 0
-0.3382 0.3597 -2.1773 -0.872 0.231 0.431 87 63 29 0 0
-0.3738 0.3762 -2.2434 -0.858 0.405 0.316 98 75 34 0 0
-0.3896 0.3833 -2.2659 -0.643 0.766 0.002 159 158 150 0 0
-0.3850 0.3818 -2.2764 -0.726 0.418 0.546 183 184 182 0 0
-0.1296 0.2589 -1.5022 -0.219 0.416 0.882 153 127 80 0 0
-0.1213 0.2561 -1.5175 -0.310 0.946 0.097 83 60 28 0 0
-0.1302 0.2602 -1.5340 -0.762 0.629 0.154 70 49 23 0 0
-0.1351 0.2628 -1.5529 -0.544 0.433 0.718 162 132 76 0 0
-0.1524 0.2701 -1.5645 -0.502 0.365 0.784 67 46 18 0 0
-0.1555 0.2715 -1.5681 -0.530 0.608 0.591 71 52 22 0 0
-0.1618 0.2743 -1.5752 -0.501 0.562 0.659 125 101 66 0 0
-0.1643 0.2754 -1.5791 -0.449 0.673 0.588 86 63 31 0 0
-0.1879 0.2925 -1.8088 -0.767 0.405 0.497 81 60 29 0 0
-0.2394 0.3181 -1.9570 -0.722 0.579 0.379 85 64 32 0 0
-0.3055 0.3504 -2.1307 -0.666 0.621 0.412 79 55 21 0 0
-0.3099 0.3522 -2.1331 -0.660 0.425 0.620 78 54 20 0 0
-0.3129 0.3537 -2.1426 -0.723 0.024 0.690 80 56 22 0 0
-0.3681 0.3789 -2.2345 -0.934 0.231 0.273 97 74 33 0 0
-0.3718 0.3807 -2.2434 -0.826 0.372 0.423 97 74 33 0 0
-0.3769 0.3828 -2.2449 -0.690 0.694 0.207 95 73 31 0 0
-0.3845 0.3866 -2.2688 -0.642 0.767 -0.012 166 166 161 0 0
0.1446 0.1352 -0.9310 0.186 0.769 0.612 173 171 170 0 0
0.0031 0.2071 -1.3831 -0.237 0.755 0.612 108 90 61 0 0
-0.1217 0.2621 -1.5377 -0.658 0.519 0.546 72 51 26 0 0
-0.1254 0.2639 -1.5464 -0.570 0.461 0.681 127 105 60 0 0
-0.1284 0.2652 -1.5501 -0.592 0.552 0.588 168 143 92 0 0
-0.2788 0.3445 -2.1150 -0.887 0.443 0.129 89 66 31 0 0
-0.3692 0.3849 -2.2439 -0.754 0.417 0.507 94 71 30 0 0
-0.3807 0.3906 -2.2765 -0.580 0.794 0.183 191 191 191 0 0
0.1250 0.1577 -1.2034 -0.318 0.436 0.842 171 165 158 0 0
0.0596 0.1847 -1.2337 0.007 0.815 0.580 148 145 136 0 0
0.0545 0.1868 -1.2367 0.025 0.790 0.612 173 170 163 0 0
0.0500 0.1887 -1.2400 -0.043 0.813 0.581 193 192 188 0 0
-0.0371 0.2289 -1.3995 -0.254 0.474 0.843 154 129 93 0 0
-0.0399 0.2302 -1.4034 -0.567 0.584 0.581 156 130 88 0 0
-0.0447 0.2323 -1.4116 -0.912 0.404 0.068 165 136 94 0 0
-0.0465 0.2332 -1.4160 -0.553 0.625 0.550 148 121 81 0 0
-0.1140 0.2642 -1.5355 -0.735 0.571 0.365 77 54 28 0 0
-0.1173 0.2656 -1.5390 -0.619 0.647 0.445 76 54 28 0 0
-0.1191 0.2665 -1.5434 -0.607 0.555 0.570 99 75 40 0 0
-0.1419 0.2764 -1.5682 -0.377 0.859 0.348 77 54 25 0 0
-0.2465 0.3337 -2.0192 -0.839 -0.024 0.544 74 54 30 0 0
-0.2750 0.3486 -2.1224 -0.922 0.339 -0.186 78 55 21 0 0
-0.3670 0.3893 -2.2440 -0.803 0.318 0.503 93 70 29 0 0
-0.3695 0.3905 -2.2478 -0.688 0.580 0.437 91 67 29 0 0
-0.3756 0.3935 -2.2670 -0.556 0.783 0.279 152 148 138 0 0
-0.3791 0.3950 -2.2699 -0.447 0.713 0.540 179 181 178 0 0
-0.3901 0.3997 -2.2782 -0.925 0.023 0.379 204 204 206 0 0
0.1477 0.1449 -0.9455 0.029 0.933 0.359 176 175 173 0 0
0.1308 0.1608 -1.2049 -0.394 0.269 0.879 189 188 190 0 0
0.1267 0.1625 -1.2085 -0.337 0.372 0.865 190 189 190 0 0
-0.0352 0.2335 -1.4047 -0.455 0.369 0.811 140 114 75 0 0
-0.0425 0.2365 -1.4063 -0.947 0.297 0.120 147 121 83 0 0
-0.0430 0.2369 -1.4114 -0.947 0.297 0.120 132 107 68 0 0
-0.0429 0.2370 -1.4168 -0.553 0.625 0.550 159 131 91 0 0
-0.0956 0.2613 -1.5122 -0.785 0.405 0.469 150 121 82 0 0
-0.1148 0.2694 -1.5285 -0.639 0.047 0.768 82 59 29 0 0
-0.1885 0.3100 -1.8500 -0.754 0.353 0.555 95 75 42 0 0
-0.3666 0.3946 -2.2487 -0.688 0.580 0.437 97 74 36 0 0
-0.4180 0.4156 -2.2687 -0.081 -0.420 0.904 209 209 209 0 0
0.1554 0.1473 -0.9522 -0.040 0.970 0.241 176 177 177 0 0
0.1548 0.1477 -0.9569 -0.075 0.981 0.180 176 177 176 0 0
0.1456 0.1591 -1.1731 -0.163 0.982 0.095 87 80 68 0 0
0.1461 0.1597 -1.1943 -0.319 0.947 -0.036 185 185 186 0 0
0.0563 0.2020 -1.3842 -0.249 0.249 0.936 105 88 62 0 0
-0.0325 0.2377 -1.4050 -0.455 0.369 0.811 133 106 72 0 0
-0.0404 0.2408 -1.4064 -0.896 0.394 0.205 132 107 74 0 0
-0.1079 0.2712 -1.5096 -0.566 0.236 0.789 87 64 32 0 0
-0.1117 0.2728 -1.5129 -0.777 0.441 0.449 94 70 35 0 0
-0.1089 0.2719 -1.5198 -0.278 0.842 0.462 90 68 32 0 0
-0.1132 0.2739 -1.5282 -0.754 0.392 0.527 89 66 35 0 0
-0.4084 0.4169 -2.2635 -0.204 -0.460 0.864 207 207 209 0 0
0.1650 0.1490 -0.9596 -0.075 0.981 0.180 178 178 180 0 0
0.1539 0.1621 -1.1966 -0.298 0.951 -0.086 188 189 191 0 0
0.1546 0.1620 -1.2022 -0.245 0.970 0.005 188 189 191 0 0
0.1379 0.1685 -1.2007 -0.608 -0.043 0.792 189 190 192 0 0
0.1375 0.1689 -1.2058 -0.421 -0.201 0.885 189 190 192 0 0
-0.0129 0.2353 -1.4084 -0.363 0.724 0.586 122 97 65 0 0
-0.0161 0.2367 -1.4122 -0.363 0.724 0.586 123 100 64 0 0
-0.0325 0.2430 -1.4093 -0.705 0.638 0.311 126 104 68 0 0
-0.0362 0.2447 -1.4127 -0.885 0.307 0.351 125 103 66 0 0
-0.1008 0.2735 -1.5070 -0.500 0.539 0.678 119 93 56 0 0
-0.1046 0.2751 -1.5103 -0.408 0.556 0.724 92 70 39 0 0
-0.1000 0.2740 -1.5290 -0.470 0.032 0.882 83 62 31 0 0
-0.2285 0.3284 -1.6365 -0.588 0.719 0.371 102 82 49 0 0
-0.2434 0.3500 -2.0645 -0.815 0.419 0.399 76 57 27 0 0
-0.2478 0.3525 -2.0851 -0.795 0.387 0.467 53 37 11 0 0
-0.2478 0.3527 -2.0911 -0.878 0.402 0.258 69 57 32 0 0
0.1798 0.1495 -0.9887 0.127 0.977 0.174 177 178 179 0 0
0.1775 0.1506 -0.9930 0.127 0.977 0.174 177 178 179 0 0
0.1727 0.1529 -1.0065 0.002 0.999 0.054 175 173 175 0 0
0.1279 0.1786 -1.2220 -0.454 0.808 0.376 192 193 195 0 0
0.1255 0.1796 -1.2264 -0.464 0.810 0.358 192 193 195 0 0
0.1237 0.1805 -1.2308 -0.464 0.810 0.358 193 194 196 0 0
0.1218 0.1814 -1.2353 -0.464 0.810 0.358 193 194 196 0 0
0.1199 0.1823 -1.2398 -0.464 0.810 0.358 194 195 197 0 0
-0.0305 0.2477 -1.4146 -0.595 0.552 0.584 124 102 64 0 0
-0.0337 0.2491 -1.4183 -0.622 0.382 0.684 126 104 66 0 0
-0.0425 0.2527 -1.4245 -0.571 0.475 0.670 122 97 65 0 0
-0.0742 0.2665 -1.4613 -0.586 0.780 0.219 124 100 59 0 0
-0.0969 0.2780 -1.5296 -0.369 0.703 0.608 74 51 25 0 0
-0.0952 0.2779 -1.5468 -0.572 0.577 0.583 159 137 85 0 0
-0.2263 0.3328 -1.6420 -0.642 0.630 0.437 98 77 46 0 0
-0.1576 0.3130 -1.8324 -0.962 0.058 0.265 102 82 50 0 0
-0.2067 0.3377 -1.9781 -0.631 0.532 0.566 85 64 35 0 0
-0.2139 0.3414 -2.0023 -0.706 0.521 0.480 64 42 18 0 0
-0.2946 0.3793 -2.1719 -0.788 0.513 0.341 83 59 25 0 0
-0.2962 0.3801 -2.1767 -0.829 0.416 0.373 84 59 27 0 0
-0.2997 0.3816 -2.1797 -0.761 0.639 0.114 84 60 26 0 0
-0.3528 0.4061 -2.2804 -0.637 0.763 -0.107 185 185 184 0 0
0.1864 0.1526 -1.0003 0.001 0.997 0.077 178 179 181 0 0
0.1859 0.1530 -1.0052 0.001 0.997 0.077 178 179 183 0 0
0.1795 0.1613 -1.1576 -0.037 0.997 0.063 183 185 186 0 0
0.1687 0.1671 -1.2008 -0.319 0.947 -0.036 188 189 191 0 0
-0.0125 0.2462 -1.4226 -0.101 0.548 0.830 118 95 63 0 0
-0.0354 0.2555 -1.4324 -0.367 0.752 0.548 118 96 61 0 0
-0.0945 0.2822 -1.5298 -0.618 0.784 0.057 83 58 34 0 0
-0.0920 0.2819 -1.5475 -0.588 0.466 0.661 196 170 117 0 0
-0.1112 0.2904 -1.5746 -0.337 0.758 0.559 125 101 64 0 0
-0.2231 0.3366 -1.6428 -0.601 0.561 0.569 100 79 48 0 0
-0.1527 0.3147 -1.7885 -0.678 0.430 0.596 104 81 47 0 0
-0.1527 0.3165 -1.8343 -0.933 0.353 0.069 100 80 48 0 0
-0.1703 0.3246 -1.8684 -0.664 0.646 0.377 97 76 46 0 0
-0.2085 0.3443 -1.9929 -0.877 0.417 0.238 79 58 31 0 0
-0.2081 0.3444 -1.9992 -0.806 0.533 0.256 78 56 31 0 0
-0.2250 0.3527 -2.0458 -0.369 0.692 0.621 125 102 67 0 0
-0.2572 0.3680 -2.1163 -0.776 0.567 0.276 84 61 27 0 0
-0.3015 0.3875 -2.1764 -0.826 0.523 0.210 84 60 26 0 0
-0.3310 0.4010 -2.2302 -0.740 0.103 0.665 94 70 32 0 0
-0.3270 0.3999 -2.2399 -0.990 0.138 0.002 93 69 31 0 0
0.1937 0.1571 -1.0530 0.074 0.989 0.129 179 180 183 0 0
0.1923 0.1616 -1.1564 -0.039 0.998 0.045 184 186 187 0 0
0.1919 0.1620 -1.1615 -0.039 0.998 0.058 185 186 188 0 0
0.0228 0.2369 -1.4015 -0.499 0.531 0.685 101 84 59 0 0
0.0203 0.2380 -1.4057 -0.616 0.597 0.514 100 83 58 0 0
-0.0855 0.2844 -1.5445 -0.838 0.327 0.437 169 138 94 0 0
-0.0888 0.2859 -1.5481 -0.624 0.486 0.611 179 149 101 0 0
-0.1447 0.3179 -1.8154 -0.661 0.592 0.461 75 55 23 0 0
-0.1472 0.3193 -1.8251 -0.997 0.068 0.030 103 82 49 0 0
-0.1510 0.3211 -1.8341 -0.933 0.353 0.069 105 84 53 0 0
-0.1726 0.3323 -1.9060 -0.913 0.402 0.072 95 74 43 0 0
-0.1747 0.3333 -1.9104 -0.942 0.252 0.223 93 74 42 0 0
-0.1830 0.3374 -1.9336 -0.681 0.396 0.616 84 63 33 0 0
-0.2065 0.3488 -1.9929 -0.878 0.373 0.300 79 58 31 0 0
-0.2064 0.3490 -1.9988 -0.863 0.366 0.348 78 57 31 0 0
-0.2361 0.3636 -2.0774 -0.643 0.658 0.391 79 63 30 0 0
-0.2541 0.3719 -2.1111 -0.720 0.386 0.577 85 63 29 0 0
-0.3007 0.3929 -2.1875 -0.748 0.620 0.236 84 62 25 0 0
-0.3020 0.3936 -2.1925 -0.605 0.664 0.440 86 63 27 0 0
-0.3230 0.4029 -2.2232 -0.215 0.398 0.892 95 71 33 0 0
-0.3291 0.4056 -2.2301 -0.730 0.359 0.581 92 68 30 0 0
-0.3269 0.4050 -2.2382 -0.855 0.513 -0.075 93 69 31 0 0
-0.3272 0.4054 -2.2441 -0.862 0.434 0.262 95 71 33 0 0
-0.3461 0.4140 -2.2765 -0.721 0.684 -0.109 177 177 176 0 0
0.2000 0.1606 -1.0698 -0.055 0.997 0.051 180 181 183 0 0
0.0303 0.2394 -1.4042 -0.359 0.531 0.768 99 81 57 0 0
-0.0255 0.2624 -1.4407 -0.211 0.742 0.637 106 85 54 0 0
-0.0273 0.2633 -1.4451 -0.152 0.891 0.428 103 82 53 0 0
-0.0840 0.2882 -1.5225 -0.225 0.931 0.287 92 72 42 0 0
-0.0755 0.2855 -1.5381 -0.765 0.643 0.015 81 59 30 0 0
-0.0933 0.2935 -1.5662 -0.429 0.864 0.263 102 79 42 0 0
-0.1393 0.3210 -1.8118 -0.574 0.729 0.373 88 69 39 0 0
-0.1409 0.3218 -1.8165 -0.622 0.669 0.407 95 76 44 0 0
-0.2045 0.3536 -1.9987 -0.884 0.208 0.419 78 57 30 0 0
-0.3252 0.4096 -2.2378 -0.942 0.330 0.057 94 71 33 0 0
-0.3327 0.4125 -2.2373 -0.810 0.184 0.556 98 74 36 0 0
0.1228 0.2097 -1.4209 0.111 0.666 0.738 107 91 72 0 0
-0.1240 0.3187 -1.7691 -0.768 0.341 0.542 106 84 53 0 0
-0.1332 0.3238 -1.8087 -0.510 0.799 0.318 96 77 47 0 0
-0.1363 0.3252 -1.8124 -0.495 0.589 0.638 89 70 38 0 0
-0.1419 0.3276 -1.8201 -0.769 0.496 0.402 105 85 53 0 0
-0.1438 0.3295 -1.8477 -0.254 0.700 0.667 102 82 49 0 0
-0.1459 0.3304 -1.8520 -0.444 0.612 0.655 109 89 56 0 0
-0.3024 0.4052 -2.2130 -0.883 0.275 0.381 92 70 31 0 0
0.1356 0.2105 -1.4259 -0.132 0.599 0.790 117 103 87 0 0
-0.1099 0.3113 -1.5924 -0.421 0.702 0.575 89 73 51 0 0
-0.2042 0.3496 -1.6441 -0.580 0.738 0.344 102 80 52 0 0
-0.1223 0.3233 -1.7688 -0.498 0.481 0.722 112 89 56 0 0
-0.1412 0.3340 -1.8538 -0.426 0.544 0.723 112 92 60 0 0
-0.3076 0.4127 -2.2190 -0.530 0.395 0.750 92 69 28 0 0
-0.3404 0.4273 -2.2698 -0.763 0.443 0.470 177 178 175 0 0
0.1212 0.2220 -1.4401 -0.484 0.711 0.510 104 88 64 0 0
-0.1983 0.3523 -1.6411 -0.778 0.610 0.151 98 77 48 0 0
-0.2012 0.3535 -1.6448 -0.604 0.641 0.474 96 74 47 0 0
-0.1360 0.3374 -1.8559 -0.475 0.693 0.542 110 89 58 0 0
-0.1519 0.3459 -1.9148 -0.453 0.768 0.452 103 82 53 0 0
-0.2047 0.3723 -2.0655 -0.771 0.578 0.267 86 65 36 0 0
-0.2233 0.3806 -2.0930 -0.556 0.373 0.743 116 94 56 0 0
-0.2325 0.3848 -2.1098 -0.633 0.595 0.495 92 72 40 0 0
-0.2337 0.3854 -2.1148 -0.735 0.581 0.350 86 65 34 0 0
-0.3354 0.4305 -2.2662 -0.678 0.642 0.358 165 161 151 0 0
-0.1944 0.3559 -1.6423 -0.640 0.765 0.068 93 73 47 0 0
-0.1319 0.3412 -1.8573 -0.475 0.693 0.542 113 92 61 0 0
-0.1380 0.3448 -1.8880 -0.725 0.682 -0.095 105 84 53 0 0
-0.1554 0.3534 -1.9343 -0.776 0.283 0.564 96 75 44 0 0
-0.1697 0.3621 -2.0128 -0.623 0.438 0.648 86 67 36 0 0
-0.2066 0.3782 -2.0623 -0.676 0.145 0.723 85 64 35 0 0
-0.2200 0.3847 -2.0939 -0.455 0.350 0.819 136 113 72 0 0
-0.2292 0.3889 -2.1108 -0.923 0.309 0.228 88 67 36 0 0
-0.2972 0.4190 -2.2121 -0.900 0.358 0.249 91 69 30 0 0
-0.2980 0.4195 -2.2176 -0.935 0.280 0.218 92 70 30 0 0
-0.2991 0.4202 -2.2228 -0.935 0.280 0.218 92 70 29 0 0
-0.3179 0.4282 -2.2431 -0.625 0.583 0.519 95 73 32 0 0
-0.3249 0.4314 -2.2553 -0.433 0.726 0.535 100 79 41 0 0
-0.3276 0.4325 -2.2591 -0.433 0.726 0.535 105 89 61 0 0
-0.3298 0.4335 -2.2633 -0.514 0.725 0.458 139 132 116 0 0
-0.3321 0.4346 -2.2674 -0.536 0.753 0.381 173 172 165 0 0
0.1427 0.2252 -1.4540 -0.990 -0.018 -0.140 110 94 79 0 0
0.1394 0.2269 -1.4635 -0.948 -0.065 -0.313 101 84 65 0 0
-0.1268 0.3451 -1.8710 -0.441 0.759 0.479 114 93 62 0 0
-0.1267 0.3454 -1.8769 -0.620 0.546 0.564 116 95 64 0 0
-0.1293 0.3465 -1.8809 -0.597 0.560 0.575 114 93 62 0 0
-0.1508 0.3568 -1.9302 -0.744 0.276 0.608 97 76 45 0 0
-0.1508 0.3578 -1.9538 -0.758 0.619 0.206 94 73 42 0 0
-0.1871 0.3757 -2.0518 -0.293 0.890 0.350 83 62 32 0 0
-0.1889 0.3766 -2.0565 -0.420 0.902 0.103 77 57 27 0 0
-0.1894 0.3770 -2.0621 -0.420 0.902 0.103 78 57 28 0 0
-0.2217 0.3910 -2.1030 -0.809 0.587 0.017 136 109 73 0 0
-0.2970 0.4247 -2.2228 -0.896 0.415 0.156 92 70 29 0 0
-0.3114 0.4309 -2.2409 -0.856 0.415 0.309 93 71 30 0 0
-0.3130 0.4317 -2.2456 -0.811 0.475 0.341 96 74 33 0 0
-0.3222 0.4359 -2.2620 -0.381 0.811 0.444 117 105 82 0 0
-0.3262 0.4375 -2.2646 -0.206 0.496 0.843 155 150 141 0 0
0.1478 0.2293 -1.4666 -0.929 -0.351 -0.117 108 96 79 0 0
0.1419 0.2316 -1.4692 -0.953 -0.304 0.018 105 91 73 0 0
0.1206 0.2395 -1.4642 -0.265 0.930 0.256 105 91 72 0 0
0.1203 0.2398 -1.4697 -0.526 0.828 0.193 103 88 67 0 0
-0.1150 0.3440 -1.8254 -0.826 0.142 0.546 109 89 56 0 0
-0.1176 0.3452 -1.8294 -0.852 0.171 0.494 113 92 59 0 0
-0.1167 0.3456 -1.8474 -0.588 0.801 -0.109 113 93 61 0 0
-0.1190 0.3467 -1.8517 -0.547 0.837 0.016 118 98 66 0 0
-0.1188 0.3469 -1.8576 -0.547 0.837 0.016 122 102 70 0 0
-0.1232 0.3494 -1.8779 -0.603 0.515 0.609 117 96 66 0 0
-0.1260 0.3506 -1.8817 -0.603 0.515 0.609 112 91 61 0 0
-0.1289 0.3519 -1.8856 -0.532 0.717 0.450 111 90 60 0 0
-0.1297 0.3524 -1.8909 -0.718 0.676 0.163 107 86 55 0 0
-0.1377 0.3575 -1.9381 -0.423 0.403 0.811 97 76 45 0 0
-0.1433 0.3604 -1.9577 -0.847 0.451 0.280 91 70 41 0 0
-0.1486 0.3625 -1.9598 -0.758 0.619 0.206 100 79 50 0 0
-0.1544 0.3658 -1.9852 -0.585 0.672 0.454 101 80 50 0 0
-0.1566 0.3668 -1.9895 -0.585 0.672 0.454 101 80 49 0 0
-0.1622 0.3698 -2.0092 -0.886 0.450 -0.113 93 72 41 0 0
-0.1863 0.3807 -2.0508 -0.328 0.553 0.766 88 68 36 0 0
-0.1903 0.3823 -2.0537 -0.328 0.553 0.766 81 62 31 0 0
-0.3090 0.4353 -2.2412 -0.811 0.475 0.341 92 72 30 0 0
-0.3105 0.4360 -2.2460 -0.811 0.475 0.341 95 75 34 0 0
-0.3230 0.4416 -2.2657 -0.105 0.421 0.901 167 165 160 0 0
0.1454 0.2358 -1.4699 -0.886 -0.463 0.001 109 97 83 0 0
-0.1364 0.3478 -1.6088 -0.194 0.101 0.976 142 119 78 0 0
-0.1411 0.3497 -1.6114 -0.309 0.369 0.877 149 124 85 0 0
-0.0786 0.3328 -1.7617 -0.719 0.544 -0.434 111 91 62 0 0
-0.0998 0.3432 -1.8168 -0.774 0.572 0.271 111 91 60 0 0
-0.1205 0.3537 -1.8783 -0.734 0.399 0.549 119 98 69 0 0
-0.1280 0.3589 -1.9317 -0.580 0.782 0.229 94 73 42 0 0
-0.1517 0.3704 -1.9916 -0.505 0.707 0.496 97 76 45 0 0
-0.1505 0.3703 -1.9985 -0.625 0.742 0.243 93 72 41 0 0
-0.1543 0.3721 -2.0076 -0.762 0.571 0.305 95 74 43 0 0
-0.2086 0.3968 -2.1040 -0.677 0.648 -0.349 141 116 73 0 0
-0.0167 0.3060 -1.5615 -0.297 0.937 0.184 103 82 55 0 0
-0.0423 0.3164 -1.5802 -0.145 0.686 0.713 73 55 32 0 0
-0.1373 0.3534 -1.6124 -0.546 0.114 0.830 143 118 79 0 0
-0.0774 0.3382 -1.7726 -0.541 0.786 0.297 128 103 61 0 0
-0.0784 0.3388 -1.7776 -0.389 0.034 0.921 130 105 66 0 0
-0.0841 0.3423 -1.8085 -0.505 0.669 0.545 93 77 54 0 0
-0.0882 0.3440 -1.8116 -0.432 0.528 0.731 86 70 46 0 0
-0.0915 0.3454 -1.8151 -0.513 0.445 0.734 102 85 57 0 0
-0.0975 0.3477 -1.8169 -0.847 0.458 0.271 107 87 56 0 0
-0.1018 0.3497 -1.8256 -0.628 0.444 0.639 103 84 53 0 0
-0.1148 0.3573 -1.8866 -0.380 0.820 0.428 112 93 63 0 0
-0.1483 0.3745 -1.9925 -0.506 0.740 0.442 87 66 35 0 0
-0.2138 0.4059 -2.1469 -0.753 0.579 -0.313 86 63 32 0 0
-0.2097 0.4048 -2.1563 -0.413 0.786 0.459 85 62 31 0 0
-0.2567 0.4251 -2.2153 -0.632 0.389 0.670 89 67 30 0 0
-0.3395 0.4588 -2.2779 -0.411 -0.307 0.858 207 207 209 0 0
0.1213 0.2555 -1.4669 -0.771 -0.628 -0.099 130 126 123 0 0
-0.0099 0.3089 -1.5640 -0.365 0.891 0.270 100 79 50 0 0
-0.0183 0.3123 -1.5704 -0.136 0.469 0.873 101 79 49 0 0
-0.0658 0.3389 -1.7672 -0.973 0.197 -0.120 109 92 62 0 0
-0.0807 0.3464 -1.8093 -0.525 0.844 0.111 90 74 54 0 0
-0.0854 0.3482 -1.8120 -0.402 0.659 0.636 92 77 52 0 0
-0.0951 0.3523 -1.8229 -0.474 0.762 0.441 110 89 61 0 0
-0.1096 0.3608 -1.8887 -0.380 0.820 0.428 113 94 64 0 0
-0.1262 0.3701 -1.9596 -0.367 0.897 0.247 105 85 56 0 0
-0.1514 0.3838 -2.0547 -0.334 0.933 -0.134 115 92 59 0 0
-0.1916 0.4024 -2.1326 -0.935 -0.089 0.344 91 69 32 0 0
-0.1890 0.4018 -2.1409 -0.957 -0.144 0.252 91 68 34 0 0
-0.1986 0.4053 -2.1392 -0.714 0.652 0.255 91 68 34 0 0
-0.2029 0.4084 -2.1725 -0.961 0.214 0.172 87 64 30 0 0
-0.2045 0.4092 -2.1773 -0.868 0.371 0.330 86 64 27 0 0
-0.3104 0.4529 -2.2714 -0.409 0.734 0.542 189 189 191 0 0
0.1128 0.2641 -1.4671 -0.731 -0.681 -0.029 196 196 197 0 0
0.1235 0.2614 -1.4947 -0.884 -0.126 -0.450 102 90 78 0 0
-0.0005 0.3103 -1.5570 -0.739 0.571 0.358 104 84 58 0 0
-0.0047 0.3120 -1.5602 -0.489 0.663 0.566 104 83 54 0 0
-0.0966 0.3608 -1.8787 -0.411 0.877 0.248 122 103 73 0 0
-0.0979 0.3615 -1.8836 -0.524 0.845 0.108 121 101 73 0 0
-0.1030 0.3646 -1.9094 -0.595 0.561 0.576 109 88 57 0 0
-0.1081 0.3677 -1.9354 -0.801 0.598 0.013 105 84 53 0 0
-0.1659 0.3946 -2.0540 -0.002 0.667 0.745 95 75 42 0 0
-0.1840 0.4045 -2.1248 -0.450 0.859 -0.242 94 72 35 0 0
-0.1922 0.4076 -2.1243 -0.561 0.184 0.807 93 71 34 0 0
-0.1884 0.4069 -2.1396 -0.234 0.829 0.508 93 71 34 0 0
-0.2016 0.4130 -2.1656 -0.719 0.694 0.033 89 66 33 0 0
-0.3101 0.4589 -2.2884 -0.066 0.064 0.996 204 204 206 0 0
0.0876 0.2805 -1.5031 -0.030 0.871 0.491 109 95 82 0 0
0.0846 0.2818 -1.5071 -0.075 0.955 0.286 112 96 82 0 0
0.0817 0.2830 -1.5112 -0.069 0.941 0.332 105 90 75 0 0
-0.1053 0.3717 -1.9300 -0.535 0.818 0.213 108 87 57 0 0
-0.1058 0.3721 -1.9356 -0.481 0.854 0.199 108 87 57 0 0
-0.1159 0.3789 -1.9998 -0.410 0.910 -0.056 99 80 48 0 0
-0.1162 0.3793 -2.0056 -0.202 0.964 0.172 99 80 50 0 0
-0.1303 0.3860 -2.0372 -0.406 0.145 0.902 99 78 51 0 0
-0.1353 0.3879 -2.0395 -0.585 0.289 0.757 90 69 38 0 0
-0.1413 0.3913 -2.0653 -0.281 0.958 0.063 97 77 44 0 0
-0.1533 0.3956 -2.0621 -0.195 0.808 0.556 96 76 43 0 0
-0.1598 0.3995 -2.0935 -0.547 0.763 0.344 100 81 48 0 0
-0.2650 0.4441 -2.2151 -0.882 0.171 0.439 90 69 27 0 0
0.1001 0.2828 -1.5364 -0.570 0.569 -0.593 125 109 94 0 0
-0.1460 0.3786 -1.6458 -0.995 0.100 0.008 111 91 64 0 0
-0.1150 0.3833 -1.9869 -0.525 0.797 -0.298 101 80 51 0 0
-0.1186 0.3854 -2.0022 -0.863 0.386 -0.326 101 80 51 0 0
-0.1203 0.3862 -2.0070 -0.689 0.725 -0.006 101 80 52 0 0
-0.1252 0.3884 -2.0153 -0.274 0.787 0.553 96 75 47 0 0
-0.1235 0.3881 -2.0227 -0.493 0.837 0.239 100 79 51 0 0
-0.1259 0.3892 -2.0269 -0.442 0.840 0.315 103 82 53 0 0
-0.1207 0.3878 -2.0368 -0.356 0.394 0.847 104 83 54 0 0
-0.1313 0.3916 -2.0349 -0.322 0.740 0.590 96 75 45 0 0
-0.1326 0.3923 -2.0399 -0.543 0.791 0.280 104 84 50 0 0
-0.2123 0.4265 -2.1411 -0.874 0.266 0.407 95 72 38 0 0
-0.2646 0.4494 -2.2198 -0.606 0.314 0.731 95 76 35 0 0
-0.3107 0.4692 -2.2779 -0.816 -0.412 0.406 203 204 206 0 0
-0.1279 0.3754 -1.6119 -0.051 0.545 0.837 141 119 78 0 0
-0.1338 0.3777 -1.6138 -0.092 0.576 0.812 160 137 95 0 0
-0.1446 0.3829 -1.6400 -0.476 0.872 0.111 107 87 59 0 0
-0.1454 0.3834 -1.6449 -0.959 -0.269 0.089 110 91 64 0 0
-0.0927 0.3781 -1.9358 -0.399 0.899 0.179 107 87 60 0 0
-0.1147 0.3900 -2.0155 -0.352 0.910 0.219 97 76 49 0 0
-0.1245 0.3944 -2.0323 -0.375 0.897 0.233 100 79 48 0 0
-0.1338 0.3989 -2.0556 -0.243 0.796 0.554 100 79 51 0 0
-0.1460 0.4055 -2.1009 -0.460 0.396 0.795 103 81 48 0 0
-0.1954 0.4270 -2.1717 -0.910 0.180 0.373 93 71 34 0 0
-0.0510 0.3641 -1.8510 -0.545 0.833 0.094 116 98 76 0 0
-0.0519 0.3646 -1.8563 -0.666 0.641 0.381 116 99 76 0 0
-0.0545 0.3658 -1.8604 -0.308 0.782 0.543 116 98 76 0 0
-0.0555 0.3664 -1.8656 -0.357 0.664 0.658 116 98 75 0 0
-0.0638 0.3720 -1.9190 -0.385 0.200 0.901 111 94 68 0 0
-0.0694 0.3742 -1.9210 -0.377 0.171 0.911 107 90 63 0 0
-0.0705 0.3748 -1.9262 -0.603 0.402 0.690 106 89 61 0 0
-0.0707 0.3752 -1.9320 -0.494 0.255 0.831 106 89 61 0 0
-0.0766 0.3774 -1.9338 -0.610 0.407 0.680 106 89 61 0 0
-0.0871 0.3818 -1.9443 -0.598 0.335 0.729 106 85 58 0 0
-0.0854 0.3818 -1.9574 -0.608 0.416 0.676 108 88 61 0 0
-0.1211 0.3982 -2.0272 -0.860 0.509 0.038 105 84 58 0 0
-0.1212 0.3986 -2.0332 -0.860 0.509 0.038 108 86 55 0 0
-0.1237 0.3997 -2.0374 -0.788 0.599 0.140 135 111 78 0 0
-0.1283 0.4023 -2.0581 -0.243 0.796 0.554 100 79 48 0 0
-0.1390 0.4082 -2.0986 -0.410 0.679 0.609 101 81 44 0 0
-0.1431 0.4099 -2.1015 -0.457 0.560 0.691 136 113 73 0 0
-0.1696 0.4203 -2.1173 -0.284 0.866 0.412 98 77 40 0 0
-0.0024 0.3480 -1.7761 -0.098 0.982 0.158 99 79 50 0 0
-0.0052 0.3493 -1.7801 -0.140 0.974 0.179 99 80 55 0 0
-0.0065 0.3500 -1.7851 -0.140 0.974 0.179 104 86 65 0 0
-0.0476 0.3685 -1.8577 -0.569 0.776 0.272 116 99 77 0 0
-0.0584 0.3756 -1.9212 -0.401 0.809 0.430 107 90 64 0 0
-0.0756 0.3833 -1.9509 -0.219 0.942 0.255 106 85 58 0 0
-0.1084 0.3991 -2.0291 -0.660 0.736 0.153 109 87 62 0 0
-0.1091 0.3996 -2.0346 -0.660 0.736 0.153 106 85 57 0 0
-0.1348 0.4122 -2.1001 -0.410 0.679 0.609 116 94 52 0 0
-0.1385 0.4137 -2.1034 -0.373 0.554 0.745 148 124 78 0 0
-0.3048 0.4824 -2.2714 -0.407 0.049 0.912 204 204 206 0 0
0.0112 0.3483 -1.7716 -0.001 0.828 0.560 97 81 54 0 0
0.0092 0.3495 -1.7820 -0.153 0.988 0.015 95 79 56 0 0
0.0037 0.3516 -1.7844 -0.123 0.992 -0.026 102 87 68 0 0
-0.0528 0.3790 -1.9236 -0.375 0.853 0.363 104 87 61 0 0
-0.0724 0.3881 -1.9636 -0.504 0.776 0.380 107 87 60 0 0
-0.0924 0.3980 -2.0152 -0.584 0.483 0.652 104 83 56 0 0
-0.1056 0.4044 -2.0478 -0.504 0.827 0.250 135 112 82 0 0
-0.1098 0.4063 -2.0568 -0.289 0.922 0.257 102 81 55 0 0
-0.1173 0.4091 -2.0571 -0.390 0.651 0.651 101 80 52 0 0
-0.1124 0.4081 -2.0730 -0.162 0.946 0.281 101 80 49 0 0
-0.1152 0.4099 -2.0892 -0.581 0.756 0.302 100 79 48 0 0
-0.1309 0.4162 -2.1015 -0.520 0.586 0.621 144 119 76 0 0
-0.1612 0.4284 -2.1266 -0.729 0.586 0.352 101 79 42 0 0
-0.2233 0.4560 -2.2295 -0.617 0.422 0.664 99 78 41 0 0
-0.2263 0.4573 -2.2331 -0.617 0.422 0.664 91 71 34 0 0
-0.0731 0.3943 -1.9735 -0.288 0.803 0.522 106 86 59 0 0
-0.0752 0.3953 -1.9780 -0.315 0.910 0.270 106 86 59 0 0
-0.1129 0.4129 -2.0588 -0.825 0.165 0.540 102 81 52 0 0
-0.1093 0.4121 -2.0676 -0.706 0.707 -0.037 102 81 51 0 0
-0.1114 0.4140 -2.0905 -0.327 0.860 0.392 100 79 48 0 0
-0.1598 0.4330 -2.1199 -0.907 0.266 0.326 102 78 42 0 0
-0.1580 0.4327 -2.1275 -0.688 0.451 0.569 101 79 42 0 0
-0.2093 0.4556 -2.2147 -0.638 0.626 0.448 98 79 38 0 0
-0.2123 0.4569 -2.2184 -0.522 0.602 0.604 99 80 40 0 0
-0.2375 0.4667 -2.2341 -0.850 0.207 0.484 92 74 36 0 0
-0.2967 0.4902 -2.2750 -0.251 -0.473 0.844 206 206 208 0 0
-0.0225 0.3795 -1.9356 -0.254 0.772 0.583 104 86 62 0 0
-0.0281 0.3817 -1.9377 -0.343 0.746 0.570 103 85 61 0 0
-0.0882 0.4078 -2.0272 -0.726 0.625 0.287 101 82 55 0 0
-0.0906 0.4089 -2.0315 -0.787 0.522 0.329 99 79 54 0 0
-0.0947 0.4105 -2.0345 -0.720 0.610 0.330 121 97 66 0 0
-0.0962 0.4113 -2.0395 -0.635 0.733 0.245 139 114 79 0 0
-0.0958 0.4115 -2.0458 -0.511 0.812 0.280 121 97 67 0 0
-0.0940 0.4128 -2.0838 -0.797 0.507 0.327 103 82 53 0 0
-0.1583 0.4377 -2.1194 -0.907 0.266 0.326 103 79 44 0 0
-0.1601 0.4386 -2.1241 -0.855 0.317 0.410 103 81 44 0 0
-0.1528 0.4366 -2.1360 -0.620 0.709 0.336 104 82 45 0 0
-0.2001 0.4573 -2.2084 -0.637 0.398 0.661 101 82 43 0 0
-0.2361 0.4715 -2.2334 -0.900 0.124 0.418 91 73 35 0 0
0.1503 0.3058 -1.6002 0.036 0.106 0.994 135 113 82 0 0
-0.0394 0.3743 -1.6127 -0.228 0.257 0.939 106 88 64 0 0
-0.0840 0.4118 -2.0287 -0.843 0.444 0.304 100 81 54 0 0
-0.0866 0.4129 -2.0329 -0.707 0.406 0.579 113 92 66 0 0
-0.1041 0.4226 -2.0989 -0.708 0.645 0.288 90 71 37 0 0
-0.1501 0.4410 -2.1365 -0.866 0.495 0.070 105 83 46 0 0
-0.1599 0.4444 -2.1348 -0.730 0.660 -0.174 105 83 46 0 0
-0.2189 0.4704 -2.2278 -0.648 0.119 0.752 96 77 37 0 0
-0.2202 0.4714 -2.2391 -0.829 0.359 0.430 94 75 35 0 0
-0.2401 0.4796 -2.2592 -0.364 0.689 0.626 93 75 45 0 0
-0.0311 0.3764 -1.6107 -0.207 0.429 0.879 106 90 63 0 0
0.0169 0.3747 -1.9054 -0.585 0.770 0.257 110 96 80 0 0
-0.0162 0.3882 -1.9369 -0.383 0.609 0.695 106 89 69 0 0
-0.0729 0.4132 -2.0293 -0.635 0.707 0.311 98 78 53 0 0
-0.0810 0.4165 -2.0354 -0.303 0.809 0.503 118 97 71 0 0
-0.1046 0.4281 -2.0969 -0.506 0.754 0.419 111 91 58 0 0
-0.1265 0.4376 -2.1289 0.098 0.902 0.421 102 82 48 0 0
-0.1503 0.4464 -2.1346 -0.321 0.945 -0.057 104 83 47 0 0
-0.2172 0.4751 -2.2274 -0.697 0.267 0.666 95 77 36 0 0
-0.2337 0.4828 -2.2630 -0.226 0.446 0.866 95 79 53 0 0
0.0318 0.3590 -1.6064 -0.240 0.191 0.952 96 80 64 0 0
-0.0273 0.3803 -1.6117 -0.207 0.429 0.879 105 89 60 0 0
-0.0595 0.3937 -1.6482 -0.174 0.918 0.356 99 83 60 0 0
-0.0621 0.3948 -1.6522 -0.626 0.779 0.025 96 78 55 0 0
-0.0689 0.4173 -2.0306 -0.680 0.679 0.276 106 86 61 0 0
-0.0823 0.4241 -2.0693 -0.597 0.661 0.455 105 85 58 0 0
-0.1108 0.4376 -2.1334 -0.639 0.767 0.066 104 84 49 0 0
-0.1193 0.4413 -2.1452 -0.327 0.911 -0.250 105 85 50 0 0
-0.0106 0.4023 -2.0348 -0.518 -0.431 0.739 107 90 64 0 0
-0.0651 0.4214 -2.0318 -0.687 0.727 -0.029 109 89 64 0 0
-0.0689 0.4233 -2.0411 -0.153 0.758 0.634 110 90 65 0 0
-0.1233 0.4491 -2.1651 0.265 0.680 0.684 106 83 51 0 0
-0.2076 0.4819 -2.2196 -0.573 0.557 0.602 85 69 35 0 0
0.0883 0.3498 -1.6073 -0.166 0.532 0.830 95 82 64 0 0
-0.0858 0.4368 -2.0817 -0.598 0.410 0.688 84 67 43 0 0
-0.2056 0.4865 -2.2195 -0.847 0.280 0.453 92 77 35 0 0
0.1142 0.3458 -1.6033 -0.148 0.210 0.967 100 85 68 0 0
0.0992 0.3513 -1.6064 -0.168 0.214 0.962 92 79 60 0 0
-0.0315 0.3998 -1.6556 -0.009 0.657 0.754 97 84 69 0 0
0.0028 0.4083 -2.0290 -0.244 0.757 0.606 112 96 72 0 0
-0.1171 0.4582 -2.1728 -0.668 -0.377 0.642 106 85 52 0 0
-0.2219 0.5007 -2.2783 -0.140 0.109 0.984 193 194 194 0 0
0.1017 0.3558 -1.6066 -0.293 0.255 0.921 84 71 52 0 0
0.0173 0.3857 -1.6157 -0.142 0.533 0.834 114 95 71 0 0
-0.0267 0.4034 -1.6572 -0.017 0.447 0.894 122 116 106 0 0
-0.1175 0.4629 -2.1584 -0.561 0.327 0.761 105 85 52 0 0
-0.1633 0.4873 -2.2124 -0.477 0.693 0.541 93 75 37 0 0
0.0870 0.3938 -1.9971 0.272 0.880 0.390 125 112 100 0 0
-0.1049 0.4694 -2.1587 -0.188 0.397 0.898 106 85 54 0 0
-0.1116 0.4717 -2.1596 -0.476 0.879 -0.029 106 86 53 0 0
-0.1633 0.4929 -2.2168 -0.758 0.639 0.130 95 77 39 0 0
-0.1638 0.4934 -2.2226 -0.758 0.639 0.130 96 78 39 0 0
-0.1672 0.4948 -2.2260 -0.799 0.601 -0.025 99 82 42 0 0
-0.1674 0.4952 -2.2320 -0.754 0.653 -0.070 100 83 42 0 0
0.2207 0.3317 -1.6213 0.201 0.315 0.928 104 93 77 0 0
0.2023 0.3381 -1.6231 -0.016 0.163 0.986 106 89 73 0 0
0.2142 0.3395 -1.6225 0.181 0.356 0.917 108 100 88 0 0
0.2057 0.3425 -1.6237 -0.016 0.163 0.986 106 92 77 0 0
0.0057 0.4129 -1.6545 -0.012 -0.169 0.986 211 209 213 0 0
-0.0978 0.4789 -2.1795 -0.353 0.714 0.604 109 89 54 0 0
-0.1591 0.5029 -2.2291 -0.824 0.546 0.152 104 89 49 0 0
-0.1595 0.5040 -2.2476 -0.732 0.670 0.128 101 86 45 0 0
0.2092 0.3468 -1.6244 -0.016 0.163 0.986 141 135 128 0 0
0.1873 0.3543 -1.6242 0.204 0.663 0.720 102 91 78 0 0
0.1773 0.3577 -1.6246 0.204 0.663 0.720 103 92 78 0 0
0.0458 0.4047 -1.6596 0.053 0.887 0.459 189 187 185 0 0
0.0416 0.4063 -1.6628 0.057 0.965 0.257 205 206 205 0 0
-0.0921 0.4822 -2.1761 0.001 0.750 0.661 107 87 54 0 0
-0.1279 0.4971 -2.2220 -0.123 0.848 0.515 95 80 41 0 0
0.0654 0.4032 -1.6583 0.123 0.898 0.422 186 185 181 0 0
0.0622 0.4046 -1.6621 0.087 0.894 0.440 204 203 204 0 0
-0.0044 0.4561 -2.1488 -0.764 -0.004 0.645 108 90 62 0 0
-0.0567 0.4749 -2.1649 -0.132 -0.033 0.991 102 82 50 0 0
-0.0591 0.4760 -2.1692 -0.486 0.212 0.848 100 79 48 0 0
-0.0707 0.4797 -2.1664 -0.885 0.360 -0.296 100 80 48 0 0
-0.0935 0.4894 -2.1982 -0.388 0.918 0.087 96 79 43 0 0
0.1747 0.3703 -1.6380 0.197 0.798 0.570 183 181 179 0 0
0.1673 0.3729 -1.6397 0.144 0.807 0.573 171 169 167 0 0
0.1600 0.3755 -1.6415 0.130 0.907 0.401 166 163 160 0 0
0.1152 0.3916 -1.6568 0.174 0.886 0.431 174 172 167 0 0
0.0977 0.3976 -1.6584 0.169 0.831 0.530 192 191 188 0 0
0.0910 0.4000 -1.6603 0.170 0.856 0.488 206 205 203 0 0
0.0599 0.4381 -2.1197 -0.711 0.153 0.686 112 96 73 0 0
-0.0696 0.4847 -2.1655 -0.865 0.473 -0.167 102 81 50 0 0
0.0594 0.4434 -2.1114 -0.115 0.675 0.729 111 94 71 0 0
0.0589 0.4439 -2.1173 -0.391 0.722 0.571 111 95 72 0 0
0.0058 0.4632 -2.1406 -0.034 0.743 0.668 110 92 67 0 0
-0.0075 0.4678 -2.1431 0.024 0.559 0.829 109 92 66 0 0
-0.0402 0.4804 -2.1680 -0.802 -0.027 0.597 105 84 54 0 0
-0.0443 0.4820 -2.1711 -0.333 0.538 0.775 105 84 53 0 0
-0.0690 0.4925 -2.2080 -0.723 0.359 0.590 99 81 46 0 0
0.0837 0.4406 -2.1085 0.136 0.843 0.520 100 84 65 0 0
0.0643 0.4474 -2.1133 -0.082 0.591 0.803 113 96 75 0 0
0.0610 0.4488 -2.1172 -0.452 0.398 0.798 115 98 76 0 0
-0.0024 0.4718 -2.1453 0.089 0.720 0.688 110 92 68 0 0
-0.0139 0.4778 -2.1804 0.108 0.529 0.842 107 88 58 0 0
-0.0384 0.4852 -2.1677 -0.737 0.661 0.144 105 85 55 0 0
-0.0393 0.4859 -2.1733 -0.714 0.438 0.547 106 85 54 0 0
-0.0450 0.4883 -2.1814 -0.556 0.776 0.299 105 84 54 0 0
-0.0476 0.4894 -2.1856 -0.323 0.770 0.550 105 84 54 0 0
-0.0508 0.4907 -2.1894 -0.359 0.758 0.545 105 84 54 0 0
-0.0615 0.4942 -2.1872 -0.995 -0.101 0.024 103 82 51 0 0
-0.0624 0.4948 -2.1927 -0.946 -0.304 0.110 102 81 50 0 0
0.0986 0.4414 -2.1112 0.156 0.717 0.680 99 84 68 0 0
0.0899 0.4443 -2.1113 0.242 0.723 0.647 107 91 74 0 0
0.0643 0.4533 -2.1179 -0.193 0.384 0.903 116 99 80 0 0
0.0540 0.4586 -2.1482 -0.856 0.498 0.136 111 95 72 0 0
0.0228 0.4687 -2.1438 -0.546 0.693 0.470 110 94 71 0 0
0.0129 0.4720 -2.1426 -0.445 0.513 0.734 109 94 71 0 0
0.0137 0.4725 -2.1558 0.099 0.919 0.381 110 93 68 0 0
0.0092 0.4742 -2.1587 0.099 0.919 0.381 109 92 66 0 0
0.0046 0.4759 -2.1615 0.117 0.898 0.424 107 90 64 0 0
-0.0057 0.4800 -2.1725 -0.543 0.819 -0.186 107 90 60 0 0
0.0004 0.4787 -2.1834 -0.825 0.555 0.100 106 89 59 0 0
-0.0345 0.4902 -2.1816 -0.549 0.774 0.317 105 85 58 0 0
-0.0404 0.4923 -2.1833 -0.556 0.776 0.299 104 84 57 0 0
-0.0651 0.5017 -2.2014 -0.966 0.243 0.091 98 80 45 0 0
0.1217 0.4395 -2.1135 0.090 0.757 0.648 97 87 76 0 0
0.1177 0.4410 -2.1170 0.155 0.833 0.531 104 92 80 0 0
0.1100 0.4436 -2.1179 0.271 0.756 0.596 106 93 80 0 0
0.1008 0.4467 -2.1176 0.271 0.756 0.596 109 95 80 0 0
0.0708 0.4580 -2.1400 -0.892 0.433 0.129 114 98 76 0 0
0.0572 0.4627 -2.1426 -0.641 0.768 0.013 113 97 74 0 0
0.0574 0.4631 -2.1490 -0.981 0.122 0.150 112 96 73 0 0
0.0480 0.4666 -2.1547 -0.386 0.207 0.899 111 95 72 0 0
0.0430 0.4684 -2.1573 -0.386 0.207 0.899 110 94 71 0 0
0.0134 0.4792 -2.1728 0.049 0.920 0.389 107 90 64 0 0
-0.0350 0.4953 -2.1732 -0.992 0.122 0.036 106 86 59 0 0
-0.1533 0.5409 -2.2714 -0.150 0.342 0.928 196 197 199 0 0
-0.1287 0.5344 -2.2986 -0.273 0.825 0.495 198 199 201 0 0
-0.0316 0.5017 -2.2056 -0.439 0.625 0.645 102 83 51 0 0
-0.1195 0.5367 -2.2983 -0.218 0.845 0.488 198 199 201 0 0
0.0571 0.4765 -2.1835 -0.031 0.886 0.463 106 90 64 0 0
-0.1185 0.5409 -2.2845 -0.208 0.539 0.816 195 196 198 0 0
-0.1507 0.5514 -2.2826 -0.125 0.104 0.987 201 203 203 0 0
0.0744 0.4763 -2.1821 -0.404 0.778 0.482 107 92 67 0 0
