ply
format ascii 1.0
element vertex 688
property float x
property float y
property float z
property uchar diffuse_red
property uchar diffuse_green
property uchar diffuse_blue
end_header
-0.26098114109671633 0.2798423559619737 -1.604716806810475 156 127 80
-0.2655606564259631 0.281839033569526 -1.6070691173894616 181 153 106
-0.2705779977735701 0.2840132890453756 -1.6091284834228008 197 172 122
-0.27538196126163184 0.28610052103467193 -1.6113119679165868 191 167 119
-0.27857600204904187 0.2875335417746532 -1.614524305990009 104 80 43
-0.2816876859414665 0.2889329685836398 -1.617784327936786 108 85 52
-0.2823790657676473 0.2893494876745538 -1.6226148814210686 109 86 53
-0.2826762929724181 0.2896061075884655 -1.6277078045379176 105 82 46
-0.2828033276052987 0.28979380827007684 -1.6329188476647112 100 77 43
-0.2759240717134764 0.28713793629467277 -1.642744176898994 97 74 40
-0.2759695980873472 0.2872933208634051 -1.648038645443489 91 68 35
-0.2739436316638406 0.2866083407250728 -1.6547118200943005 120 98 65
-0.2626761669852826 0.2821743153493709 -1.6675378233575355 113 91 56
-0.24919795362536717 0.2768449155116145 -1.6818929175624153 121 97 60
-0.2398154314880399 0.27317847090665937 -1.6935769999895804 116 92 53
-0.21765308573947695 0.26433035176563435 -1.713877822383144 113 89 53
-0.21861088629096975 0.26486011395810716 -1.7187317861445974 111 87 51
-0.21855062166118844 0.2649772123447579 -1.72427677645148 106 82 46
-0.22037511253172692 0.26585858663884554 -1.7285543921539985 105 81 44
-0.22151845380326457 0.2664638772933712 -1.7332949075141773 107 83 46
-0.2207500954794988 0.26629448555613433 -1.7393411176804219 106 83 47
-0.2210535844182825 0.2665597270695479 -1.7446663820805732 107 84 50
-0.21844153009523704 0.26564387332750394 -1.7519976303815354 109 86 54
-0.21657338205199556 0.2650298892417421 -1.758836921731644 103 81 45
-0.2167700748538655 0.26525269774269145 -1.7642679610157002 98 75 41
-0.21482524708899703 0.26460839241174094 -1.771188865067806 66 43 13
-0.2147066760620363 0.26470404521866775 -1.7768585409360138 66 42 13
-0.2181237744226998 0.26623145956434535 -1.7800742291876077 100 77 44
-0.21364723319918655 0.26456315109428125 -1.7887993150092085 105 81 45
-0.2155195631954261 0.26546539707049643 -1.7931020376994453 103 79 43
-0.21668759447181313 0.2660826095436938 -1.797900229350483 121 98 61
-0.2179076176824924 0.2667209462005077 -1.8026650639250241 109 89 56
-0.21970131968122286 0.2675914724175761 -1.8070270450319612 79 60 32
-0.2199386152788929 0.2678323810224097 -1.8124943880278555 74 55 25
-0.22391811823660723 0.2695871487515211 -1.81530451936539 80 61 29
-0.22455273422351563 0.26998891552944043 -1.8204947018027302 93 72 40
-0.21024231848792957 0.2643474974572254 -1.836398906259456 97 75 43
-0.20805412305522836 0.26360911576236845 -1.843662754181691 95 72 40
-0.21397080609279207 0.2661476520650485 -1.845101588652735 97 74 42
-0.21677052162068405 0.26742585735106544 -1.8487768458177978 88 66 34
-0.22859301392265724 0.27235043440266327 -1.8459026145795765 84 63 32
-0.23362100214868725 0.2745283263968906 -1.8479283430270343 79 58 26
-0.23643204486845648 0.27581015781159457 -1.851558372236625 80 60 28
-0.23862199320332317 0.2768409845191139 -1.855639164494269 81 61 28
-0.23491619871134795 0.27549043406237017 -1.8640488725661237 84 64 31
-0.2392473226560894 0.27738625750490586 -1.8665631362375006 87 67 33
-0.24145990653807647 0.27842634913790787 -1.8706320568773365 90 70 37
-0.24012670353139431 0.2780348488560612 -1.8773279227073045 100 80 47
-0.24213532080853511 0.27899274343649105 -1.8815539183625076 97 77 44
-0.24273173620780847 0.2793806378950991 -1.886832720432477 96 76 43
-0.24466424236032197 0.2803078804614553 -1.8911181155094212 93 72 40
-0.24413984709737246 0.28024375969711246 -1.8972469607600533 91 70 39
-0.24570092631225376 0.28102129577720136 -1.9018174534139953 86 65 34
-0.24794666139779692 0.28207505420480705 -1.905872787729724 82 61 30
-0.24937653776087976 0.2827997192444148 -1.9105444268978937 87 66 35
-0.25604413631325423 0.28563663840427195 -1.9112404475758604 85 64 33
-0.2568802148107658 0.2861216886905412 -1.9163569827822478 85 64 33
-0.2597805647950495 0.28743907444532496 -1.919901286268007 79 57 28
-0.2560567448052771 0.2860862173675035 -1.9285176785569802 79 55 28
-0.25524392839285337 0.2859072502239933 -1.9349225106314611 77 53 27
-0.25268874497463634 0.2850264874866093 -1.9426833604545939 74 50 24
-0.2526929020739575 0.28517744368154063 -1.9484858349000755 68 44 17
-0.25163860039908964 0.2849022290766088 -1.955118222666159 69 45 17
-0.2530444966337322 0.285618317535954 -1.95985061262217 78 55 23
-0.2553662377362311 0.28670330930855004 -1.9638708842965222 89 66 34
-0.2598705166344787 0.28866710127539075 -1.9661813439740474 90 67 35
-0.26296840591755327 0.29006435700826017 -1.9695837536669967 87 64 32
-0.26567773568003167 0.29130505821091135 -1.9732866428453906 87 64 32
-0.2677665150180137 0.2922959003147142 -1.9774759045932475 89 66 34
-0.26940483791445374 0.2931054463552476 -1.9820211871584053 80 58 26
-0.26987736078035046 0.2934459444014043 -1.9874938465956986 74 54 24
-0.2717238479927621 0.29433937955491485 -1.991878837561509 72 52 25
-0.2735704772008322 0.29523288286874594 -1.9962641445306533 71 51 24
-0.2774102437511327 0.2969280157721369 -1.9990526885154942 69 48 21
-0.2797388636984856 0.29801524249312583 -2.0030467715033358 69 49 22
-0.2858782438564405 0.30063460554919436 -2.0039672553238814 69 48 20
-0.2834625506740302 0.29981425800877404 -2.011784089642229 69 48 21
-0.2810986093165568 0.29901524230742965 -2.0195795908877106 70 49 21
-0.27937911584657066 0.29847574577660974 -2.0268714660380365 94 73 41
-0.2801968330978517 0.29895620828928593 -2.03211148995175 103 82 50
-0.2823886194516456 0.2999888579337556 -2.036232955646568 63 41 14
-0.28377025603002237 0.30069603907960873 -2.041017830101849 93 69 38
-0.2826458641320178 0.30039676906362717 -2.0478671645237156 135 110 74
-0.2861746147376008 0.3019664764569373 -2.0508917861812526 90 65 33
-0.2739350935138826 0.2972047698446406 -2.066957354465062 84 61 30
-0.28976595848711995 0.30371380041046725 -2.059794872886087 84 61 30
-0.29753289053242604 0.306984310468985 -2.0592774572710524 83 60 28
-0.3043947782368127 0.309890877015623 -2.059487459655661 80 57 26
-0.30364254297228055 0.30974152335573957 -2.0660478602438084 80 57 25
-0.29875375081244576 0.307932890032265 -2.0760941678542757 81 59 27
-0.2967759571975903 0.3072928372386973 -2.083722510241864 82 62 28
-0.30539613618784434 0.3109039294247913 -2.082420828086649 101 79 41
-0.30237415000526435 0.30984545238981853 -2.090945777416699 100 77 36
-0.3045741923338237 0.3108814051782907 -2.09505995359567 103 79 40
-0.3055794710193405 0.3114383520903956 -2.1001904800782647 139 114 74
-0.30758870091789464 0.3123978323875407 -2.104468072501752 155 129 89
-0.30436592250880906 0.3112604791309176 -2.11322705121434 139 113 78
-0.3005728464986151 0.3098952549543764 -2.1225012429861474 93 71 34
-0.2987984210887053 0.3093395127519354 -2.1300645472810626 79 56 22
-0.3070683393477468 0.31280780138979025 -2.1289683913367026 81 58 24
-0.3298613723979856 0.3220920378173344 -2.1152582739779557 82 58 24
-0.33158464172950863 0.3229361821378597 -2.1197523532840163 83 59 23
-0.32348103959509417 0.3198457758466873 -2.1328099966373792 84 60 23
-0.327173139826783 0.3214787731204207 -2.1356100851283957 84 60 24
-0.3300312090594445 0.322777716632657 -2.1391323692133675 85 61 25
-0.3363856716115459 0.3254757956063902 -2.1395776179298873 85 61 25
-0.337252344675176 0.32597745523490096 -2.144837043723985 86 62 26
-0.3349433457833716 0.3252087579898814 -2.152908246648141 85 61 27
-0.3437459948977069 0.328885340511725 -2.151153213278897 87 63 29
-0.3452469557948361 0.3296407858939795 -2.1558530954129576 83 59 25
-0.34815821487300846 0.33096023523700846 -2.1592982769990368 77 53 18
-0.35103307640767717 0.33226500703374984 -2.1627711149620215 79 55 19
-0.3443003074784425 0.329729011255477 -2.1748498769233935 80 56 20
-0.34981804030411684 0.3320904774641057 -2.175962173985041 82 58 22
-0.35261260439120196 0.33336324760455116 -2.1795107576663098 84 60 24
-0.3584501106704464 0.33585173170036997 -2.1803049075390915 88 64 28
-0.3618570150542879 0.3373687071016763 -2.1832822335995115 90 66 30
-0.3658136142616476 0.3391050536664209 -2.1857525518020022 87 63 27
-0.369856596079972 0.340875634925935 -2.1881339117212573 92 68 32
-0.3712545661824484 0.3415898000211095 -2.19292182857625 92 68 32
-0.372653052214233 0.342304240850394 -2.197711985633571 91 66 31
-0.37325258924076016 0.34269983926950776 -2.203239073501717 96 70 33
-0.37454674518524717 0.3433728342767618 -2.2081328492822 97 71 34
-0.3782711247490325 0.3450156541567364 -2.2107841833985127 96 71 30
-0.38145716559079446 0.3464434589013618 -2.2139252085377796 100 75 34
-0.3848355454908634 0.34794782312071804 -2.216881098150828 104 81 39
-0.3900406206318941 0.35018054861878606 -2.2181275365192556 101 78 36
-0.3940825965812884 0.3519490324841019 -2.2204438661665784 97 74 32
-0.40125149127784476 0.35496395139027603 -2.2198197185984276 94 71 30
-0.3988759123383586 0.35417338910536633 -2.2281353364292245 101 78 37
-0.3970923979130636 0.3536193772309767 -2.2359153843024915 101 78 37
-0.3946363082526561 0.3527978340871868 -2.2443499544532277 99 76 35
-0.4002638307513919 0.3551976947917044 -2.2451501925833717 101 76 38
-0.40239609932956527 0.356204653024889 -2.249251137974013 101 78 38
-0.40884514133842853 0.3589309752835994 -2.249239637160334 100 77 39
-0.4104392963669703 0.35972329322140006 -2.253841148974388 98 80 49
-0.41027711144790985 0.3598163323685829 -2.2601263146395763 114 103 84
-0.3979560551328924 0.35506916112470704 -2.2780978479259755 156 154 149
-0.42418023023657975 0.3659815064652212 -2.271288607108633 201 202 204
0.1354468666683737 0.09906528884123572 -0.8943601662289455 178 178 180
0.12511934169660077 0.10371021072837944 -0.9055111425616212 144 139 130
0.10405056719313072 0.11253780996440937 -0.9037093115603942 122 108 90
0.09263934825183351 0.1173756271365333 -0.9048780153351431 136 116 92
0.08151168889563415 0.12209552364500284 -0.9061045914776126 140 116 84
0.0732833830107848 0.12561756895433446 -0.908220907319903 125 102 68
0.06374322360868401 0.1296806131201033 -0.909897315013912 108 88 56
0.060999420351432965 0.13093761015343008 -0.9137285892199178 104 83 52
0.05986728585773432 0.13152934182439585 -0.9180766469026876 103 84 54
0.05885120603722127 0.13207324255538597 -0.9224647259479997 98 80 50
0.0628566242432303 0.13054512991550288 -0.9284918419938183 90 73 47
0.062474266090839004 0.130827927654974 -0.9331014876854042 78 61 42
0.06339428249679596 0.13057355523722178 -0.9381448200682201 76 60 42
0.06384453568859338 0.13051321132523275 -0.9430420450014818 77 62 45
0.06250626538240583 0.13119077732341228 -0.9473522351491286 79 66 49
0.061079374567680755 0.13190493864699232 -0.9516345585539131 72 59 43
0.05916731043574169 0.13281921270868915 -0.9557553530755378 58 46 28
0.056652731182006866 0.13398191844826157 -0.95967254484759 83 68 46
0.0576288027197856 0.13370541403162642 -0.9647719639033064 98 81 57
0.055630927491196414 0.13465515126191613 -0.9688668343980089 104 85 59
0.05503024082083263 0.13502895795381997 -0.9734400693682073 96 79 54
0.06208902707138725 0.13224600208133477 -0.9806555621614899 93 76 53
0.06194074729771765 0.13243393846697968 -0.985406974164404 89 71 48
0.06205855143766803 0.1325123860888919 -0.9902567886375567 94 73 50
0.06431684507254459 0.13170909197201522 -0.9958615125698707 122 101 73
0.06352875403658492 0.13216119872980953 -1.0004103732442151 131 110 80
0.06153591275381681 0.13310967375937371 -1.0045377471294759 103 81 55
0.05897087662977696 0.13429381519543315 -1.0084617867275 68 46 23
0.07897038998191397 0.1261849664743449 -1.020424532400803 65 43 20
0.08188820576752648 0.12511220989496175 -1.0263458306690583 67 46 22
0.08501750872563818 0.1239528103671711 -1.0323597392060506 66 44 21
0.08688991699007714 0.12331133236585626 -1.0379365406945031 70 48 24
0.08231940030141316 0.12532246474829378 -1.0411860059293478 64 44 22
0.08625545599236328 0.12383196103234342 -1.0475308360901323 56 39 21
0.0885189190547252 0.12303036939983503 -1.0532824905584006 52 38 22
0.08893135369411143 0.12299089135288749 -1.058366588008293 33 22 12
0.09028681617168066 0.12256359438016051 -1.0638077696467432 16 8 6
0.09044549989321243 0.12262898350096449 -1.0688151876619034 23 19 15
0.09061319593079065 0.1226908544824157 -1.0738331435829798 37 29 22
0.09081613820213985 0.12273841800370391 -1.0788715461692857 49 40 33
0.09082879660420012 0.12286443748674825 -1.0838455448450928 46 39 29
0.09167799698620982 0.12264661157958118 -1.089143174161311 42 36 26
0.09158264046954812 0.12281743956373939 -1.094090946415302 33 29 20
0.09050628183257964 0.12339177557940081 -1.0986699905679111 24 20 13
0.09146144978978465 0.12313101841902527 -1.104032274822301 20 18 12
0.09617301665369926 0.12132642680506425 -1.110854038705429 17 14 10
0.09424545265191714 0.12225121406702824 -1.115125694946612 14 10 7
0.09066145667977799 0.12385673763312263 -1.1187523673808175 14 10 6
0.08968191109563817 0.12439188749591504 -1.1233918546339001 14 10 7
0.08924652223459267 0.12470354570011968 -1.1282484503302599 16 9 6
0.08801615449180322 0.1253419404681817 -1.1327965454563649 30 21 14
0.08717743034265796 0.12581952058342416 -1.137502339750056 37 26 15
0.0859311912798294 0.12646458165658633 -1.142049698027837 38 25 12
0.08513102092424846 0.1269265118898907 -1.146777865756444 62 48 27
0.08311656076028978 0.12788718217965428 -1.1510221884344618 68 50 28
0.08273582462856305 0.12817704973560323 -1.1559254262523886 93 71 42
0.07961652989205548 0.1295913641665899 -1.1597242221107305 101 80 41
0.07701829956721856 0.13079167021681645 -1.163730874762119 140 118 71
0.07460597414319503 0.13191560785707343 -1.167811130144591 172 148 98
0.07078294946082203 0.13361845558333288 -1.1713103309126907 159 131 83
0.06695401120801792 0.13532355040704866 -1.174800292594912 157 129 81
0.06517146461941159 0.13618881148981005 -1.179131103271449 151 123 75
0.06312626764495832 0.13716184104867565 -1.1833531387206604 147 120 71
0.05266229367411268 0.1415883617070817 -1.1840571535708444 138 112 60
0.04860108150636583 0.14338787010116424 -1.1874171766898571 135 108 61
0.04603530590785415 0.1445738669295538 -1.1913996799458204 136 109 63
0.04394647756700393 0.14556421904803407 -1.1955816864857245 140 114 65
0.04037132464396492 0.14716398294152627 -1.1991313148865381 151 123 79
0.03625258425782446 0.14898644585884113 -1.2024429002191002 149 119 79
0.03280337533544325 0.15053423771143082 -1.2060334875720677 154 122 83
0.027288346748439274 0.15292862102697338 -1.2087292156595961 156 128 87
0.025261280255441554 0.1538931784834359 -1.2129196439749854 150 123 80
0.0165015056145687 0.15761668292165534 -1.214186923777149 153 128 84
0.009035345163558639 0.1608094874031894 -1.2159931593024802 143 119 75
0.002252126382872366 0.16372196276426393 -1.2180780548428625 134 111 64
-0.0011617964764341626 0.16525376890634338 -1.2216261726279354 120 100 47
-0.01062310594909438 0.16926238688196396 -1.2224993746231134 114 97 46
-0.01325978861702981 0.17047529325206304 -1.226369792068921 93 77 38
-0.018711245163925583 0.17284076233455983 -1.2289846864523306 85 68 37
-0.02965571984415799 0.1774549816020912 -1.2291316133187775 105 83 52
-0.039606091787331155 0.18166133756924638 -1.2296913214091476 128 100 62
-0.053464936804364704 0.18746683837966144 -1.2284601855592712 134 107 65
-0.04880577223072635 0.18569174334901015 -1.2355630121869878 151 127 86
-0.040215524187618035 0.18230848236072442 -1.2444757481123043 120 101 70
-0.03155882004024663 0.1788990489279327 -1.2534574815090618 115 99 74
-0.022834809265189937 0.17546310692114728 -1.2625090512199042 88 76 54
-0.016459253844642807 0.17298896848029888 -1.2705200598951802 94 83 64
-0.0008556106730988611 0.16674083718770688 -1.282822306130537 83 69 49
0.0022100962147589276 0.16562252558387966 -1.2893776554389396 83 69 45
0.0031947551416018904 0.16535576364442403 -1.2949829839099198 85 69 44
0.005959415030293236 0.1643614297476401 -1.3014308731445772 93 76 48
0.006169635233661375 0.16441196313797243 -1.3066978335614636 87 70 42
0.005985665844938037 0.16462385522361672 -1.3117870834217737 89 72 45
0.012040175293380695 0.16228587680988193 -1.3198329311280683 79 62 33
0.015079647378912375 0.16118096628036568 -1.3264772588174487 86 70 40
0.01159693595711897 0.1627419111720092 -1.3300314997305298 105 89 58
0.008055568225136256 0.1643266694891391 -1.333551832553996 105 87 53
0.006075967494133139 0.16527318913521816 -1.3378163700468237 111 90 53
0.0010641056298894558 0.1674584186108183 -1.3406182865541283 125 103 62
-0.0004962767776083288 0.1682335418773884 -1.3450796813600272 125 103 60
-0.0023001582087766037 0.1691081495575011 -1.3494240992572974 114 90 50
-0.006264627687305513 0.17086507189337444 -1.3527146962612033 124 99 61
-0.011645738091142332 0.17320022174431698 -1.355303611401385 129 106 64
-0.016540874868097466 0.17533662038994557 -1.3581183799374197 104 83 47
-0.023889129132770304 0.17847411192910537 -1.359710844986874 116 95 62
-0.022373320249005457 0.17799308823596297 -1.3656753173975156 115 92 56
-0.035810055429342624 0.18361471015065506 -1.3642144785632693 109 89 52
-0.04374235693588757 0.18698902729864814 -1.3654584395235154 113 94 60
-0.04866923430477216 0.18913649249600678 -1.368185956479168 105 86 54
-0.052376342713194246 0.1907860356594225 -1.3715156970740487 106 86 50
-0.0574638608676204 0.19299847785241853 -1.3741412501068933 123 103 68
-0.0601926352387635 0.19424856373778565 -1.3779505512392627 101 83 50
-0.06281195457804484 0.1954539289138399 -1.3818123755562586 94 77 45
-0.07582957777250532 0.2008991992436017 -1.3803590552438896 107 89 54
-0.07120529639328554 0.19915063039981962 -1.3879099221029634 116 90 59
-0.07588508230769825 0.20119557387796558 -1.3906967054657127 164 133 96
-0.0812857588974103 0.20353407081950348 -1.393100253072126 165 132 90
-0.08667252748434923 0.20586654090961534 -1.395497433913546 155 127 88
-0.09103790549451285 0.20778243495255305 -1.3984127518120502 136 111 76
-0.09660300090761542 0.21018690005968216 -1.4006916026717515 159 133 88
-0.09897837317793962 0.2112914981377484 -1.4046289786061181 164 136 88
-0.1038551491807132 0.2134149859671563 -1.4072477294302754 174 142 92
-0.10704334473281574 0.21485041378153516 -1.410746955157049 169 136 88
-0.10492985214080858 0.2141266246885107 -1.4170525302001182 172 141 96
-0.10898344983141783 0.2159144420367596 -1.4200913036376936 154 126 80
-0.11370825297869541 0.21797531021980668 -1.4227630175099584 160 132 86
-0.12040552890423001 0.22083885626803829 -1.4243660061518768 138 110 67
-0.12307912844432889 0.2220641164318271 -1.4281153464032106 171 140 93
-0.12895917911466165 0.22459427247779118 -1.4301297527746342 126 98 57
-0.13349688742277838 0.22657776824337164 -1.432856031429809 114 93 55
-0.1365627432623192 0.22796211735674676 -1.436372550287636 85 67 32
-0.1392775900668407 0.22920354124360096 -1.4400760096181955 92 70 38
-0.1429395213632706 0.2308301290319092 -1.4432571343284246 83 61 31
-0.14302301194254735 0.2310010897666664 -1.4483992156814085 79 59 31
-0.14531863241530357 0.23207184921871077 -1.4523273771757852 90 69 43
-0.14749216890648892 0.2330929223213176 -1.4563214776846625 82 61 31
-0.1489165067276465 0.2338093639819768 -1.4607308769865808 71 50 20
-0.1499630498892578 0.23437227351086964 -1.4653528338625281 95 73 44
-0.15103019121022465 0.23494364220913977 -1.469966544416395 74 51 20
-0.15068061126798643 0.23493932730320416 -1.475379550564355 78 55 21
-0.1481695648798128 0.23405692166381753 -1.4820203400458771 84 61 31
-0.13435903859511505 0.22858396335804554 -1.4950733482276608 96 69 34
-0.1382213205523058 0.23029225234302877 -1.4981523761436706 164 135 87
-0.14912086563170457 0.23485884906151436 -1.4972126483071957 142 113 63
-0.15857551534728753 0.23883765199909834 -1.497063056229769 145 117 74
-0.1606739104375337 0.2398283402860312 -1.5011051865911784 141 115 75
-0.15645011020377914 0.2382519553218847 -1.5087879072522052 77 55 25
-0.15761973723294603 0.2388658679418382 -1.5133778372646323 74 53 26
-0.16105555618609524 0.24039977350384625 -1.5166561749806804 72 48 23
-0.16877956694528046 0.24367399214823582 -1.517432226008683 71 47 21
-0.1666741889898642 0.24295858508713591 -1.5239257673887074 75 51 24
-0.1523891184634953 0.23730145103024675 -1.5375742503754648 72 49 18
-0.15045784941468715 0.23665819282529102 -1.544022570395766 69 46 15
-0.18483854827092605 0.25102384200589983 -1.539586164958101 150 125 76
-0.18774481693940515 0.25234168563680653 -1.5431299604033182 144 117 72
-0.1753011629528326 0.24743584758930556 -1.5558545750939472 74 51 25
-0.1793999154141528 0.24923772241394773 -1.5587053773171178 49 30 12
-0.17764682087388434 0.2486673815899348 -1.5650727249385659 60 39 18
-0.17850362759283478 0.24915518535863476 -1.569877217951978 73 53 25
-0.1899323383756139 0.2539271419510254 -1.568272904201134 74 53 22
-0.19297812126968805 0.2553015094571254 -1.5717316400043688 129 107 75
-0.19407569822396248 0.2558864922957904 -1.5763753867873562 104 83 53
-0.19437635871340497 0.25614875703826473 -1.5815107122905887 68 48 24
-0.19252735097020585 0.2555405564929158 -1.5879743778464794 78 58 32
-0.1973408215548782 0.2576307712034014 -1.5903429806481217 105 90 61
-0.20562233757613768 0.26112487653255456 -1.5905524787747067 104 88 59
-0.20976042838213982 0.2629408301607218 -1.5933088994036901 152 129 94
-0.21572941677122592 0.2654976635908684 -1.5949148087788607 151 125 83
-0.22196893584862448 0.2681635378374836 -1.5963344192123765 123 102 63
-0.22842590533105794 0.27091692652717136 -1.5975992971007127 126 107 72
-0.23461511258840123 0.2735614635583383 -1.5990134751632414 111 90 58
-0.23970168720074703 0.27575942956627164 -1.6011058986347495 126 102 71
-0.24506191723693432 0.27806773433539994 -1.6030113285105685 147 123 85
-0.2515851599243851 0.2808460390691181 -1.6041625494153668 163 137 94
-0.25720858190799567 0.28325993407097694 -1.605868080029943 147 115 74
-0.2602868641078434 0.28464428960116317 -1.6091866200361615 158 129 86
-0.2644450914897883 0.2864651192859454 -1.6118064729439454 181 158 113
-0.2676921835021491 0.28791737760407865 -1.615003532179242 165 140 100
-0.27324839280684626 0.29030277488932255 -1.6167020760905484 97 74 37
-0.27475062617164686 0.2910494518231907 -1.621013849383916 112 90 52
-0.2753710126399404 0.29143984180397503 -1.6259008106400654 106 84 47
-0.27672304381167634 0.29212596092686693 -1.6303153789518503 104 81 46
-0.2776649628867908 0.29264646868202515 -1.6350006100090138 100 77 44
-0.2785469949285028 0.29314288964280466 -1.639729029442792 105 82 48
-0.27212970582440965 0.2906916537677141 -1.649273031057647 104 81 47
-0.2778853203580906 0.2931565815858385 -1.6508023612666936 127 104 66
-0.2590038042842697 0.28567437313159016 -1.6686605878319214 124 102 62
-0.24412586055552665 0.2798106435111069 -1.6839431082308431 118 94 58
-0.22946845231166457 0.27403782804603394 -1.6991504232356052 112 88 53
-0.21507888133435188 0.26837498230300544 -1.7142495795853556 105 81 45
-0.21433347659159363 0.2682194163337037 -1.720249134046725 104 80 44
-0.21273625760494708 0.26772049358829225 -1.726834440774071 103 79 43
-0.21486106156861917 0.26872338248302013 -1.730917313806421 104 80 43
-0.21429642737610854 0.2686415183672365 -1.7368241907521316 105 81 45
-0.21434869589331146 0.2688087163695123 -1.74232183150602 103 80 44
-0.21505669059083982 0.2692405249856331 -1.7473797215535938 109 86 52
-0.21181187651172334 0.26807887136583586 -1.7551508739386708 108 85 53
-0.21113880486086678 0.26795447740655864 -1.7611770051975064 102 79 44
-0.21026737366936893 0.26775043449156355 -1.7673511852217079 88 65 31
-0.20917762398819068 0.26745873455556257 -1.773688546129034 71 47 17
-0.20939341036934428 0.26769341592387674 -1.7791332392353234 76 53 22
-0.2131066616166188 0.2693373091240655 -1.782151039530309 107 83 50
-0.21350955130043586 0.2696475491413189 -1.787472349497414 107 83 46
-0.2095056423648285 0.2681831214144631 -1.79588699499759 106 82 46
-0.21107414643661776 0.26896335510485325 -1.8004123555704337 120 97 61
-0.21253542004038295 0.26970045529457065 -1.805014857738275 100 80 48
-0.21463621356249568 0.2706950648978345 -1.8091672204423315 68 48 21
-0.2163134100760406 0.27151914828827584 -1.8136192392872208 77 58 28
-0.21928641632019713 0.27286477105233276 -1.817150389005119 83 63 32
-0.22045592511784223 0.2734845420840134 -1.8219640499352117 87 67 35
-0.22065664662503498 0.273714617813839 -1.8274746485122821 97 75 44
-0.21674267554009402 0.2722896251253113 -1.8359479469582791 93 70 39
-0.2265181612777052 0.27637154994121027 -1.834585462332293 96 73 42
-0.21927414240119775 0.2736078979341652 -1.8454867285493604 89 66 35
-0.22676199747063525 0.2767691041021672 -1.845750340247867 81 60 31
-0.23014880067083104 0.27828083743251464 -1.8489709508987635 83 62 31
-0.23266936921128556 0.27944418191026843 -1.852816790818931 80 60 26
-0.23818297090190743 0.28181043969732894 -1.8544702296361872 87 67 33
-0.22747262365129378 0.2776563739725899 -1.8680135504587476 92 72 37
-0.2322032689525208 0.2797081440225825 -1.870247546010223 92 72 37
-0.23777315058424042 0.28209674271140484 -1.8718492227433567 94 74 39
-0.2392988880184227 0.2828604151801949 -1.876429648476651 97 77 44
-0.23661874541409378 0.28193492838452516 -1.8841364269173184 97 77 44
-0.23848161005744167 0.2828343287608029 -1.8884788048610959 99 79 46
-0.24073122802465086 0.28388902238669633 -1.8925324086961939 96 75 43
-0.2400560571111428 0.2837695214834277 -1.898777315872672 91 70 39
-0.24113132028475115 0.28435294019421575 -1.9037177758588815 86 65 34
-0.24392586760594326 0.2856264612508602 -1.9073653226037695 84 63 32
-0.24510136786476522 0.2862502047549438 -1.9122338380385322 86 65 34
-0.24706722952386662 0.2871911393200598 -1.9165060428853806 83 62 31
-0.24875791690947224 0.28802168413030194 -1.9209875385786463 86 65 35
-0.2489007779168282 0.28823144471906065 -1.926651822890105 81 59 31
-0.24949843764234292 0.28862380899608475 -1.9319760769966234 78 54 28
-0.24916153894430698 0.2886416099561465 -1.9380242737415594 74 50 24
-0.2485593342626638 0.28855332529064126 -1.9442873328483274 72 48 22
-0.2495629697363148 0.2891090413006888 -1.9493213387876895 69 45 19
-0.24768676622006763 0.28851068233994315 -1.9565915024981877 69 45 17
-0.2478769504407748 0.2887408360881921 -1.9622731433199998 81 58 26
-0.24657706682469915 0.2883741940399728 -1.9691246124671458 86 63 31
-0.2518161870275501 0.2906274658930713 -1.9708779795226024 91 68 36
-0.25397343517153126 0.2916459285437299 -1.975033055249355 87 64 32
-0.2600889690947759 0.2942495610701631 -1.976073487924349 87 64 32
-0.26317985430172985 0.2956415676798505 -1.9794807175000453 85 62 30
-0.2660032809489983 0.29692635440038395 -1.9830941947124459 79 56 26
-0.26596945093981633 0.29706730010885185 -1.988971139675667 72 51 23
-0.26826110594625785 0.2981392146429668 -1.9930062975543268 68 48 22
-0.2701912202190786 0.2990664091111854 -1.9973284280869985 67 47 20
-0.2745448695025416 0.30096327026876424 -1.9997101066611092 68 47 20
-0.27816577836033374 0.30256670405635927 -2.00266881978692 67 47 20
-0.28261612099225364 0.30450168400048594 -2.0049515459811587 67 47 19
-0.27583815483094143 0.30194596179736477 -2.016292304599266 69 48 21
-0.27389007526538095 0.30132257980686716 -2.0237614489969826 69 48 20
-0.26995048067401145 0.2999034945673499 -2.032867188340864 97 77 44
-0.27244877827841335 0.3010585579663191 -2.036754702143104 96 73 39
-0.2771310077771999 0.30308639510420243 -2.0388547273635096 92 67 26
-0.28012212614000204 0.30443811509025887 -2.04232784573573 145 115 73
-0.2747878679173638 0.30246338411991464 -2.052639812819682 137 108 71
-0.2791276866759547 0.3043541401989208 -2.055010926436179 88 63 30
-0.26928900337602746 0.30058151093654456 -2.0690938503615985 85 60 29
-0.28857782366112933 0.30844244372026086 -2.0590798618556554 81 58 27
-0.2917993907414511 0.309885739047549 -2.0623446793302147 83 60 29
-0.30003939283698083 0.313332346550251 -2.061417759820179 82 59 28
-0.2961733378136798 0.3119459069380923 -2.0705866331749725 80 57 26
-0.2897195012761029 0.3095274354318367 -2.0819543424902656 81 59 28
-0.2887870165703782 0.30931323073220557 -2.088717627176673 82 62 28
-0.30354121631102143 0.31535787553587513 -2.0822598889350097 99 77 39
-0.3014555448612448 0.31468339372278337 -2.089988825034644 97 74 33
-0.3032552583576512 0.3155590737239148 -2.094440335060997 122 98 56
-0.30341574553894207 0.3157810895364781 -2.100287529407673 150 124 78
-0.3040315391414917 0.31618487070103957 -2.1057548488953954 153 126 85
-0.2991730872504377 0.3144065352275909 -2.1159139430511074 121 94 60
-0.29565591751724507 0.3131636893945041 -2.12495506990767 91 69 32
-0.3005115698960367 0.31541771745975344 -2.1328540450480062 82 59 25
-0.3269733058021991 0.32611944871941756 -2.115994373535414 80 56 22
-0.32775356925686616 0.3265884867554235 -2.1213092471653017 80 56 20
-0.3277807813741523 0.3267577670937305 -2.1272854340367178 83 59 22
-0.3310041706986167 0.32819998945282913 -2.1304805526793373 83 59 23
-0.3335216807164089 0.329361014581264 -2.1342873527417288 84 60 24
-0.3375801795928022 0.3311353723361055 -2.136738259192872 84 60 24
-0.33650525588521024 0.33086637052835094 -2.1436986475371476 85 61 25
-0.33813968506177144 0.3316758977466392 -2.1482816694272833 86 62 28
-0.34209114901755555 0.3334073312847292 -2.1508145232684956 86 62 28
-0.34269149906249013 0.3338054305478909 -2.156313033219127 82 58 24
-0.34464617203052195 0.3347423649388134 -2.160612239321654 77 53 18
-0.3481533883757257 0.33629669231588016 -2.1635249940704147 75 51 15
-0.3429229199045241 0.33437670186960927 -2.174254236873672 80 56 20
-0.3488236992090758 0.33688271646328355 -2.17502380315134 82 58 22
-0.35120886368567966 0.3379908607876679 -2.1789392649355768 85 61 25
-0.3550514859192678 0.3396781421328657 -2.181536387058894 89 65 29
-0.35865949390755836 0.34127194960358265 -2.18433636422102 90 66 30
-0.36003225235495456 0.3419775401424707 -2.1891576356804583 88 64 28
-0.3633248419637047 0.3434457661941232 -2.1922335921973177 93 69 33
-0.36490274950617757 0.34423285092115297 -2.196868384624365 94 70 34
-0.3682382631425489 0.34571787244382235 -2.1998956358394466 94 70 34
-0.37200650611318425 0.34737450001430503 -2.2025184455261515 101 75 38
-0.3726990895883027 0.34781004880532246 -2.207963803145555 98 72 35
-0.37603411123772335 0.3492944590579092 -2.210975754971614 95 70 30
-0.37892651263428906 0.35060304926183494 -2.214390350740139 102 78 36
-0.38185598789402714 0.3519262182752666 -2.2177656213992036 105 82 40
-0.3866855319185989 0.3540029404789712 -2.2193668941698648 101 78 36
-0.3904173585791015 0.3556439198623304 -2.22197804492939 95 72 30
-0.3982277126465915 0.3589019046857729 -2.2207620331156877 98 75 34
-0.39432623192513755 0.35751581609796423 -2.230509299855232 100 77 36
-0.39670699402663245 0.35862075073816635 -2.2343734435562657 101 78 37
-0.3924704705713049 0.3571030366810505 -2.244480857254367 99 76 35
-0.4022999535208139 0.3611598952373589 -2.241307821061145 99 74 37
-0.39800546282231436 0.3596199392604904 -2.2514976604433756 104 81 41
-0.40345960065068387 0.36194244708490003 -2.2524429372184867 106 84 47
-0.40521952060177135 0.3628013771491607 -2.2568949402400755 105 87 58
-0.4067311244973027 0.36356200193299637 -2.2615854112508584 125 115 98
-0.39429474171105294 0.35880050724459356 -2.2796599972615263 164 162 159
-0.4241371922120032 0.3712622272989785 -2.275518938146232 204 205 207
0.13759338618413752 0.10325450522269689 -0.8943659974210354 177 177 179
0.1325145011165207 0.10573258937664473 -0.9071496134375157 159 156 150
0.11170001917589067 0.11442218989393224 -0.9054406811850673 121 110 96
0.0984007757863481 0.12001985958898148 -0.9060283877474588 137 116 92
0.0888185084980303 0.12408826587833177 -0.9077512748220353 151 125 90
0.08190759326743396 0.1270577704769156 -0.9102960560023734 112 90 58
0.07189924319309315 0.13130005187686547 -0.9118361713202403 103 85 56
0.06836149314990575 0.13288208369350232 -0.9154235890733273 104 87 59
0.06795209842911415 0.13317830376224285 -0.9200135507990468 106 89 62
0.0662392806860968 0.1340102630568161 -0.9241861115199781 101 84 58
0.06800189282984037 0.13341425337181295 -0.9294907747981088 78 63 38
0.06891862054549053 0.13316608996262458 -0.9345307103081311 66 50 31
0.06953681657054406 0.13304081201200763 -0.9394817434661518 66 48 35
0.06938849954825482 0.1332305992471799 -0.9441876555303712 60 41 27
0.06941360727386109 0.13334931744044587 -0.948956957410199 51 37 27
0.06810607750854741 0.13401545755925154 -0.9532875045614377 42 32 22
0.0669098709013432 0.13463593845229324 -0.9576572934923527 48 35 20
0.06622426848261032 0.13504684660279265 -0.9622016006174297 80 63 43
0.06578970195143152 0.13535480882613038 -0.9668350081035977 81 64 39
0.06330149567742566 0.13650585665197482 -0.9707734534038726 100 83 57
0.06263780104847783 0.13690802646959363 -0.9753346025932138 94 78 53
0.06688708087576545 0.13529413709363622 -0.9815906458330489 91 75 54
0.07121310290419097 0.1336493212707824 -0.9878940123767097 84 67 48
0.0693445420434764 0.13454661767999654 -0.9920655085647494 91 75 51
0.06961267601307536 0.13456736063618877 -0.9969832803390561 101 83 61
0.07008950770669603 0.13450269551637828 -1.0019816056398612 112 92 70
0.07160810727997119 0.13401097155694694 -1.0073553695916817 129 108 83
0.06931285317150443 0.13508362129351717 -1.0113891836481728 104 80 53
0.08042715739092055 0.1306576038014768 -1.020196662174553 71 47 22
0.08463677770046785 0.12906375907266665 -1.0265781368509614 69 46 23
0.0783697933796138 0.1317654696207046 -1.0292139141232326 63 42 20
0.0814467551650957 0.13063656463366893 -1.0352101264308435 65 43 21
0.08444741876300943 0.1295393951813785 -1.041195745361366 65 45 21
0.08700596949390016 0.12862386962405695 -1.0470369997691427 53 38 17
0.08909522746238774 0.12790106440201557 -1.0527216740637113 36 27 10
0.0896829498648305 0.12779385134215593 -1.0578673446743403 27 19 11
0.09102412572860169 0.12737819747437076 -1.0633003190743762 16 7 7
0.09130055483721627 0.1273990030664667 -1.0683488627846423 27 20 16
0.0916575768588685 0.12738700417513008 -1.0734350669795407 37 29 21
0.09140093563436774 0.1276265370105345 -1.078298959403269 46 39 30
0.0919249871162805 0.12754653892364873 -1.083462785765906 42 36 27
0.0927799773113201 0.12733126982793558 -1.0887603751096437 32 27 20
0.0920409159482789 0.12776886139881272 -1.093461370155711 30 23 19
0.09202312178106536 0.1279113139667887 -1.0984420351336688 31 24 20
0.09899378667994496 0.12519355805168106 -1.1061116038899335 21 19 14
0.09773037180921196 0.12584647782698302 -1.1106375206843582 11 10 5
0.09733014711178833 0.1261462368673191 -1.1155000732558464 18 13 6
0.09682292230804568 0.12648992073598392 -1.1203263360242246 32 23 14
0.09567423880356513 0.12709616750991595 -1.1249068686386456 25 16 8
0.0893033457840337 0.12983870414399165 -1.1274398927619578 35 23 11
0.08921523346666427 0.13001105876418495 -1.1324349208190296 51 35 22
0.08823241509975027 0.13054949486692993 -1.1370820007741513 50 33 20
0.0873075098829047 0.13106433908299234 -1.1417554436016832 39 25 9
0.0864939142390001 0.13153376763135943 -1.1464769046573169 62 45 24
0.08488223873658662 0.13232957693364533 -1.1508819154162133 64 44 17
0.08374864235134577 0.13292998904180733 -1.1554808031511565 90 67 32
0.0810686843500007 0.13416251798430037 -1.1594562278878895 133 111 63
0.0798291232395516 0.13480631347589597 -1.1640148817220375 132 106 58
0.07772530594180088 0.1358033369629286 -1.1682228729792978 149 122 74
0.07470630977319803 0.13717426923407772 -1.1720546810519492 147 122 74
0.06861071952746256 0.13980198920253262 -1.1746146013720067 135 112 66
0.06654202917478275 0.14078437338260144 -1.1788264153624781 145 121 74
0.056897234890004034 0.14486110480738484 -1.1798881740340446 157 132 79
0.05514268209730533 0.14571480133564615 -1.1842164771786208 158 130 80
0.051737509509591106 0.14724252705891813 -1.1878532335092584 140 112 64
0.050580151767944725 0.14785234502117725 -1.1924312046110292 149 121 73
0.047605798841435565 0.14920401074241127 -1.1962434708804504 152 125 77
0.043273184264138176 0.1511100058290275 -1.1994750311443148 149 123 78
0.03922028126147287 0.15290160128345415 -1.202817151244262 155 129 86
0.033270912509848594 0.15546692504873494 -1.2053391957029018 148 120 80
0.02800428438195296 0.1577532624781395 -1.208140279930836 154 128 87
0.022908247102929435 0.15996966896300785 -1.2110028610799726 163 136 92
0.018978618877254716 0.16170992747146842 -1.2143598118593377 141 116 72
0.01215140242881374 0.1646319070916381 -1.2164471934407162 128 106 64
0.0065004183943079274 0.1670736752076123 -1.2190311354094274 127 106 58
0.0010812551627687461 0.1694205357776093 -1.2217032087498325 126 107 54
-0.006138930236443241 0.17250141382494774 -1.2235680171854426 113 96 48
-0.009733160804026308 0.17410346095576099 -1.2270192893382683 87 71 35
-0.01950369201299018 0.178223111202061 -1.227717474976555 99 77 45
-0.023668368700987097 0.18005702658857872 -1.2308901626887803 118 91 56
-0.027067150515142135 0.18157857352225387 -1.2343979026359997 149 121 81
-0.023720590184171164 0.18035123443566423 -1.2409371596028018 180 153 113
-0.023161232427614253 0.1802600665149513 -1.2462356028417758 116 93 58
-0.013313713777462488 0.1763851349732721 -1.2557593230790274 123 108 81
-0.0033814479953138132 0.17247685670408291 -1.2653650293901084 107 98 78
0.00237789770429242 0.1702693989842856 -1.2731048162073824 120 113 97
0.011500642391535587 0.16669296382660206 -1.2824184407714605 98 88 71
0.011325961903285164 0.1669035541172802 -1.2874836743974056 78 63 43
0.01606621914784878 0.16511320206227736 -1.2948319890057598 77 62 41
0.01923669824514862 0.1639625775446602 -1.3014750263627173 85 70 45
0.021930516947819723 0.16300649143260418 -1.3079144697950307 92 77 50
0.04266715568940932 0.15499167897839294 -1.333316304183323 103 85 56
0.033553959571448244 0.15884175279046575 -1.334247300140942 107 88 56
0.03556265235230699 0.15816676096039808 -1.340448543650445 110 92 62
0.016181144501797307 0.1661925244564497 -1.3364367092846268 115 96 64
0.013417104368410648 0.16745828832255188 -1.3403363209660901 105 85 50
0.006511277848998076 0.1704081947037716 -1.342236770167048 118 97 59
0.002692152549608695 0.17210256548961833 -1.3456118292903554 120 99 61
-0.001408832025531881 0.17391132980386836 -1.348842843472985 114 96 57
-0.0018024648238075258 0.1742128727674879 -1.3538733033909547 109 89 51
-0.0032075788950435835 0.17492567722782826 -1.3584144592526577 110 88 50
-0.005463510547903672 0.175984295962681 -1.3625395141780123 117 94 60
-0.009714342593215575 0.17785347849273606 -1.365679267373316 116 93 60
-0.017709148678138498 0.18124353575505514 -1.3669562164220845 123 102 67
-0.029923146714927462 0.18634693596191623 -1.366112719859458 93 72 41
-0.040798088016368694 0.19090537363610507 -1.3658981351437467 100 81 52
-0.047052938210019546 0.19358653367660703 -1.3679635499682736 97 80 48
-0.05278696273069733 0.19605574782141144 -1.370274210826463 117 96 64
-0.05534491779737866 0.19723500217649415 -1.374173274840481 108 87 56
-0.055717876423575174 0.19752713970578203 -1.3791768579000745 96 76 46
-0.05906748129353889 0.19902771790968118 -1.382672458976407 101 82 52
-0.06279326913443595 0.2006808258745123 -1.385970447439783 113 94 61
-0.06895112154771199 0.2033207142250788 -1.3880151491029271 110 90 60
-0.07456846877302226 0.2057408398086005 -1.3903214313793164 115 92 60
-0.0796101540967794 0.2079270231026375 -1.3929105431848041 146 118 81
-0.08545510471843992 0.21043872810227807 -1.3950712043041158 165 133 93
-0.09130323611566254 0.21295130807641488 -1.3972148919677942 153 123 82
-0.09680695475539708 0.2153237937161684 -1.3995230337557076 138 109 68
-0.0979644404024601 0.21593349529747483 -1.4040947298422237 176 143 99
-0.09965043252628442 0.2167575556167088 -1.4083912621831738 170 138 89
-0.10462044992880348 0.21891296672340518 -1.4109548074931544 160 127 78
-0.11242847288400981 0.22221841677079737 -1.4120024849313713 170 138 92
-0.11961054053388209 0.22526954580497055 -1.4133599129330632 155 125 82
-0.1231554786700112 0.22684621321606466 -1.4166380774966558 144 119 79
-0.12526394161517762 0.22784066669412495 -1.4206792965185386 127 100 61
-0.12791590604922587 0.22905528417771576 -1.4244273383335941 153 122 79
-0.12910069337356034 0.22967549843468912 -1.4289641310329604 117 86 45
-0.1303388086795731 0.23031738510126404 -1.4334747429569161 120 95 55
-0.1349951714634655 0.2323436292653069 -1.4361296135335657 98 75 39
-0.13670215721549678 0.23317532243794034 -1.440382670664381 81 57 25
-0.13938929827997915 0.23440386233781715 -1.4440996683950795 89 68 36
-0.1416706637964888 0.23546805272307614 -1.4480364309191145 96 77 46
-0.14294850989871383 0.23612601825300733 -1.4525250405210093 82 63 32
-0.14361072577431022 0.2365349004637216 -1.4573567646978005 77 53 24
-0.1446499121161292 0.2370964534094837 -1.4619838825726106 95 72 43
-0.14439368938119412 0.23713398062298122 -1.4673365010596597 109 88 60
-0.1464598065345759 0.23811121851400932 -1.4713982759860633 77 56 27
-0.14203349273371074 0.2364623350014872 -1.4791046982693175 80 57 25
-0.14205038465922964 0.2366111100314722 -1.48433262249811 91 66 33
-0.13405467089929696 0.23351996511798334 -1.4940990302415766 114 89 46
-0.13831181185696445 0.23538401307256135 -1.4969516257728976 162 136 84
-0.14964382550184563 0.24010795693297712 -1.4957655590660819 147 119 69
-0.15823253827730244 0.2437219883727597 -1.4961093303186637 151 121 80
-0.1553168238529627 0.24268565521480454 -1.5030241473245254 125 99 62
-0.15225051030316522 0.24158898747807503 -1.5100449517051167 76 54 23
-0.14779712861054367 0.23993241462109802 -1.5178868324906298 71 50 23
-0.15436486291624135 0.24272902360435636 -1.519366686074881 73 49 22
-0.16337992399925783 0.2465136946477321 -1.5194041895429944 71 47 19
-0.1505814467716448 0.241487393672045 -1.5321439063733904 76 52 24
-0.15081856115746017 0.24172688662444677 -1.537308725149679 71 47 19
-0.14698694887681096 0.2403237069621152 -1.544871444509757 66 45 13
-0.17556939783958808 0.25215037449489613 -1.5386174914347346 141 118 74
-0.17751092437933635 0.25307718455631456 -1.542748019120373 156 130 83
-0.1601194334204732 0.24620205539287837 -1.5583981385824601 137 112 73
-0.17045281101997756 0.250516029610877 -1.557550118207676 58 37 15
-0.17618727487166125 0.25297366205334815 -1.5594266325561623 44 26 12
-0.172294018527422 0.2515471588612391 -1.5670833945971963 59 39 17
-0.17529024001295995 0.25290004779013286 -1.570602132434528 74 51 25
-0.1781429494558816 0.25419493739371235 -1.5742032715806606 83 60 34
-0.19016036330077224 0.2591851146067086 -1.5722264172177247 134 113 78
-0.19055539497252333 0.25948842534921396 -1.577300441495979 87 67 36
-0.19338625665738068 0.26077380543642237 -1.5808890378266154 64 46 22
-0.19679896296457838 0.2622935919209186 -1.584116182024595 87 69 44
-0.1976358115041909 0.26277514521561196 -1.5889249225889222 99 85 55
-0.2014495404151873 0.2644563182397862 -1.5918965792149564 127 107 82
-0.20678659215348638 0.2667509935365143 -1.59391471570116 113 92 62
-0.21257861879987805 0.2692285533940335 -1.5956350808039976 140 119 83
-0.21953862589648282 0.27217609700885537 -1.5966092931697953 128 110 71
-0.22570331559376772 0.2748027784881393 -1.5980608022144027 138 121 82
-0.2313758492079741 0.2772308018864258 -1.5998038674180834 143 122 83
-0.23716717221278405 0.2797062165772668 -1.6014559767138288 140 116 76
-0.2434678700677787 0.28238622872373487 -1.6027690270074753 152 123 87
-0.24890368903804583 0.28471763248633347 -1.604612838069515 166 137 93
-0.254087346278168 0.2869471498977285 -1.6066022809473655 155 129 83
-0.2585647080389789 0.2888920927603189 -1.6090293460376932 154 127 81
-0.2627769879540811 0.29073008813781653 -1.611615381116557 166 139 95
-0.2638418159309807 0.2913017272811308 -1.6162175672354586 160 133 93
-0.2673842469914152 0.29286994681141315 -1.61922284623529 98 76 37
-0.2693280655031818 0.293795101503575 -1.623256799821445 107 88 51
-0.2701111844584865 0.2942535451685754 -1.6280449097863245 99 80 46
-0.27119847231077615 0.2948343950625474 -1.6326391354148289 82 63 31
-0.2709108952377242 0.29486267906828945 -1.6381362588671116 70 51 21
-0.2723087150795245 0.2955685895835265 -1.642536001624484 76 58 29
-0.27219451253245003 0.29566694074635236 -1.64793354535659 104 83 49
-0.2724656060780882 0.2959203294568348 -1.6530848807682874 122 99 58
-0.25442467785057793 0.2888172816016614 -1.6703825946181239 120 96 57
-0.23630266733827432 0.2816839795405811 -1.6878196479142722 114 90 54
-0.21241776713625976 0.27223851121142606 -1.7091878238482348 112 88 52
-0.20950105806212033 0.27121608578510686 -1.7166312132640524 108 85 51
-0.21086671764297704 0.27191361068001363 -1.721219585081681 106 83 49
-0.2088675263214136 0.27126039452036466 -1.7280771674465896 110 87 54
-0.21051444189161694 0.27207113446739295 -1.7324873534359084 112 89 56
-0.21067063822273513 0.27228363723123683 -1.737909404412753 103 80 46
-0.20806882620562422 0.2713896418061542 -1.74521503607691 104 81 49
-0.20865847775570834 0.27177662524089474 -1.7503624878154158 109 86 54
-0.20826596247723117 0.27176976675564246 -1.756188021546255 104 84 49
-0.2079645527630959 0.27179972196777047 -1.7619610254129725 99 78 44
-0.20697827218910025 0.27155528310754756 -1.7682155043058143 79 56 25
-0.20587188629395242 0.2712630286931622 -1.7745656635158082 69 45 16
-0.20931172819512228 0.2727937814636846 -1.7777772137022656 89 66 34
-0.20883475573288107 0.2727542783937589 -1.783706151031954 108 85 50
-0.2070616927976645 0.27219559287848816 -1.7905498493883885 104 81 47
-0.20610180866456407 0.2719632173496655 -1.7968406598955187 108 85 52
-0.207134683375923 0.27252963689959075 -1.8017450898929996 117 96 59
-0.20573398459273595 0.27212123323283743 -1.8083673711933252 97 77 43
-0.20364920281476212 0.271439213682176 -1.8154876401075697 76 57 30
-0.20272405364176022 0.27122210411543557 -1.8218038206564624 70 50 23
-0.20969683953428703 0.2741679595490748 -1.8225178464040837 87 68 38
-0.2154694296613801 0.27663267843827016 -1.8240654033132615 87 68 34
-0.22153101426500904 0.27921262328133983 -1.8253891325379725 95 74 40
-0.22474526342205747 0.28065240622742316 -1.8287376591516042 94 71 39
-0.22265591126379886 0.2799695557793418 -1.8358980476807 93 70 38
-0.22124584914557094 0.2795589982931772 -1.8425858602837657 89 66 34
-0.23030093781694994 0.2833356832658417 -1.8417088146764133 82 61 30
-0.23143942502402015 0.28394475416030274 -1.8465514546446364 85 64 33
-0.23065490067468591 0.28378480615285684 -1.852799034164821 82 61 30
-0.23106669975402827 0.28410358775467526 -1.8581842392331689 86 66 34
-0.23186823032981113 0.2845783804178753 -1.8632904689220118 93 74 41
-0.23129294834907166 0.28450290192545036 -1.8694144292760373 94 73 41
-0.2354154309501429 0.2863054671431732 -1.8720837842179279 96 73 41
-0.23404159856842477 0.28591117461846693 -1.878810679534185 95 75 42
-0.23175643678959268 0.2851531322305586 -1.8862289889992825 93 73 40
-0.23382577060592147 0.28613533639534927 -1.8904241959125727 96 76 43
-0.23771580856068036 0.2878448279443463 -1.893259009836547 95 74 44
-0.2377127735194196 0.2879991784285362 -1.899001252232653 91 70 41
-0.23804359880231107 0.28828709123424523 -1.9045014394511943 86 65 34
-0.24176172315663724 0.2899276761542638 -1.9074560300951275 81 60 29
-0.24137869132996903 0.28993079210687644 -1.9135027383906347 83 63 30
-0.24281811004768722 0.2906616337482603 -1.9181781809863514 82 62 29
-0.24486058198792204 0.2916332104235793 -1.9223972439933468 85 64 33
-0.24595842825739528 0.29222783964478954 -1.9273363902000236 79 58 28
-0.24531796960916452 0.29212904561603137 -1.9336093950473345 74 53 26
-0.24489991653512116 0.2921192915163087 -1.9397235713619583 71 50 23
-0.24471617503003829 0.2922032850176478 -1.9456682438486768 71 50 23
-0.24555804404688147 0.292696537112212 -1.950830899518018 69 48 21
-0.24382475898585587 0.2921631678702628 -1.9579927094454093 71 50 22
-0.24348335174659352 0.2921851384041159 -1.96409050639067 81 60 28
