ply
format ascii 1.0
element vertex 688
property float x
property float y
property float z
property uchar diffuse_red
property uchar diffuse_green
property uchar diffuse_blue
end_header
-0.33445872885227795 0.2415416618750769 -2.0931695294139367 82 60 24
-0.33320395509040124 0.24135678890415316 -2.1002105426628814 96 75 35
-0.3389784775402263 0.24297177574975634 -2.1015345021361727 82 61 24
-0.35909751599707107 0.24825782469720367 -2.0911093377293013 113 88 52
-0.36161685591578935 0.24903827179887217 -2.095034618053824 141 116 75
-0.3647000667888249 0.24996292870988693 -2.0984937877153724 144 120 80
-0.36778067675340215 0.25088680794908835 -2.1019501426955105 133 109 75
-0.37417805066435433 0.25265878933494595 -2.1026577496428396 89 66 34
-0.3758544643759346 0.25322323839549504 -2.1072612812578244 80 58 22
-0.37746837934620897 0.2537717481281762 -2.111918448979511 81 58 24
-0.37630315559419525 0.25361002347282857 -2.118896291733723 81 58 24
-0.37667851053562057 0.2538422919769546 -2.124600239578053 76 53 19
-0.37443619263601485 0.253406007798332 -2.1325084641936036 80 57 22
-0.37425216085936025 0.253495898009132 -2.1387050333955866 80 58 21
-0.3905493624874142 0.2577946693010247 -2.1310046374550637 82 58 22
-0.3902548270311496 0.25785593524836214 -2.13727653194429 84 60 24
-0.3922037711527489 0.2584901034103455 -2.141655645066444 85 61 25
-0.3923713599991442 0.2586696826779771 -2.147551060224322 85 62 26
-0.39455040410622894 0.25936267213144437 -2.151738788074036 88 66 29
-0.3932105603627967 0.2591580168331677 -2.1589372560550766 88 66 29
-0.3933316819743649 0.25932632409602485 -2.164898091237628 87 65 28
-0.3963715795481329 0.26023906743779507 -2.1683561595509624 87 65 28
-0.3972684341469397 0.2606053854006861 -2.1736588608007064 85 63 26
-0.39764900711458423 0.26084024249659254 -2.1794138431396393 83 61 24
-0.40172909351069613 0.2620179728395255 -2.1819661226530362 82 60 23
-0.4058868653563991 0.2632152692084401 -2.1844408567283256 88 66 29
-0.414992933239023 0.26567268864847854 -2.1825867859046753 85 61 25
-0.4110211665613869 0.2647990545794059 -2.1921433499996645 87 63 27
-0.4160267335032915 0.2662116665148474 -2.1938507310855724 90 66 30
-0.4190666792700917 0.2671236203413584 -2.1972733710378516 90 66 30
-0.4242597799019533 0.26858340591112334 -2.1987909521600213 89 65 26
-0.4279648533693038 0.26966424271662354 -2.201609794672469 93 70 29
-0.43100480602804925 0.2705757033387115 -2.2050105839970504 97 74 33
-0.43228793732280807 0.2710402595408249 -2.2099696211940323 94 70 32
-0.4347743660677778 0.27181085048652076 -2.213858591855607 105 78 38
-0.43871770342737804 0.27295174439049996 -2.2164416935001445 109 82 42
-0.44124020741743514 0.2737313178707568 -2.220290088040782 93 69 32
-0.4453361442303648 0.27491063496093415 -2.222720386696363 92 67 31
-0.447555312888088 0.27561294802019554 -2.2268335383741316 95 70 32
-0.4469994889030196 0.2756104399945659 -2.2334560511738943 103 78 38
-0.45115530354391564 0.27680462741121437 -2.235817283806215 102 78 38
-0.45498064500281826 0.27791467665605424 -2.2384684756457203 99 76 35
-0.4597858384098333 0.2792732204887336 -2.240216916191188 98 75 34
-0.46345127327447144 0.28034222762548433 -2.242993845282278 99 76 35
-0.46795397948931017 0.2816234627966959 -2.2449946396200855 98 75 34
-0.47285299286417753 0.2830049355728511 -2.246618501986923 105 83 47
-0.473352230797423 0.28327035787983335 -2.2522849559460454 103 86 58
-0.4696715147802153 0.28247621147631075 -2.261823875786789 114 105 88
-0.4640114933649503 0.2811810149158738 -2.2732265212631337 155 153 146
-0.4527628477050827 0.2784704533484347 -2.289863385554615 183 183 186
-0.4434247869534013 0.27624547131057825 -2.304786215707551 194 195 197
-0.46594541955156793 0.28209161506812186 -2.2899876407568662 201 200 202
-0.4704748428359708 0.28337925774320866 -2.291947576386179 204 204 206
-0.4741393022183442 0.2844476155693572 -2.2947076656357006 206 206 208
-0.4687171875610444 0.283215717353647 -2.3060219460622817 208 208 210
-0.46428346061059006 0.2822348090576723 -2.31644020303086 209 209 211
-0.49013255515160464 0.28891658111928464 -2.2982006495923177 209 209 211
-0.4859539943665889 0.28799995996512606 -2.3083651022667513 210 210 212
-0.4854397415776842 0.2880107476992993 -2.315070821849703 211 211 213
0.1685528019932968 0.06229700208438618 -0.08095630010736794 176 176 176
0.12214000178376522 0.09379172162676347 -0.8879891580673386 176 176 178
0.11585988715142942 0.09557567089714111 -0.890950744747237 176 176 179
0.13751838376655778 0.08992268619552138 -0.9021508163240717 175 176 176
0.11792624944187363 0.09524989423563647 -0.9011764172291474 156 153 146
0.09612419180956971 0.10116386543178373 -0.8994863509092533 121 107 91
0.0827221435214045 0.10484141027574463 -0.9002543373095273 132 113 88
0.06110096938084242 0.11070462935509451 -0.8985059931656789 141 121 94
0.0571022182240461 0.11187897063444364 -0.9020401583769989 135 114 84
0.04601803343966443 0.11493756069383766 -0.9034073127351008 121 100 71
0.040142600561202335 0.11661037359250563 -0.9063418072083488 88 69 46
0.03569364954802745 0.11790362015682881 -0.9097032251361282 85 66 43
0.035737046956251683 0.11800242287639551 -0.9144479609699079 93 74 52
0.03286331802042436 0.11887676015877888 -0.918290881152598 99 81 57
0.03111803545590497 0.11945112309775634 -0.922483920783902 87 69 47
0.028080248149775888 0.12036895751177554 -0.9262710326605165 69 52 32
0.023783095348854033 0.12162131284791784 -0.929656445795664 84 68 45
0.019151463701527704 0.12296234636852663 -0.932927954737437 97 82 60
0.01840653517058516 0.12327080262425653 -0.9374320972686302 87 72 51
0.016222115214741373 0.12396164752671995 -0.9414780080813047 82 67 46
0.015960895280283993 0.12414178434086164 -0.9461435742136051 87 72 53
0.015448003093184504 0.12438886762821401 -0.9507329655997745 85 70 51
0.014574739960588945 0.12473172480676122 -0.9552095450457655 85 70 51
0.015179760042087764 0.12468228528075308 -0.9601737129069355 90 75 56
0.0173767267645909 0.12421055256156392 -0.9656701087875323 97 79 57
0.01991423542997256 0.12364877105878343 -0.9712926304409386 98 80 58
0.022744132981602716 0.12300975596951648 -0.9770269676319313 100 82 58
0.024262380101858105 0.12271905373329824 -0.9823387979343978 86 66 42
0.03168960543746635 0.12086133477677623 -0.9896453882113277 67 46 21
0.04067205556509773 0.11859188878465128 -0.9975073054038688 60 40 16
0.048348533799029425 0.116669572950387 -1.004962491743551 60 41 19
0.06274587127822734 0.11296614574078258 -1.0147384024919344 50 35 14
0.07625654099663826 0.10949901668977233 -1.024264753105201 49 33 11
0.08179968208651262 0.1081448370667599 -1.0311022979359434 53 36 13
0.08036986338539681 0.10863912135998298 -1.0355553407186406 57 39 15
0.08426118804366095 0.10772351358992069 -1.0418576687021914 58 40 17
0.08738870513697816 0.10701071580905838 -1.0479130388148017 62 44 22
0.08840618192374677 0.10685724573701483 -1.0532458439241712 68 50 25
0.09096318334674608 0.10629626236188322 -1.05913082708426 63 47 24
0.09090993127797187 0.10642686392865316 -1.0641074215853779 58 43 25
0.0912144426899768 0.10646289040138426 -1.0692177012450224 56 44 28
0.09107095574462837 0.10661769812402738 -1.0741756921508419 47 36 23
0.09253243034665753 0.1063478222125718 -1.079715800332616 50 41 28
0.09386929163431257 0.10611119696492777 -1.0852225951072914 49 39 28
0.09559394569375596 0.10577221578386681 -1.0908810465784942 49 43 31
0.09633592820826897 0.10569352246376099 -1.096194505502021 39 32 23
0.09690305347664663 0.10566130215074554 -1.1014533171685217 29 22 16
0.09567324766413138 0.10610457648775737 -1.1060610098577404 29 21 16
0.0959933244501402 0.1061380268452575 -1.1112430802797413 24 17 14
0.09246518672609394 0.10718921965101555 -1.1150070674350192 21 16 12
0.079507507769294 0.11073331567243655 -1.1152559141141798 20 15 11
0.08050147995386081 0.11058850437271256 -1.1206847896900043 20 15 11
0.08715077328749282 0.10894919890384294 -1.1282481094146868 24 18 12
0.08174162924770861 0.11049721141804442 -1.131290956756455 25 19 13
0.08310922215060695 0.1102543640147203 -1.1368907819123981 24 19 15
0.08331645804913707 0.11031833601423371 -1.142060362002344 14 9 7
0.08443763008156241 0.1101410714575366 -1.147587028708094 15 10 5
0.07977977558505978 0.11149034043664827 -1.1509046290595883 57 49 37
0.07706111247861819 0.11232732270178827 -1.1549614351628414 93 77 56
0.072502786253616 0.11364997215176106 -1.1583029703261838 140 122 87
0.06646366136867365 0.11536333277962738 -1.1610594776055208 125 106 69
0.06814789995040632 0.11503780622939128 -1.1668216357227887 98 78 39
0.06385342278037115 0.11629040734327187 -1.1702489162883163 104 82 46
0.059163490478637115 0.11764717473146666 -1.1735124488629571 108 90 57
0.054499236359672854 0.11899695372595942 -1.1767769859825947 99 80 49
0.05206083007352963 0.11975936898153008 -1.180917895980618 105 84 52
0.041083341673307905 0.12277391342321509 -1.1816456955307733 104 83 47
0.0386462801532913 0.12353556299968002 -1.18576951937025 109 91 56
0.033106717280274756 0.1251152059745069 -1.1886416038719088 98 82 50
0.03543351245297438 0.12462078184293096 -1.1946851508639347 99 83 50
0.030983694609116152 0.12591293091968722 -1.1979893595746136 111 92 53
0.025933824174262543 0.12736302421387694 -1.2010401798275987 101 83 42
0.02054920490075801 0.12890107941826603 -1.2039432211733418 91 76 32
0.014463282698120139 0.13062362937989883 -1.2065458175646646 116 102 59
0.008914218630880655 0.13220442650966305 -1.2093561432317919 105 90 49
0.004279041864015731 0.1335442323987851 -1.2125335027126032 116 101 60
-0.009107457386436202 0.13718842098131606 -1.2120532545055132 113 98 58
-0.018481161352847386 0.13977510372372587 -1.213213115138764 109 94 51
-0.026898809910496924 0.1421094911877115 -1.214749040405845 103 88 46
-0.0378205253154994 0.14510247347319982 -1.215205306778361 102 87 47
-0.047692300216143624 0.14781840088595422 -1.2160752502344983 99 84 47
-0.057022138327001926 0.15039107630559423 -1.2171481051697572 92 79 41
-0.0608648982657819 0.15151951273794334 -1.220540380022746 91 79 41
-0.08233323000465304 0.15728430690759534 -1.2163612478344028 95 78 47
-0.08868512429859038 0.1590716477078753 -1.218627802138124 121 99 70
-0.09103673791411526 0.15980665751879725 -1.222609827798368 125 103 72
-0.0924379045540038 0.16029173088545154 -1.2270033950312833 116 95 63
-0.09362358823373523 0.16072020101019802 -1.2314929126001686 140 116 84
-0.09590289400002866 0.16143619231252918 -1.2355060797061428 99 76 42
-0.0831350465352137 0.15819764428793381 -1.2461362333697532 90 67 36
-0.08691845001898674 0.15930943215022367 -1.2495096249378512 73 50 22
-0.0835175959987553 0.15853358526059358 -1.256061955408315 72 50 23
-0.0756688369245202 0.15658979479201246 -1.2646135373250529 77 60 32
-0.06560713404930357 0.15406561177163924 -1.2741893207124253 82 67 40
-0.06386673890193822 0.1537276068142746 -1.2800739425074152 76 60 35
-0.06266255118826647 0.15353069828513205 -1.285730307819789 83 66 39
-0.06102326863796492 0.1532198370466425 -1.2915949210714188 82 65 40
-0.05925374751071272 0.1528750952673053 -1.2975317044829937 61 43 19
-0.060944938807609095 0.15343887077414597 -1.3019041093407169 67 50 25
-0.05749976035796461 0.15265493889375842 -1.30862874951946 71 55 30
-0.05300564211919401 0.15159627738202486 -1.3158550544788257 77 61 38
-0.04763720708986724 0.15030882452527677 -1.323508191234008 61 45 22
-0.04305057394445 0.14922703174714808 -1.3308258869892577 69 51 24
-0.04673071557450742 0.15031351990845965 -1.334323522853938 129 103 57
-0.05728832176090143 0.1532029920814299 -1.3346046476408624 195 167 106
-0.06277877029326967 0.15476345193502622 -1.3372292451899326 210 186 124
-0.08008242411023803 0.15941978527697293 -1.3342836776495206 187 162 103
0.04388281277736167 0.12705509677858678 -1.3979989127068166 178 150 93
0.03279930132170117 0.13008510710533414 -1.398148469302009 168 137 83
-0.059362132578514526 0.15435402641044904 -1.3596783119383837 159 129 79
-0.07082659836566346 0.1574788161937344 -1.359431407528688 135 109 64
-0.07477212057671834 0.15863373010792753 -1.3627557901546705 136 110 72
-0.08388883515032303 0.16114249136756814 -1.3635834814816432 123 97 62
-0.09153601783553073 0.16326592562377057 -1.3650951496165056 109 89 57
-0.09491568005767131 0.16427184158015468 -1.3686561739872993 109 88 56
-0.09955882881288264 0.16560830358047596 -1.3715968065145445 126 106 74
-0.10330180171902126 0.16670899121782956 -1.3749676237430923 119 96 66
-0.11550987295655851 0.17002419046489303 -1.3741785784643752 117 94 62
-0.11764985453523907 0.1707048986401662 -1.3783101559655617 114 91 59
-0.12096532063107035 0.17169302457454855 -1.3818600193905763 94 72 41
-0.12474081950235621 0.1728013297859624 -1.3851766311158438 94 75 44
-0.1263876257779285 0.17335293257793 -1.3895467760022724 85 66 36
-0.13063451572268586 0.1745842419546353 -1.3926182726322984 94 75 45
-0.13467209869495955 0.1757606484469474 -1.3957863160305595 126 105 75
-0.13928413722192895 0.1770869912228678 -1.3986573081171099 119 98 64
-0.146383737457158 0.17906304273893564 -1.400260868125294 129 108 71
-0.15291606057333873 0.1808904550162146 -1.4021330445338611 124 102 67
-0.1588996831773528 0.18257415353699885 -1.40426752787075 148 125 82
-0.16016491272762146 0.18302531773033154 -1.4087987606965902 153 123 85
-0.16192814062366356 0.18360657035661634 -1.413077106305879 141 113 78
-0.16614913000387882 0.18482945499574144 -1.416090621762897 136 111 73
-0.1735380969238305 0.18687902263372314 -1.41745835017831 129 105 73
-0.1703234740527434 0.18616090832165275 -1.4243056613613112 109 89 56
-0.1731285226743428 0.18701392932201433 -1.428038721495705 103 83 49
-0.1783268354664258 0.18849123070716967 -1.4305181151658073 77 58 28
-0.17995627123125474 0.18903735364517585 -1.434856676372132 75 56 25
-0.18616697023805856 0.1907782606873008 -1.436785417211743 81 62 29
-0.1883429014602518 0.19146673517084745 -1.4408290794187149 83 64 32
-0.18971790992820248 0.19194638683525111 -1.4452964501138807 76 55 26
-0.1901414658003398 0.19217808569950762 -1.4502721945258714 79 58 28
-0.19047760844781547 0.19238713966284443 -1.4553004498318431 88 67 36
-0.18886650291441903 0.1920889450628645 -1.4613782797103043 77 56 24
-0.19318630036289308 0.1933362145419461 -1.4642804710023833 80 59 29
-0.19360875732330102 0.19356809428639063 -1.4692768384684383 76 55 26
-0.19461222260441186 0.19395142623115097 -1.4739644306939037 73 52 23
-0.20209212506106866 0.1960212432652164 -1.4751356881002076 75 55 26
-0.20270576821513814 0.1963029669947644 -1.480030760195783 68 50 22
-0.20386054307556956 0.19672566787516693 -1.4846348035709174 121 98 65
-0.2087677864600022 0.1981250393630819 -1.48718070578296 144 117 81
-0.2108928738748047 0.19880019988015163 -1.491248796961575 148 121 83
-0.21243794164371615 0.19932444415021044 -1.4956370684645686 136 110 69
-0.208056233993555 0.1983070563235015 -1.5033169625222196 70 46 18
-0.20704303371302624 0.19816630405073604 -1.5091450261084312 74 52 28
-0.20458053269029786 0.1976489618461198 -1.5157948228836047 75 53 29
-0.20727410408639296 0.1984725135464141 -1.5195695301890315 81 59 35
-0.22086173428828249 0.20212777394940756 -1.5172090176624429 71 49 26
-0.187071860707119 0.19346894068281845 -1.5415649013548047 67 45 24
-0.22226505632647325 0.20273836815846277 -1.52695960556249 51 31 11
-0.2186878842491134 0.20193219368171447 -1.5342759936072659 64 44 20
-0.21549573873702793 0.20122653846585511 -1.5413943587141965 126 102 67
-0.22040278741024583 0.20262478861103328 -1.5438944582759275 157 128 86
-0.2274959411994405 0.20459041877217876 -1.5451266375103154 148 120 83
-0.2262720334528735 0.20439632647395295 -1.5511346605173317 79 56 29
-0.2220554936785174 0.20342572709816018 -1.558886884991045 57 37 16
-0.22255509046068245 0.20367965174213382 -1.5639253038626735 57 37 15
-0.22610831687376048 0.20472606304406746 -1.5671905026801978 79 55 28
-0.22066435313300403 0.20343816585938207 -1.5757089432110962 99 77 48
-0.22861393001567465 0.20562505119731536 -1.576400659378803 151 125 91
-0.23475287024123553 0.20734181178327857 -1.5781342293987333 121 96 63
-0.2408587973582873 0.20904962427648935 -1.5798706569845653 78 57 31
-0.2466711515148653 0.21068094320391567 -1.5817644959268686 96 78 51
-0.2512787661037574 0.2119996344874837 -1.5843591959805767 134 114 82
-0.2570198009697185 0.21361180767305651 -1.5862671457732214 137 112 72
-0.2633138054579456 0.21536690474123005 -1.5878289328424788 155 130 89
-0.26907651960892587 0.21698395925101222 -1.589692350818572 142 121 82
-0.27349252823032094 0.21825184210576795 -1.5923519065583036 136 115 78
-0.2791916807381999 0.21985178326742735 -1.5942257498711272 144 121 85
-0.28953960767490633 0.22265502611670873 -1.5932645215654 123 98 66
-0.2942028683644338 0.22398587798956487 -1.5957291070753967 125 98 65
-0.296649994240996 0.2247428824212704 -1.5995359076121982 157 127 84
-0.3023737415725247 0.22634775337286134 -1.6013331596101326 178 148 97
-0.3077798376627145 0.22787007967463585 -1.603310285729985 172 144 93
-0.31308116434810385 0.22936497450238924 -1.605337898733259 192 164 116
-0.31836895599348164 0.2308560484508609 -1.6073601548395053 180 149 104
-0.3236432315642806 0.23234330764229097 -1.6093770945027934 142 114 73
-0.32114439547310625 0.23182058702489994 -1.6162217109824397 81 58 25
-0.3233039094545778 0.23250243555324224 -1.6201734836596564 99 79 45
-0.3256586268967826 0.23323471072200996 -1.6240019071943506 103 81 45
-0.3250886748444504 0.23321121906062747 -1.6296680966360535 94 71 38
-0.3228948175105837 0.23276843161512129 -1.6363692409359505 95 72 40
-0.3206940321451099 0.2323242494177088 -1.6430916985765076 99 76 42
-0.3052134301192522 0.22845091023659314 -1.658265696408696 88 67 36
-0.300026494931737 0.22723712131612595 -1.666952339211399 99 77 46
-0.28339001200490793 0.2230682401252549 -1.6829877397798843 124 102 66
-0.2717990553519691 0.22020344513474602 -1.6958641297883479 118 96 56
-0.2589047792831611 0.2170036242622253 -1.7096352171588731 115 93 54
-0.25327345879397484 0.21567917073626705 -1.7187798807092967 110 88 51
-0.2552918252373972 0.21632879486076984 -1.7230025693706013 103 81 44
-0.25497713401016175 0.21637668558802572 -1.7287407752935913 100 78 39
-0.25544153846283146 0.21662570273024695 -1.7339808260618295 107 85 47
-0.2587679364625513 0.21761274105991973 -1.7373560533502221 102 80 45
-0.26977839041136964 0.22058036068626163 -1.7356857556333063 97 75 42
-0.2651512111836916 0.21951696603590243 -1.7442671010371396 99 78 44
-0.2603601017787863 0.21841197755448177 -1.7529843661300806 104 82 45
-0.26093029174166793 0.21868884345024855 -1.7581799252571346 116 94 57
-0.2600120499007067 0.21858246859240107 -1.7643702150848546 79 54 22
-0.26052200681669696 0.21884417559351904 -1.7696210312148155 67 41 14
-0.2628018496857257 0.21956173034068144 -1.7736949490223226 74 51 21
-0.26366993181035125 0.21991583368940562 -1.7787144212353354 97 75 40
-0.2596197446578734 0.21900420161446818 -1.7870473258149153 101 79 43
-0.2586216475342598 0.21887855259771924 -1.7933461669166908 101 75 40
-0.2621590162220228 0.21992007441158906 -1.7965873835709967 113 90 57
-0.26279609788268027 0.22021540919503488 -1.8017916508832275 101 81 51
-0.26348285283296546 0.22052365458384282 -1.8069678987896067 57 37 10
-0.26370347975323927 0.22071217612830438 -1.812468295651981 82 62 34
-0.26928607653949554 0.22227932521983237 -1.8143007712406076 71 49 18
-0.272675072287794 0.22328229854746834 -1.8176263323697768 87 66 35
-0.2735676232297482 0.22364359927880118 -1.8226679216655193 91 70 39
-0.27248954052222363 0.2234986978048737 -1.8290777702793577 94 74 41
-0.27566572170679 0.224446936753342 -1.832548173528856 92 72 39
-0.2781582359238914 0.22521947296408804 -1.836489520940999 85 65 32
-0.27925462841588794 0.2256334659339346 -1.84140376625923 81 60 28
-0.2778958937987455 0.22541724942109312 -1.8480417873583623 84 63 32
-0.28262903972560743 0.22676502421282121 -1.8504137398618108 79 58 28
-0.282888747327329 0.22696451629040112 -1.8559269557234432 81 60 30
-0.27970611694166186 0.22628095993372616 -1.8638814951413951 86 65 35
-0.28310582542039847 0.22728647323645365 -1.867190534840882 88 67 36
-0.28612333489763353 0.22819382111937878 -1.8707654211706455 93 72 41
-0.2869356880880762 0.22853560961061403 -1.8759093628877401 88 67 36
-0.28850234432425004 0.22907090378107772 -1.8805186707719161 87 66 35
-0.29125832448019395 0.2299110946437856 -1.8842761189102522 85 64 33
-0.2930788103581212 0.2305114683890732 -1.8887039399715189 83 62 31
-0.2953488839438887 0.23122705552596115 -1.8928078751609152 82 61 30
-0.2948324300686415 0.23122879142462038 -1.8989294036473354 80 59 28
-0.2991462842861105 0.23246791896769517 -1.9015520621906583 80 59 28
-0.2998122422775651 0.2327727028615381 -1.9068233922869566 81 60 29
-0.2998313093153107 0.2329120105799309 -1.9125735695917367 84 63 32
-0.2920440502907833 0.23105338040024087 -1.924056676859447 89 67 36
-0.29512750312425956 0.23197771777255694 -1.9275879396818478 84 61 30
-0.2952609735735205 0.23214715883141693 -1.9332906811190216 81 58 28
-0.2980069068049099 0.2329850884124718 -1.9370688050551699 77 53 25
-0.2930238362924248 0.2318461891832116 -1.9465796464858705 77 55 26
-0.30804966003676953 0.23582441174962143 -1.9412279272500865 77 56 25
-0.3069157451303374 0.23566998046676724 -1.9478828756831217 78 57 26
-0.3024878871287822 0.2346739384703142 -1.9570184347830815 83 62 31
-0.3070183823503528 0.23596787509669506 -1.959454651160004 92 71 40
-0.3057735622072628 0.23578597006480081 -1.9662301174413384 87 66 35
-0.30937200862692743 0.23684159714836342 -1.9693610079788522 82 61 31
-0.3108329287671115 0.2373511499868151 -1.9741045938825486 86 65 36
-0.31159612097883854 0.23768260354377926 -1.9793809996424452 88 67 38
-0.3106023385701056 0.2375656547546444 -1.9860023807928875 82 61 32
-0.3105478073089203 0.23768875386900448 -1.9919192962698429 81 59 29
-0.3121597508058626 0.23823732819013044 -1.9965677860940518 79 55 29
-0.31713107203382757 0.23964302494874745 -1.9986346325945896 79 55 30
-0.3285498114183417 0.24269300052246306 -1.9957151447983468 79 54 25
-0.3283836526785637 0.24278755105134048 -2.001714946426709 80 55 27
-0.3213999966251162 0.24114406711969413 -2.013014107695028 78 56 27
-0.3303537945332111 0.24356428684435524 -2.0119527624220566 71 50 23
-0.33458378621298657 0.2447798369681776 -2.01454637148397 70 48 20
-0.3320596108840898 0.24427411073817545 -2.0224163910203803 105 84 52
-0.33467785043116616 0.24507894303775546 -2.0262704729741863 103 83 46
-0.33643773366472274 0.24566508431351333 -2.0307976031592014 130 105 64
-0.3259166663548414 0.24312389165474158 -2.04502266455855 149 121 78
-0.33666436589639503 0.24599902693629278 -2.042463252639381 133 105 65
-0.34324817612287833 0.2478133328597135 -2.043170580333836 87 65 32
-0.34740546769546743 0.24900962307417446 -2.0457895726217523 83 62 27
-0.3355172897464057 0.2461231291280155 -2.0612156517036544 84 61 27
-0.34361346440737905 0.24832180827666597 -2.0606965842007456 84 61 27
-0.3420731104564226 0.24806898734291563 -2.0678915880193927 79 56 23
-0.33844020377194906 0.24728446981374577 -2.0767892024878116 76 53 20
-0.3436261012823574 0.24874248548200392 -2.078587005247399 80 57 23
-0.3425543538517278 0.2486096783605479 -2.085441273425751 82 60 24
-0.34981155900744487 0.25059369299830286 -2.0855409108709004 98 76 38
-0.3520089273097335 0.2512916509217795 -2.0897402131529246 89 67 30
-0.354595989716077 0.2520885741485434 -2.0936202081019806 121 97 58
-0.3574069960563241 0.25294230684050656 -2.097314026955919 144 119 78
-0.3602467420226106 0.253803251020103 -2.100980561339451 146 121 83
-0.3659304348988759 0.2553860099105424 -2.102298654137601 120 96 62
-0.3657908336389956 0.25549051078139984 -2.1084141621945722 88 65 33
-0.3707763728821995 0.2568956451060428 -2.110290414893494 82 60 24
-0.37121177955704054 0.25714620516301473 -2.115936156289401 81 58 24
-0.3742081485264929 0.2580464481057586 -2.1194539186493495 80 57 23
-0.3716216879426706 0.25753098362419985 -2.127635658141228 78 55 21
-0.3708748537306283 0.25748238949287816 -2.134296560034975 80 58 22
-0.3835415670101023 0.2608338005509507 -2.12969007272201 81 58 21
-0.3894831708059756 0.2624799085603175 -2.1307046906180553 83 59 23
-0.3866861498331235 0.2619117254102882 -2.139091310837003 84 60 24
-0.3921256657066978 0.26343027619429105 -2.1405152369461 84 60 24
-0.3941623890686546 0.26408675708343077 -2.1448170006600193 86 63 27
-0.39094219344872533 0.2634123205516524 -2.153602439321223 89 67 30
-0.39035775961702895 0.26340562984754096 -2.160158609023292 87 65 28
-0.3910645403829978 0.2637259892990523 -2.165619820840894 85 63 26
-0.39453267675856524 0.2647451366923921 -2.168712268381923 86 64 27
-0.39568964208612734 0.2651795121436923 -2.1737912624031535 86 64 27
-0.39819175305602544 0.26595416431593755 -2.1777109737821325 84 62 25
-0.40010460664805647 0.26657977704676533 -2.182139505231416 81 59 22
-0.4081070925011973 0.26874474368823675 -2.1812718563694116 87 64 27
-0.41325027258950153 0.2701864191523617 -2.182869174021837 87 63 27
-0.4112155641803431 0.26981412319190357 -2.1907294956841183 90 66 30
-0.41590302669091855 0.2711403791267307 -2.192713634032593 90 66 30
-0.420577829956724 0.2724631351567434 -2.1946959240978945 91 67 31
-0.4251074120812919 0.2737489212600952 -2.1967933423062345 91 68 29
-0.42790984937654125 0.27459842119502265 -2.200405996975618 97 74 33
-0.43037638477261475 0.27536305577943543 -2.2043127102047317 100 77 37
-0.4329898306532846 0.2761647082664287 -2.208086572157971 98 74 36
-0.4359362142891183 0.27705028200010035 -2.2115605997424623 110 82 42
-0.43867064576630493 0.27788229244864465 -2.215219587458958 105 79 39
-0.44276479448587597 0.27905707723719714 -2.2176557718782104 89 65 29
-0.4457911797849457 0.27996244423901473 -2.2210417933276645 91 66 30
-0.4466939403638976 0.2803324607162614 -2.2263375651774253 95 69 32
-0.44652686854149254 0.280433029161429 -2.2326061025948225 100 75 35
-0.4497172494062961 0.2813796667750067 -2.235841579280732 102 78 37
-0.4535438366788782 0.2824864057979681 -2.2384928460530213 100 77 36
-0.45810797927716435 0.2837786553289925 -2.240462747849776 100 77 36
-0.461607698143188 0.28480264167678976 -2.243392891383954 100 77 36
-0.4664214925014988 0.2861571937976527 -2.245111149215414 99 76 35
-0.47129698088722044 0.28752694283550223 -2.2467586739796492 97 77 42
-0.47184267197720514 0.28780709725553577 -2.2523820972984105 98 81 56
-0.46718631119699744 0.28677903230321455 -2.2628200419987055 124 116 101
-0.45837018544788105 0.28470575258533626 -2.2771459791609074 163 161 156
-0.4486586286146969 0.282408636503343 -2.2923584393460574 186 187 189
-0.438442696540316 0.27998613247907334 -2.308100007226201 196 197 199
-0.43569527753186343 0.2794417533635978 -2.316926546845994 202 201 203
-0.4352189808244581 0.27946849112219885 -2.3236499447112444 205 205 207
-0.4008362776404478 0.2709795622116731 -2.362232592733559 207 207 209
-0.4123987282022925 0.2740318553505545 -2.357729784429128 208 208 210
-0.41151960457968073 0.2739596606072886 -2.3649276665850407 209 209 211
-0.4153475537813064 0.2750692113083645 -2.367683549759947 209 209 211
-0.5055882098671853 0.29800521095240096 -2.2945487504416575 211 211 213
0.2399259684738426 0.04736231204351356 -0.08272313653775415 176 176 176
0.12993992341324156 0.09659731650195903 -0.8898139524875082 176 177 179
0.12064292406281435 0.09917291164751955 -0.8919005979469353 177 177 179
0.1255061857789484 0.09800154619783145 -0.8981444052428433 175 177 177
0.12241535565134365 0.09893482681140309 -0.9020491353947958 165 163 157
0.07879321616527041 0.11058837787793727 -0.893856273476558 121 109 94
0.07378173617116829 0.11202787458263389 -0.8971133769926267 125 107 88
0.06876256729961516 0.11346917109728889 -0.9003584352731057 126 107 83
0.06518853652612788 0.11452816608933324 -0.9040318379159555 133 113 85
0.05255724686713975 0.1179812582755223 -0.9049397691284957 115 95 65
0.0485321144732595 0.1191588857453943 -0.9084501349923213 88 69 42
0.04478625402524322 0.12026255139218006 -0.9120398459460689 80 62 37
0.042212708087344564 0.1210563205421378 -0.9159866830416876 87 68 45
0.04030022959581242 0.12167539421098146 -0.9201371951910278 86 69 46
0.03838771287937598 0.12229448021922416 -0.9242877888757015 93 76 53
0.034540183891556164 0.12342462857321365 -0.9278301441356321 98 80 57
0.03343634067849033 0.12383009512239057 -0.9322333426800997 94 76 52
0.03181062052483569 0.12437342004259705 -0.9364734889160413 91 76 52
0.03018292366851527 0.12491729122308917 -0.9407140222816063 87 72 49
0.028642870038449453 0.12543805265411606 -0.9449836886509085 90 75 54
0.02807472379431808 0.12570234102273392 -0.9495680530387587 90 74 54
0.02751968124733567 0.12596327842097552 -0.9541611181816733 82 66 47
0.02709629810318165 0.1261895867879227 -0.9588015705973245 83 67 49
0.027487781015920365 0.1262010507548852 -0.96371369409099 97 81 62
0.02919066484203875 0.1258667987205129 -0.9690648163184938 99 82 61
0.03158527625393581 0.12535040723169827 -0.9746565101894679 100 83 62
0.034496485261229004 0.1246981371197783 -0.9804340052166806 111 94 72
0.03489634815909681 0.12470835226014698 -0.9853889749802489 107 88 64
0.0392711079887329 0.12367094624617686 -0.9916851870739287 73 52 26
0.04643225859510075 0.12189963856681868 -0.9989415198347451 63 42 16
0.049480197966328576 0.12121299174467583 -1.004834358920801 64 43 19
0.06528370009622492 0.1171658055459098 -1.0150858274270782 64 45 24
0.06933092666071689 0.11621719277372802 -1.0213744567393146 58 40 19
0.08021818237856831 0.11346733270063561 -1.0300339043795121 55 39 16
0.08392939768887037 0.11260843939345509 -1.0362575436818746 56 39 16
0.08619199516122839 0.11213146210502743 -1.0419973517732093 58 41 18
0.08384857789183658 0.11286754011612724 -1.046145316796628 61 44 21
0.08982938079511316 0.11141223829304728 -1.053208264530833 69 52 29
0.09082405901256418 0.11126997139222922 -1.0585426912747846 62 47 27
0.09185410718478776 0.1111186351803819 -1.0638995920758298 50 37 21
0.09423848678481633 0.1106111751086239 -1.0697477898018062 54 43 31
0.09354106674477025 0.11091485905076784 -1.0745105280247673 35 26 16
0.09527138269799873 0.11058003036037811 -1.0801483168553976 37 30 18
0.0971329312134469 0.11021098594736373 -1.0858458912094715 47 39 29
0.09885444292926548 0.1098790780769498 -1.0915057420732872 48 41 30
0.09752099738895642 0.11035071193824356 -1.0960671875116934 35 29 20
0.10080773655059194 0.1096077994892054 -1.1023188046424568 26 19 12
0.09742477280067158 0.11061844596945217 -1.1061404430812931 30 23 17
0.09009609381685618 0.11266595520635103 -1.1085027956005407 24 17 12
0.09528442164238388 0.11142395070203179 -1.1154831784710324 20 15 10
0.09395824683225124 0.11189407717571406 -1.1200641255174808 19 16 10
0.08797578188567562 0.11358741381118037 -1.1229071907998438 20 15 10
0.08596719205230935 0.11423669978667758 -1.1272287961884602 24 17 11
0.08458382002371762 0.11472180020027128 -1.1317862354137673 29 21 16
0.08383049829912481 0.11504152243071977 -1.1365845175932758 32 27 23
0.08323542272719459 0.11531980434918743 -1.1414473264115086 11 6 3
0.08309840225194232 0.11547797009507604 -1.1464900681094061 17 10 3
0.07974196791686633 0.11648120716284804 -1.1503032574627083 66 56 41
0.07710341994110648 0.11729595965078354 -1.1543887466475362 97 80 59
0.0728456644936023 0.11853548155380794 -1.1578449878529746 130 112 78
0.06883624648296921 0.11970967625666595 -1.161390213927197 113 94 60
0.07099374910242479 0.11926624420635118 -1.1673383296942874 105 82 47
0.06751470029305012 0.12030128234786391 -1.1710886678212509 130 105 67
0.06339301065726544 0.12150470030468641 -1.1745807090944624 116 98 60
0.05872062822938745 0.12285231357033 -1.1778475330737899 113 94 58
0.05437847159030795 0.12411315081995236 -1.1812365447570352 126 106 69
0.04469498079522738 0.1267736246399809 -1.1824845996166018 118 97 60
0.04239260601357819 0.12749936634716624 -1.1866664615455462 111 91 57
0.03766502767568142 0.12886046782924812 -1.189870498446131 104 86 51
0.03087419974446759 0.13076181328398404 -1.1922305408855447 99 81 45
0.033393212310319775 0.1302244321248142 -1.1983561032292063 113 95 55
0.03248176098698652 0.1305857538424571 -1.2030978157138996 103 87 45
0.026378447683855333 0.13230652974961962 -1.2057161688088607 109 92 49
0.02043766619292048 0.13398441628904734 -1.2083871718638328 121 102 60
0.01213148513037049 0.13628109933191387 -1.2100671162476562 116 99 59
0.007029650667113252 0.13773867700247455 -1.2130547032051986 114 97 54
-0.003224372246229512 0.14054410887227625 -1.2138846328847985 113 97 54
-0.011874518737948647 0.1429292480302919 -1.2153568189804942 111 95 52
-0.021560666745487567 0.14558481994515604 -1.2163703924455103 103 88 46
-0.032475715665732874 0.1485611422382222 -1.2168384649218589 100 85 45
-0.03739577135282479 0.1499690794995786 -1.219815218727096 102 87 47
-0.04949566544594697 0.15325392475744562 -1.2197269671208728 92 80 39
-0.05253654698620286 0.15416983504412946 -1.223473186292496 86 74 38
-0.06458706678713705 0.15744044736418528 -1.2233507320768933 91 74 42
-0.07900172695322805 0.16132800650237114 -1.2221743591551255 110 88 58
-0.09086655065635874 0.16454829114092376 -1.222056785612696 125 104 73
-0.09250790053671765 0.1650969895005193 -1.226343946645691 122 100 68
-0.09953893590155166 0.1670534674637915 -1.2282820220987931 140 117 85
-0.10335545827533077 0.1681700379176149 -1.2316094448181825 128 104 71
-0.09060291126961945 0.16496011880748018 -1.2422140135305606 102 78 48
-0.07633460160445887 0.1613557401494564 -1.2535399286239457 76 53 25
-0.07323776117872005 0.16066876291832144 -1.2599728695461034 78 57 29
-0.07037200715667769 0.1600425280735323 -1.2663210562096037 78 61 34
-0.055994711871172054 0.15641291267886331 -1.2778291545915859 95 81 54
-0.05560267040959116 0.15643338034224874 -1.2831230127330029 93 75 50
-0.05502715687773607 0.1564061931438792 -1.2885080040383508 82 65 39
-0.05542097208601526 0.15663203571355117 -1.2934639365575167 89 72 46
-0.054746377678525304 0.1565794110530898 -1.2989105557490928 91 74 47
-0.05152704982945394 0.15586354704216904 -1.305526420054465 82 65 38
-0.04399029031945606 0.15402266856881078 -1.314136342797627 75 59 35
-0.04331942886184953 0.15397211486380474 -1.3196270289855065 73 56 35
-0.035286742579235086 0.1520033556454905 -1.3285220953815113 64 48 22
-0.03833784769218307 0.1529233402885694 -1.33232239706117 106 86 45
-0.044492889344352304 0.15465182744627254 -1.334676368409406 153 127 70
-0.04623319189083658 0.15523008092141916 -1.3390750388795245 177 147 84
-0.05522129614784099 0.15769581973663888 -1.340079938299056 204 177 117
-0.06203837816254604 0.15959566908224748 -1.342080233516854 185 158 100
-0.06080946960819006 0.1594004746623098 -1.3478608644282661 164 135 79
-0.05450898014495126 0.15788549372128619 -1.3560564297106223 153 123 69
-0.06116128425734674 0.15974212223784784 -1.3581209950001432 154 126 77
-0.066116012611314 0.16115663395795088 -1.360979149964229 142 116 71
-0.06870119454897372 0.16195443485044114 -1.364962294919944 137 111 72
-0.08144842708452843 0.16539545284048401 -1.3640535657380333 120 95 60
-0.08559898544965794 0.16659980624353637 -1.3672576284435127 110 91 59
-0.0899991407426875 0.16786887006343373 -1.3703327239243284 129 107 75
-0.09416579136798475 0.16907701437617115 -1.3735125791168366 125 101 69
-0.09825571468086669 0.17026502167054053 -1.3767218758544861 119 96 66
-0.10635167197373918 0.1724939734808811 -1.377958874440424 111 88 56
-0.1144544314753218 0.17472415023517507 -1.3791699016700365 108 85 50
-0.11823245202803506 0.1758302074186727 -1.3824950658152277 116 93 60
-0.12258056047311922 0.17708418869179832 -1.3855308050497004 101 81 49
-0.12579915818388365 0.17804461001530855 -1.3891200038325104 95 75 43
-0.12940455196187056 0.17910535875170447 -1.3925112953389904 97 78 46
-0.13271445074066235 0.1800892440541134 -1.3960447001038503 86 66 40
-0.13544480034552098 0.1809225709062905 -1.399864853657814 128 107 78
-0.14165018611489805 0.1826577189498949 -1.4019263269221791 124 104 68
-0.14778678475782486 0.18437463715011293 -1.4040068266222052 122 101 65
-0.1549558187794733 0.18635903948045057 -1.4055461628711339 130 107 66
-0.15492242936969636 0.18647467225483966 -1.4107456454935634 155 128 89
-0.1611342317958661 0.18821019918206022 -1.4127502379558396 133 106 70
-0.16341071165625304 0.18892487901716806 -1.416764175257311 136 111 74
-0.16853466690759372 0.19037777638722528 -1.4193060662513264 91 68 38
-0.16805659945593748 0.19037824100242234 -1.4247402733623842 80 62 34
-0.1692909219447266 0.19082273130646926 -1.4292926889223283 102 83 51
-0.1726089353969183 0.19180722874995973 -1.4327597059328139 86 67 38
-0.17550173273973263 0.1926814367094316 -1.4364444275722126 93 74 43
-0.1787270876943502 0.1936417039814966 -1.4399506672155835 101 81 49
-0.18718015404258026 0.19595578456553814 -1.4406923029449996 72 52 20
-0.18836867755078773 0.19638815383996233 -1.4452580759033324 76 55 26
-0.1889280669539803 0.19665771045031316 -1.4501612835465076 71 50 22
-0.1898603403578542 0.197023916953062 -1.4548708251962839 78 57 26
-0.18881201672883346 0.19687762331471792 -1.4606449727207942 79 59 25
-0.1888907494604276 0.19702324452830539 -1.4658248679948187 86 65 34
-0.1915200413116246 0.19782890824116145 -1.4696362411668096 70 49 20
-0.19897002240963246 0.19988147618297195 -1.4708355864711993 75 54 23
-0.1979919256563773 0.1997538377941504 -1.4765921374944142 71 52 19
-0.2017502491728192 0.20085120120777106 -1.479777914404548 90 72 37
-0.2049540651653734 0.2018050402776114 -1.4832600920220174 136 111 70
-0.20425000269128035 0.2017486364580528 -1.488882909850651 148 118 76
-0.20464874032174335 0.2019774849973949 -1.4939084221240815 150 120 79
-0.20408739076958682 0.20195839936058319 -1.4994707788086556 107 81 43
-0.2026866907565451 0.20172270566320843 -1.50550859372482 67 46 20
-0.20235062376568203 0.2017623183116517 -1.510966704826129 72 50 26
-0.20513578356880913 0.20260820854831843 -1.514689879291319 76 54 30
-0.21101936016206918 0.20425404954549553 -1.5166726783604096 79 57 33
-0.22686410333540102 0.20847108353586624 -1.5130358798456118 69 46 24
-0.17804058594168848 0.19599518318658476 -1.545854419817331 61 40 20
-0.2215539847437551 0.20735295029045397 -1.5265605268514402 52 33 17
-0.21780728694749657 0.20651287071157493 -1.5339704953873654 73 53 29
-0.21629931479702014 0.20625085340744026 -1.54012576887061 129 104 70
-0.22133929893209658 0.20767803474280366 -1.5425465318764942 139 110 66
-0.2274127406525191 0.20937142954696158 -1.5443615732999507 143 117 79
-0.22324286587998093 0.20842341121790264 -1.5520641638234667 63 43 15
-0.2193788981483915 0.20755483023869903 -1.5596140281795783 59 39 18
-0.22382348972903987 0.20882820175520006 -1.5623654246611798 63 41 20
-0.22344628211906703 0.2088588240221716 -1.5679146622580675 83 61 34
-0.2271030312599303 0.20992897416563383 -1.571116267559357 108 84 53
-0.23008218664707247 0.2108244206841065 -1.5747083937160105 139 113 79
-0.23355477246059775 0.2118468502608319 -1.5780062221474234 105 83 55
-0.23661918182121827 0.21276403173285288 -1.581538955211114 74 53 28
-0.2412048970599976 0.21407276520082663 -1.584166326487393 100 82 50
-0.24745018178373496 0.2158084208819155 -1.5857970498036047 132 114 78
-0.2536753527101878 0.21753848889895883 -1.5874226151099793 130 110 74
-0.25939134048879664 0.21913713159455966 -1.5893356817460271 145 124 82
-0.265045964072078 0.2207196257665484 -1.5912704793496464 166 144 102
-0.2719208986079046 0.2226156365868265 -1.592455460561393 159 136 95
-0.2783373366097866 0.2243932648943314 -1.593897659371358 146 121 80
-0.2844548345815149 0.22609359991594452 -1.5955030689789096 120 99 63
-0.29223902152845127 0.2282219745963855 -1.5960777834494138 149 126 94
-0.29286115739866564 0.22850903122229563 -1.600999954137236 157 132 87
-0.3031063706718868 0.23126901859957988 -1.600034862620171 182 155 100
-0.3095229695073245 0.23304456026541243 -1.6013882374275705 172 145 93
-0.3142883075711674 0.2343955076176719 -1.6037412130261712 169 141 97
-0.3176865605394596 0.23539508321439379 -1.6069280786009696 185 155 116
-0.3214432151553766 0.23648654180839096 -1.6098865574517258 166 140 101
-0.3179441393439048 0.23571511399496914 -1.6173542621167791 85 62 30
-0.32006115948676356 0.23638571824621135 -1.6213365941068079 103 81 49
-0.319688938438969 0.2364175041475424 -1.6268778689856287 104 82 45
-0.32508983412728887 0.23793075310265477 -1.6287993452045075 95 72 38
-0.32604709249363234 0.23830375237246776 -1.6335091182227361 93 70 38
-0.327033277308455 0.2386842657221609 -1.638204554402008 96 73 40
-0.30765244926630786 0.23384221543902678 -1.655832854980962 88 67 36
-0.2927105756379421 0.23014032010970947 -1.6707219499398822 110 88 57
-0.28164070552608605 0.22743259981960923 -1.6832067951752065 121 98 62
-0.26837864944056733 0.22416435978840077 -1.6971506376941492 123 101 60
-0.2553056056672915 0.22094606162712538 -1.7110359520334937 114 92 52
-0.2517176837519991 0.22015915208437414 -1.718864463656849 108 85 46
-0.24896800910175498 0.2195874973588271 -1.7261735890564127 106 83 46
-0.24924142988336756 0.2197904686310035 -1.7315395535586873 101 78 38
-0.24953451381100727 0.21999864593223709 -1.7368998681426422 110 87 49
-0.25331378902263574 0.22109938781161873 -1.73998920029907 100 77 40
-0.2645732976516436 0.2241143648084836 -1.7381674510618925 95 73 38
-0.2620882896223659 0.22361147171422438 -1.74534583722008 101 80 46
-0.25671141619682813 0.2223692040094531 -1.754450809303325 111 89 54
-0.25706284494452053 0.22259285690842678 -1.759795534320984 118 95 57
-0.2555581282621634 0.22234200602548462 -1.7663795175538963 72 49 15
-0.2576640594945449 0.2230146722615211 -1.7705734224358602 68 43 16
-0.25936245987465806 0.22358315159966408 -1.7750391664629819 81 58 28
-0.2590150658746256 0.22362880345296182 -1.7808773770835318 95 74 38
-0.25423100256662745 0.22254100760970238 -1.789708569487628 98 75 40
-0.25509097340023756 0.2228958132886077 -1.7947616905773645 103 79 44
-0.26071678485499006 0.22446804884383717 -1.7965950969779731 120 97 64
-0.260350741163576 0.2245097533420276 -1.8024799589011817 101 81 52
-0.2611722116871187 0.22485489903854353 -1.8075663820592294 69 50 22
-0.262848853227348 0.22541846671591767 -1.8120737865557477 90 69 39
-0.26709428804045093 0.22663767698597764 -1.814822685985745 72 49 21
-0.2716164179923636 0.22792726205829397 -1.8173718660708584 92 70 39
-0.2694466649266661 0.227509369201637 -1.8245235907962394 96 74 43
-0.2688554625157917 0.22749454083243634 -1.83060158249267 91 69 37
-0.27875796322076324 0.2301560330091007 -1.8294114800395422 90 69 36
-0.2822119280854113 0.23117256962870963 -1.8326745125363835 85 65 32
-0.2768522212324744 0.22994224603447655 -1.8420830558080004 80 59 28
-0.28046139942294757 0.23099849609767958 -1.8452439113968147 83 62 31
-0.2743270121291575 0.22957183708191162 -1.855240693068943 80 58 27
-0.27648086767883634 0.23025750722854066 -1.8594339795437442 81 59 28
-0.2825270234795452 0.2319345498507995 -1.8608762725461112 84 63 32
-0.28031343309417744 0.23150780632971446 -1.8681554934571611 87 66 35
-0.2811165323568025 0.23184955375148195 -1.873308308124594 89 68 37
-0.28562095621775735 0.2331335936724014 -1.8758268318545674 83 62 31
-0.2892993882935945 0.23420716153343993 -1.8789253466091258 85 64 33
-0.2923083933756377 0.23511022336535897 -1.8824968996920493 88 68 36
-0.2951804861012486 0.23597835117787305 -1.8861626212216718 86 65 34
-0.29444760092222166 0.23592950229093815 -1.8924269018360111 81 59 28
-0.2936898203836714 0.2358746111618519 -1.8987212292560196 80 58 27
-0.2930776762303894 0.23585703729987734 -1.9049219447225507 80 58 27
-0.2930579924077372 0.23599033246384332 -1.9107026224984183 81 59 28
-0.3012965566131613 0.2382224955891891 -1.910458278150056 82 61 30
-0.28930571468693944 0.23531420974003167 -1.9250119570934106 91 69 38
-0.29220234718066196 0.23618915716624675 -1.9286840718570342 83 61 31
-0.2949543137393876 0.23702727115688618 -1.9324589800694043 80 58 29
-0.2964703651786163 0.23755148891179834 -1.9371446185413093 75 53 25
-0.29903150455683797 0.2383410694144382 -1.9410573334005814 74 53 25
-0.3031764562277001 0.23953257899571173 -1.943789378486221 72 51 22
-0.3064333162468683 0.24049850315136942 -1.9471746389568232 76 55 25
-0.303241965396164 0.23982836705558877 -1.9553802424923892 85 64 33
-0.30677524492783037 0.24086448519842696 -1.9585613664349955 92 71 40
-0.31103217585827747 0.2420839559747677 -1.961190916778702 87 66 35
-0.3152890488248496 0.24330317187971587 -1.963810496813006 82 61 30
-0.3161792963953058 0.24366874832627827 -1.968969774288755 87 66 37
-0.3147934288032861 0.24345760141355524 -1.9758630654423603 85 64 35
-0.31469499041132565 0.24357303089999996 -1.981790849839582 83 62 33
-0.31310818030910903 0.24331164644532122 -1.9888654686446048 82 60 31
-0.31041854378838657 0.24277133809858856 -1.9968015558547036 81 58 32
-0.3147311017670645 0.24400461994733044 -1.9993768972767834 77 54 28
-0.3168304252012766 0.24467734415741382 -2.0036480626626836 75 52 24
-0.32371145819098707 0.24656035369942855 -2.0042218826625837 79 55 26
-0.32235379038279177 0.24635799509193287 -2.0111621962514934 80 57 28
-0.32496330908212273 0.24715970302495252 -2.015032594342548 72 49 22
-0.32809228223890347 0.24809274076494917 -2.0184951705627254 77 54 27
-0.3289458596032573 0.24845023200602806 -2.0237326815874694 108 87 56
-0.3290132281731462 0.24860907019267817 -2.029592373530932 101 80 42
-0.329932734365704 0.24898352746849325 -2.0347905382814697 138 112 70
-0.32888218294762667 0.2488602225212644 -2.0415484300996276 143 115 72
-0.3342956599578149 0.25037052677732313 -2.043204624931857 105 79 41
-0.3427558386746137 0.25265010170101204 -2.0424269922333997 85 62 28
-0.3461312343826149 0.25364475217543225 -2.045667398268318 84 61 25
-0.3460435621738923 0.2537648116587099 -2.0516662866642252 83 60 25
-0.3440296566161949 0.2533988286486831 -2.0592171792406027 83 60 25
-0.3410349965998519 0.2527857576110477 -2.0675742843850973 80 57 23
-0.34421486210083224 0.2537313141714893 -2.070982399030203 78 55 23
-0.34366105147485904 0.25373480138295473 -2.0774005386994743 80 57 25
-0.3447754977390492 0.2541593559911086 -2.0824795164434224 84 63 28
-0.3460043211256412 0.25461285576957904 -2.087469866783557 97 77 39
-0.34817217735411865 0.25530318980185085 -2.0916990347063793 96 74 35
-0.3502131673679838 0.2559615310543558 -2.0960312180641254 122 98 59
-0.3512811847762606 0.2563746797027223 -2.1011605022614046 139 115 77
-0.3532433120951678 0.2570132048532324 -2.1055596941693966 143 119 82
-0.3614575144760959 0.2592265747645362 -2.104807703014916 107 85 49
-0.3583091729524946 0.25857777469106524 -2.1134157644023475 87 65 31
-0.3630460781822736 0.25991488602604884 -2.115513893352189 82 59 24
-0.36782426538913565 0.26126208297454634 -2.1175649603068 81 57 23
-0.37042205613819085 0.26206024116254745 -2.1214201888551227 77 54 19
-0.3711144137413434 0.2623789139404097 -2.1268652248479594 81 57 22
-0.3789996796872261 0.2645071179728134 -2.1262879520306304 83 59 24
-0.37732713116152217 0.2642309269804689 -2.1337163306766493 82 59 22
-0.38730588617240586 0.2668847202785254 -2.1313415291953315 84 60 24
-0.3834416818160773 0.2660577714027076 -2.140629920152342 85 61 25
-0.38856666426338476 0.2674906774783134 -2.142326641540492 86 63 26
-0.39071025184777536 0.2681741088585222 -2.1465428830644 87 64 27
-0.3904527542231555 0.26825435620355736 -2.1528053372661664 87 65 28
-0.3863872639573363 0.26737848901318423 -2.1623339504467047 85 63 26
-0.391879657181676 0.2689032343267168 -2.163698418588794 85 63 26
-0.39318842549268335 0.269377345642264 -2.168642668085352 85 63 26
-0.3946669315292734 0.2698941403092816 -2.1734440599551608 82 60 23
-0.3962525366240004 0.27043787183138435 -2.17815552297081 84 61 24
-0.3990618794266363 0.27128864283275 -2.181808291493543 82 59 22
-0.40420253052757105 0.2727240222731815 -2.1834306684480427 86 63 27
-0.40955662722535374 0.2742125601825443 -2.1848518891985163 86 62 26
-0.4133727641657731 0.2753151646116827 -2.1876013655021778 90 66 30
-0.4186344665099874 0.2767798593781292 -2.189074954171971 90 66 29
