ply
format ascii 1.0
element vertex 699
property float x
property float y
property float z
property uchar diffuse_red
property uchar diffuse_green
property uchar diffuse_blue
end_header
0.11185607174216664 0.31800348602349926 -1.5982663286906191 140 113 75
0.10806452265972386 0.3257285978857885 -1.5990412393960387 131 106 70
0.10484255029770356 0.33237056585291297 -1.6004639216613707 119 96 63
0.1016695823940022 0.33891762455609686 -1.6019253494566403 117 95 64
0.09797818935933875 0.3464460664427378 -1.6027528410166245 122 99 71
0.09601462559552362 0.3506957119522191 -1.6056140905144198 120 102 74
0.09307912595824824 0.35678709060304636 -1.6073051269237724 91 76 50
0.0904198428404496 0.3623531675653239 -1.6093099990569981 104 91 68
0.08685368757398162 0.3696363560239009 -1.6102098382678665 91 76 55
0.08423893947316574 0.3751146596944286 -1.6122349019218962 86 72 47
0.08351504916583899 0.3770095778190473 -1.6165328473075447 125 108 75
0.08245446737096593 0.3795421737033648 -1.6204222235213874 128 104 66
0.07988416208675755 0.3849332227090485 -1.6224707657017092 98 80 46
0.07737679358348601 0.39020366717130595 -1.6245817960877194 101 84 55
0.07531573162402502 0.39462796030882286 -1.6272258370792905 79 61 32
0.07473194300825717 0.39625568940416017 -1.6316755833611771 68 47 18
0.07136479414555139 0.4031494994743556 -1.6326937082246389 93 73 39
0.07760060187545814 0.39187677033460483 -1.6455724043133368 98 78 43
0.08178643979648983 0.3844863915230077 -1.655961565912293 97 77 44
0.085254832128796 0.37845644911071846 -1.665496208912509 98 77 45
0.10872201779852977 0.33733054495277776 -1.7267744774313234 71 56 33
0.10878048761643458 0.3377630476978962 -1.732212866999486 78 62 36
0.10683511157658329 0.3419785425224039 -1.7350991116155403 86 67 39
0.10818986960719873 0.3399652750592323 -1.7422027908253137 95 74 44
0.11032885480272825 0.33647408301200343 -1.7503308808232307 113 90 59
0.1104285964375312 0.33683191264071194 -1.7558538726374244 118 95 64
0.1136537345744513 0.3312961756967705 -1.7654242598170957 101 77 44
0.11324185553856667 0.33262132833531405 -1.7703099843046917 111 87 50
0.11154306191998817 0.33637274241906295 -1.7735244483680717 116 96 56
0.11014665414149985 0.3395534851111392 -1.7771259400506882 103 82 49
0.10976140308983218 0.34082838610934 -1.7820457605643423 105 84 53
0.10998367324118263 0.34095908524457325 -1.7877661757745118 99 77 47
0.11210749854899996 0.33750902941825855 -1.7959986244909698 83 63 37
0.11206862394689909 0.338133859784162 -1.8013975548660082 75 61 36
0.11362484606689566 0.33575623751552053 -1.8089157353022363 65 52 34
0.11518660317599771 0.3333700911921698 -1.8164599875566645 50 37 23
0.11629992587234309 0.3318297345334177 -1.8234252549658327 64 49 31
0.11245862620362326 0.3396127577770807 -1.8237809991826317 85 67 40
0.1117679265276281 0.3414668741988364 -1.828337179936294 98 78 46
0.11027832955096892 0.3448234748211494 -1.8318192844352057 100 79 48
0.10886953256730744 0.34802755738592434 -1.83540450999018 98 77 48
0.10770356116842819 0.35077464482381393 -1.83931310311693 93 72 44
0.10693396121823151 0.3527764639517892 -1.843756439970398 91 71 42
0.10954386762370599 0.34842826498406604 -1.8528007663236044 91 72 42
0.10643674915329512 0.3548226440504822 -1.85406580695663 92 73 43
0.10504560939205057 0.3579922209085635 -1.8576619488604225 89 70 40
0.10135677370117877 0.36547574493568596 -1.8580965935549856 90 71 41
0.10176445220933075 0.3652663681190731 -1.8641514604381273 88 69 39
0.10337373460661622 0.3628026614192424 -1.8718763972571004 91 72 42
0.10413934222841381 0.3619240725144879 -1.8784514527939284 93 73 45
0.10271358490104579 0.36515792255450696 -1.8819928327830724 89 69 42
0.1038571897559177 0.3635719708872148 -1.8891110202903176 86 66 39
0.10428909860490942 0.3633222116532491 -1.895249718358916 86 66 39
0.10466539009282111 0.36317772332518866 -1.9013202761411423 85 65 38
0.10278747467080918 0.36725949420546145 -1.904229528313769 85 65 38
0.10023709147879387 0.3726005339021356 -1.9061809361469064 83 63 36
0.10064141028768883 0.37240423075935764 -1.9122980290231908 83 63 36
0.10046758155454447 0.3732918659176738 -1.9176044132271768 86 65 38
0.09983926720903424 0.3750311276018947 -1.922268904017568 87 66 39
0.09995691741336665 0.3753738242404375 -1.9279992305079736 83 62 35
0.0954214939226671 0.3844273228021481 -1.9270763264316908 83 62 35
0.09692570362072217 0.3821746385601826 -1.9347925189584123 81 60 33
0.09598867596021593 0.3844915462736384 -1.9390128100378998 81 60 33
0.09489537921970856 0.3871006303214064 -1.9430060255330024 79 58 31
0.09632795269046013 0.38498553615882436 -1.9506542042795552 79 58 31
0.09836591707243972 0.3817403496215969 -1.959199935700793 77 57 30
0.10033269019169819 0.3786306191089342 -1.9676654346314888 79 59 32
0.09961219617512257 0.38054553987862744 -1.9722286898787231 83 62 34
0.0984370401139443 0.3833100437784535 -1.9761263465082983 84 63 34
0.09741931281716751 0.3857801118725669 -1.9802518626849457 83 62 33
0.09667729042360113 0.3877350444563926 -1.9847814656235965 81 60 30
0.09768903833285736 0.3864152946758317 -1.9919023875008812 79 58 27
0.09630801251896176 0.38956391883222735 -1.9954930438598097 77 56 27
0.09681047561277384 0.38919670738208123 -2.0018771654375955 75 54 26
0.09955905667284515 0.3846394232710132 -2.0116189455659743 76 55 26
0.09982081088314376 0.3852984549790007 -2.0233462667961284 74 53 24
0.09267046103063334 0.4003515255256718 -2.0295952051181056 74 53 24
0.09451037742849983 0.39749669495624934 -2.038051407658669 76 55 26
0.09159133345093493 0.40350982994498213 -2.039297269750698 90 69 42
0.09113290248976622 0.40493816913763764 -2.0442749018149082 94 71 38
0.08959465102311803 0.4083775004350883 -2.0476049052864544 121 97 57
0.08711328533652254 0.4135719239584053 -2.049482963768764 129 103 67
0.08472190617253175 0.4185973816866473 -2.0514846883817253 85 64 30
0.08160067829920295 0.4249795304224017 -2.0523477381823243 76 56 23
0.07565497090182238 0.4371857727145439 -2.054473183174634 74 53 24
0.08920493206496055 0.4125620266636924 -2.081183909362505 70 49 20
0.08403990388465635 0.4227429100458353 -2.0788542060131183 69 48 19
0.07210378812434251 0.44550483082050757 -2.0659061604883893 73 52 23
0.06462687691407393 0.46397575413217973 -2.099417582541256 85 65 34
0.06645387673585801 0.46116205082869155 -2.108022756584721 76 57 25
0.06564543340165435 0.46323735590030346 -2.112418151544572 76 56 24
0.06867537580271493 0.4581970559914508 -2.122994086302582 78 57 25
0.06831929038621817 0.4594356022191609 -2.1281358756501634 77 56 25
0.06792081837976605 0.4607530501801355 -2.133212629625442 75 54 23
0.07058750077059397 0.4563927358421362 -2.1432685959646207 74 53 22
0.06546920889846164 0.4664534006993014 -2.140682376733167 76 56 23
0.06284349257319366 0.47189500896255404 -2.142126317787378 77 57 24
0.06085469345574218 0.4761559465892007 -2.1445962864287433 77 57 24
0.056628244266248434 0.48455698622146853 -2.1433836024499437 79 56 25
0.05339107961230935 0.49112452582379656 -2.143768175306335 79 56 25
0.05033274007564262 0.49851285360033426 -2.15582580192768 75 52 21
0.053988981556364696 0.49233237077409425 -2.1676162167432347 74 51 20
0.05425914443875843 0.4924133418223013 -2.1737996320475763 76 53 22
0.06023642543560076 0.48195101038347715 -2.1895338451993887 77 54 23
0.05266532498837653 0.4965200659635016 -2.182616459470479 81 57 27
0.0577066303313456 0.48779219275339347 -2.196837102190571 78 53 23
0.06043244119494301 0.48334443305722746 -2.207207296096117 77 53 22
0.0599517377058795 0.48481827146264544 -2.2121906651602528 77 53 23
0.056678609196716356 0.49144525025326796 -2.2124458876129096 78 55 24
0.05198848916246884 0.5006841097998367 -2.210271866422729 79 56 25
0.05023833103520417 0.5044969489242688 -2.2130697205360947 81 58 27
0.04849343577550516 0.5082991919845885 -2.2158677518007255 80 59 28
0.0464904495063497 0.5125763362831102 -2.218215148842236 80 59 28
0.045257139622732145 0.5154338105929095 -2.22187258886853 81 60 29
0.04359826301394956 0.5190750020182483 -2.224793415557917 84 63 32
0.04239328995918956 0.5218792284396918 -2.228489398757895 79 58 25
0.04164277394542626 0.5238460895088283 -2.2329676119095425 82 63 30
0.04324353823045479 0.5214837372182417 -2.241524233325081 83 67 33
0.04206349046275207 0.5242423612336384 -2.245266320039434 84 66 32
0.03719872473820085 0.5337816142808098 -2.2425802312000434 85 66 34
0.03666719069987073 0.5353446234560952 -2.2474317686809586 83 65 33
0.03591813948646347 0.5373079425191467 -2.2519041737421244 85 68 38
0.0353034462223312 0.539024198282221 -2.256612777163431 89 76 50
0.031425782895238286 0.5467394671154708 -2.2555744827799127 110 102 86
0.03310297421200073 0.5442419820310943 -2.2643188606800653 159 156 151
0.03416192111599273 0.5428827975956698 -2.2719906619989843 185 184 184
0.17563252112042096 0.14096522334910178 -1.015436416723902 145 143 139
0.1751451869209507 0.14239675381485006 -1.0198519704968856 137 131 126
0.17304583534160195 0.1469510688091506 -1.0231190258783665 130 122 115
0.17190758912548107 0.14964302308608246 -1.0270657826112128 118 110 98
0.17109202056332531 0.15170986054624114 -1.031242153211016 106 96 81
0.1687852189774932 0.15666374168449626 -1.0343388977524293 100 86 71
0.1664462677439262 0.1616787616257902 -1.0374015871860947 92 79 64
0.16381290682028374 0.16726245302405074 -1.0402383401927537 83 71 57
0.16275583226585208 0.16979468505626605 -1.044218724607688 71 58 41
0.16175544800271727 0.1722170086802935 -1.0482386337111678 72 58 40
0.1616697209183755 0.17286990030024668 -1.052933971618331 77 62 45
0.1612286575463994 0.17421044548570436 -1.057369302741463 65 50 32
0.16267836570437277 0.17189514571288506 -1.0632195340293122 74 59 41
0.16230117095870697 0.17311326713716274 -1.06771308927102 73 60 44
0.1636816262395031 0.17093422161005717 -1.0735344811441845 77 63 49
0.16531821340168526 0.16826165105613633 -1.0795642597868866 80 68 55
0.16883648829791664 0.16195488090116927 -1.0870420201612985 79 69 56
0.1714880088060605 0.15732554518801306 -1.093886289630077 78 69 57
0.17489317587039904 0.15124288733495034 -1.1013323256523426 85 77 66
0.1779737688871842 0.14578993947018587 -1.108556380490961 108 103 93
0.18229081047179174 0.13795229963109146 -1.1167643769559923 131 129 121
0.20689930521415564 0.11974969929187296 -1.4222164977390204 104 93 80
0.19680096193538338 0.1395789909521219 -1.4176293213653732 95 83 66
0.1982500775980699 0.13734760203006285 -1.4242877537648604 96 80 60
0.1923265011071233 0.1491957305966301 -1.4237121021287749 94 77 56
0.19354920647624868 0.14739713668397225 -1.4301525110413738 90 73 53
0.18650225490560818 0.16138442634204642 -1.4284147008554833 87 71 51
0.17525256431199762 0.18338725660443006 -1.422451886093652 91 75 56
0.17240736843064228 0.18934676128729788 -1.4248001366892333 88 73 51
0.16702014197594908 0.2006828679441527 -1.4297554858181447 88 75 56
0.16526580385392345 0.20455769322261735 -1.4331595766867835 102 88 69
0.1630627037000295 0.2092873123171678 -1.4361018458844095 99 84 65
0.16097529068003397 0.21379533025771158 -1.4391510303116528 90 75 57
0.15749496587718256 0.2209568196545303 -1.4407694856683821 88 72 55
0.15486240186844247 0.22650098737682473 -1.4432357299711438 85 71 52
0.15315758311158792 0.23027642575924456 -1.4466413111052026 79 64 44
0.15198261934230514 0.23304199601163678 -1.45058620770512 86 70 49
0.15145619207101926 0.2345723072496294 -1.4551991160072684 82 65 42
0.15183342140014722 0.23438239670553124 -1.4607522081515845 92 75 49
0.1517970651962134 0.23498057430651698 -1.4658825892864902 101 84 58
0.1524499850357388 0.23426756777452346 -1.47173927092624 95 78 51
0.15094168257431315 0.23766772384518664 -1.475337691915544 90 70 43
0.15132353190161632 0.2374716879755457 -1.4809216718518714 91 68 39
0.15117462556070846 0.23828596519655887 -1.4859529948518206 126 102 67
0.15124906267369279 0.23867600982511716 -1.4912257679572063 138 113 73
0.15182083579106673 0.23812117960698376 -1.4970342074465417 135 112 71
0.1507332664500831 0.24072137651707426 -1.501079730403617 131 109 73
0.1503867158305986 0.2419131021081113 -1.505917223684284 127 107 76
0.15008205595516808 0.24302554768045936 -1.5108028361834784 93 74 45
0.14852944795238318 0.2470429911709176 -1.519562226964562 92 72 44
0.1477223534130301 0.24911015340489634 -1.5239081959933911 96 77 48
0.1459464835278397 0.2530164516947705 -1.5271969165111605 96 77 47
0.14672599580609594 0.25207166744522513 -1.5332752592701342 92 72 44
0.14681305223451402 0.2524421291015486 -1.538604536721818 77 56 27
0.14772951616261648 0.25123960825545577 -1.544854362939122 99 78 39
0.14882148095137254 0.24970547108887187 -1.5513109286130005 158 130 85
0.14815873177738584 0.25150062084953917 -1.5558341095753239 154 123 77
0.14854764228871253 0.2513017541181069 -1.561529108914541 146 120 77
0.14610238338428136 0.25701558248234335 -1.5693315672360628 101 76 35
0.14178157106185846 0.2657429159318971 -1.569742123089664 109 84 44
0.1403028719711123 0.26908286184913244 -1.5733336648871004 104 79 42
0.13069412021301077 0.2878221102205369 -1.5677117125799098 95 72 35
0.13031272076783978 0.28907968691632246 -1.5725081811224981 104 82 42
0.13028756996640078 0.2896630267852065 -1.5777136607108522 116 92 52
0.13055969228620512 0.28968419008162083 -1.5832647702030131 109 85 45
0.13704732096604855 0.2779425217478082 -1.595958257866465 115 90 54
0.12607726939251115 0.29977696223697226 -1.5938421789488835 125 101 65
0.12350369160732713 0.3051817511289939 -1.5961051028278819 134 110 68
0.11922051721338406 0.3138180478340127 -1.5963653876857442 135 112 69
0.11629571174085626 0.3198833443123365 -1.5981837700931818 135 111 73
0.11338066800140056 0.3259284712361004 -1.5999968043487804 122 98 62
0.11137802896465943 0.3302475564305312 -1.6028649676466433 132 111 78
0.10627790928827927 0.3404182697820116 -1.6020726535641263 111 90 61
0.10368932645892895 0.34584103603279204 -1.6042165312726635 117 96 69
0.10120610964319957 0.35106333592735817 -1.6064711170498716 95 79 50
0.09751500302327737 0.35856510092257554 -1.6072745378967699 93 77 51
0.09356205286305236 0.3665588560442659 -1.6077424015499207 88 73 50
0.09156380896927338 0.3708605552204223 -1.6105270158256417 85 69 45
0.08963406403809726 0.3750319859037075 -1.6133841458672307 92 75 48
0.08714503544669719 0.3802576662232093 -1.6155576193717145 129 108 74
0.08662151090129408 0.3817744131242666 -1.6200950074976144 133 109 70
0.08444690708463073 0.38640510326351496 -1.6226303601636176 89 71 37
0.08155278235388044 0.39239130159903934 -1.624278480325011 92 75 47
0.07911183753317877 0.3975214800669496 -1.6264632079854977 74 55 27
0.07933185317171274 0.3976351678638368 -1.6318949657802675 76 55 25
0.07919261120871313 0.3984265676531171 -1.636892571748826 99 79 44
0.08231703848521088 0.39307001008126385 -1.6459192737956134 95 75 41
0.08808609844630877 0.3827353838206046 -1.65824773297518 94 73 42
0.09167465969826502 0.37651207953966026 -1.6679213696407735 105 84 53
0.11663001811779453 0.33280617067314266 -1.7310097545347423 71 56 33
0.11581863116797761 0.33488184774112145 -1.7353546157252306 79 63 37
0.11287960194144891 0.34095716043019114 -1.7369915129738276 92 73 45
0.11336388505959014 0.34059672435839466 -1.7429809922183026 98 78 48
0.11651900228759124 0.3352186582565855 -1.7524002828955503 115 92 61
0.11668401936726344 0.33546111356247427 -1.7580100005184152 113 90 57
0.12019126412639758 0.3294268218371352 -1.7679333413433744 111 87 52
0.11729133546688006 0.33542759257783644 -1.7696098527746964 123 100 62
0.11729615318249123 0.3359731821463752 -1.7750350648144568 113 92 57
0.113884415947761 0.34293231359564436 -1.7760234377390522 106 86 53
0.11562747337320772 0.34021576867758174 -1.783714591033473 104 83 52
0.11783278409318834 0.3366339969471741 -1.792030593283924 96 75 46
0.11960753965417548 0.33386228602207846 -1.7998052904657236 81 63 39
0.12129792276220117 0.33125088791680435 -1.8074892682540984 79 65 43
0.12130268545103781 0.3318019804018868 -1.812967164953911 62 47 26
0.1220144298394733 0.33102843327986753 -1.8193876272476848 73 57 31
0.12145914507670363 0.33263069002335693 -1.8241367217707354 81 64 36
0.12143597645666052 0.3332360805439893 -1.8295965726705536 89 70 40
0.11931505368141185 0.3377718327212073 -1.832258616289777 101 80 49
0.11626798867039506 0.3440410349301552 -1.8336681146805114 104 83 52
0.11950439390941958 0.33854264507375387 -1.8435082546572286 99 78 48
0.11168131336296708 0.3537517069483752 -1.8384648141181794 94 73 46
0.11233411450281269 0.35309098213322804 -1.8448299746222947 91 71 42
0.11752850308612581 0.3439330315439478 -1.857368714501083 95 76 46
0.11606839346220496 0.3472294327256598 -1.8608998966928352 92 73 43
0.11460992762034111 0.3505221816167617 -1.8644276777706899 90 71 41
0.11083284961189477 0.3581501378732548 -1.8647755978125409 91 72 42
0.11147530975421541 0.35751292680663666 -1.8711674039307853 91 72 42
0.11255370682000906 0.3560620561201769 -1.8781710484602057 94 75 45
0.1135780300287868 0.3547137765935246 -1.8851150616796033 90 70 42
0.1124075407434866 0.3574676069447742 -1.8890331319473075 89 69 42
0.11329232027058009 0.35638206102919745 -1.8958035781110176 85 65 38
0.11357708554524762 0.35641841585149964 -1.9017514148275363 88 68 41
0.11133914517309595 0.36116569945291577 -1.9041820289675637 87 67 40
0.11040548123804947 0.36347713160531236 -1.9084288424591946 85 65 38
0.10983897122053957 0.3651032337074092 -1.9131904561999202 84 64 37
0.10919622190204378 0.3668717518696171 -1.917846223907696 85 65 38
0.1085533313423416 0.3686406383866313 -1.9225028166647495 87 66 39
0.10649220498114176 0.37305457343709697 -1.9251490353537255 84 63 36
0.1062878680680964 0.3740053735917958 -1.9304256067950651 82 61 34
0.10526762305809598 0.3764775897257505 -1.9345429281473108 81 60 33
0.10349766825717183 0.38034681238456863 -1.9375855762991407 81 60 33
0.10021162879602025 0.3870400413133263 -1.9384446287267818 80 59 32
0.10006159875067624 0.3878892645460625 -1.9437953171303721 79 58 31
0.10116399315341634 0.38640648474551276 -1.9509584936912718 80 59 32
0.10366460338199959 0.38232184181695045 -1.9601607987205614 79 58 31
0.10419688110112565 0.3819041459295697 -1.966533418506167 83 63 36
0.10670994068782627 0.37780106845994427 -1.9758001105719991 87 67 38
0.10406852419250226 0.383291740211772 -1.9775698230381011 85 64 35
0.10328230459579063 0.3853296360414018 -1.9820398221113267 85 64 35
0.10405806537188741 0.3844624744666598 -1.9888028871686385 82 61 32
0.10656551709475723 0.3803767019199606 -1.998128518737901 80 59 28
0.10881246262699076 0.37677802134278515 -2.007097001295485 76 55 26
0.10798839174912878 0.378889598632965 -2.011543514235489 74 53 25
0.0963431369602781 0.4022608504426496 -2.0111819715978774 73 52 23
0.10074009404443249 0.39641525218906426 -2.0404223860432236 79 58 29
0.09793585798945353 0.4021992492607627 -2.0418602969953934 88 68 40
0.0967568946241816 0.40496714076557366 -2.045749323089165 85 63 29
0.09483209827888517 0.4091176265046821 -2.048499001521529 138 112 73
0.09193517511594151 0.4150692351051065 -2.0497542085552065 121 93 57
0.08927414258312932 0.42058179998257145 -2.051352575773606 84 64 31
0.08687792205375738 0.42560203747391107 -2.0533415040743694 76 56 24
0.08575367266538933 0.4282645401001549 -2.0572753984317833 74 54 23
0.08680603211239948 0.426895537773962 -2.064567559623279 74 54 24
0.08684321678069207 0.4274078407756041 -2.070303220294462 70 49 20
0.08803004139346005 0.4257926638970879 -2.0778309968096687 67 46 17
0.08299394966598325 0.43569618656411774 -2.07568561403536 66 45 16
0.07602618531984712 0.4491701311230233 -2.070487443312695 76 56 27
0.07288462043635172 0.45962368273707943 -2.1109235241383026 73 55 25
0.07101697390660186 0.46365509304323677 -2.1136321871363686 75 56 24
0.07338307284210119 0.4598705505978535 -2.123124845515727 77 57 25
0.07594619295688487 0.4557252052604031 -2.132961728228768 77 56 25
0.07738146860592737 0.45366368450679273 -2.141008019636171 76 55 24
0.07724777536876135 0.45449815642103547 -2.146535428848547 74 53 22
0.0755148112181617 0.4582824025746917 -2.149474304396706 74 53 22
0.06291969725695626 0.48209175835191986 -2.1347384592556495 75 54 23
0.06020706706822998 0.48767514034730386 -2.136015383290559 76 55 24
0.05737798776585992 0.49580484977254047 -2.159883789486249 76 53 22
0.06191628582146377 0.4880371840280715 -2.173120815371213 75 52 21
0.062046985409069555 0.4883845118416664 -2.1790811956737666 75 52 21
0.06303215881617821 0.4871607592609332 -2.186472998106117 76 53 22
0.06340349191305189 0.48706753385091545 -2.1928549378727054 80 57 26
0.06429323747870039 0.48602213703257546 -2.2001151846436384 77 54 23
0.06808177749732422 0.47964955860080344 -2.2122578384492124 77 54 23
0.06326882369369047 0.48908883654488 -2.2099589372273005 78 55 24
0.060814698164458475 0.4941904875689702 -2.2116060800385258 79 56 25
0.057165374012288384 0.5014860395164681 -2.211215314974967 80 57 26
0.055634748306760046 0.5048881404707505 -2.2143943215516986 80 57 26
0.053578614886406556 0.5092543588990563 -2.2166723913874367 79 58 27
0.05189108067436962 0.512942831463719 -2.2195677462804326 80 59 28
0.05082312106105871 0.5154935084438363 -2.22351456733816 80 59 28
0.04917843471475561 0.5191019677948112 -2.226469675244733 80 59 28
0.04767822518368592 0.5224446300757781 -2.22966530328314 79 58 26
0.04664053845357716 0.5249384986765564 -2.2336516305009297 82 62 30
0.046693951502233155 0.5254318904708866 -2.2395212389953545 89 73 40
0.04597091701221254 0.5273490746290441 -2.244052765922853 86 71 37
0.04237803868802589 0.5345247074280916 -2.2435989160996086 79 62 28
0.03980993813285136 0.5398205054181906 -2.2449045318608203 77 61 28
0.03981280861372835 0.5404062210486941 -2.250683546452786 82 67 36
0.038128558364487614 0.544081615905593 -2.253515622990416 89 78 55
0.037564948839911405 0.5457048783094428 -2.2583064560495356 121 115 102
0.03891417968696853 0.5438278475395484 -2.2664654030938407 169 167 162
0.17775437551753626 0.15051425208949626 -1.0471806597489448 165 165 163
0.17668786833397226 0.1530656161618109 -1.0511873456174734 158 156 152
0.17592962839235915 0.15502257484770832 -1.0554182632411044 150 147 142
0.17597500142813188 0.155430871856777 -1.060242194735655 140 136 132
0.17577945751794904 0.1563038967803837 -1.0648927047607284 134 130 125
0.1761646891337026 0.15605849145203132 -1.0699794818737358 139 135 130
0.17786409969722117 0.15328269960240315 -1.0760572865561306 152 149 144
0.18053688312389357 0.1486341960322533 -1.0828833163066978 150 148 145
0.18326721829396148 0.14387727978311404 -1.0897759413965529 153 151 148
0.18762256789763282 0.13599466474922617 -1.0979247843749538 158 157 154
0.1901056471019004 0.13171907997152815 -1.1046817077492557 168 167 165
0.21451663608881114 0.11651185710479084 -1.4303339960478305 113 102 89
0.20755702350477073 0.13029881445786345 -1.428821244104649 99 86 68
0.202565429717124 0.14033784603576893 -1.4291926146414855 95 79 58
0.1970791042443345 0.15131451860655598 -1.4290465326937283 95 79 58
0.19821455617649622 0.1496976624347971 -1.4354050665096036 96 81 60
0.1939873739950793 0.1582761844500044 -1.4364623405231045 98 84 63
0.18403969808179532 0.17772413742143334 -1.431803655793876 98 84 64
0.17792665953335823 0.18987870320354594 -1.4309065500367544 96 83 65
0.1734084416163598 0.19899939866399152 -1.4315684667200312 96 85 67
0.17148674127050212 0.2031853998823765 -1.4348143371346902 98 84 66
0.16924570221653026 0.2079769500350887 -1.4377293122462778 89 74 55
0.16685829259786958 0.21304527821796754 -1.4404850970204384 92 76 60
0.16356015706112634 0.21984116701196726 -1.4423028823300494 83 67 52
0.16087247070900865 0.22547655545516576 -1.444724889937204 74 62 45
0.1585618030497715 0.23039507402831427 -1.447518767627606 79 66 49
0.1581433153998366 0.231722701252285 -1.4522459761264102 81 66 49
0.15729534707083376 0.23386519680360318 -1.456532622732139 84 67 49
0.15762796962482817 0.23376879167399817 -1.4620407056299387 99 81 56
0.1594207373963598 0.23090481197238866 -1.4690737489277301 101 84 57
0.1588463117981599 0.23253002212348456 -1.473657583534374 92 75 51
0.15949250608946935 0.2318420358082366 -1.4795198859335592 87 70 43
0.16063594278882865 0.23021293484237476 -1.485914682191213 112 91 62
0.15935557465586828 0.23317705381694154 -1.4897695282573542 123 100 66
0.1586781331670591 0.23499878971946186 -1.4942580305987965 132 109 71
0.15779102224754837 0.23721763046752237 -1.498524611061219 126 103 68
0.15641758409695766 0.24035712665357178 -1.5022723153629753 118 98 66
0.15615010442798363 0.24140267352613376 -1.5071972580868258 105 87 59
0.1554175384053503 0.2433287798108486 -1.5116270946904555 90 71 44
0.1577293789439009 0.23949449213324803 -1.5193331704730464 90 70 43
0.15496390205329652 0.24526755398858163 -1.521579508659436 89 69 42
0.1542999552172909 0.2470643197791152 -1.526087977975354 91 72 44
0.15322539941175548 0.24963760395841772 -1.5301506605851412 94 75 45
0.152875298049417 0.25084100224441136 -1.5350013872902508 87 68 36
0.15301351053681053 0.2511217097847857 -1.5403897839167724 78 58 23
0.15286793564452913 0.25193941413573817 -1.5454731302375306 131 109 67
0.1524025188355615 0.25336190643777035 -1.5502084853754996 150 122 79
0.15223332023642216 0.25422506326050204 -1.555273690282056 141 112 72
0.15352487272893223 0.252329861084542 -1.5619646383272754 115 90 53
0.15226823433281692 0.25579311134388777 -1.5711021536691336 103 78 39
0.15323817207188356 0.25450825007858785 -1.5774644477725008 107 81 43
0.1362507417662492 0.28765217765113515 -1.568862247738768 108 85 46
0.1358792761572788 0.2888942063431089 -1.5736726532164393 107 85 42
0.13502165876882666 0.2910533586306806 -1.5779334500847828 113 89 49
0.13467882440497073 0.2922418083980443 -1.5827804161141645 120 97 56
0.1348268866590937 0.29250519277160747 -1.5881921083153787 109 85 49
0.13264512755639335 0.2971603013862752 -1.5909362861836123 104 81 49
0.13055503091952936 0.3016415588242722 -1.5937751017119992 124 99 66
0.12781284388500433 0.3073502348834964 -1.5958501595055545 139 113 73
0.1243214467449911 0.31446847908931275 -1.597041357445701 137 113 74
0.12110616101353316 0.32106459768381157 -1.5985327013718835 134 110 76
0.11784566921532322 0.32774386660554683 -1.5999523484034217 120 97 62
0.11459709504017665 0.33439870355405077 -1.601366630826407 132 112 80
0.111616246598009 0.3405477080208152 -1.6030761553566313 108 87 61
0.1089931316618443 0.3460218447036833 -1.6051900615255024 121 101 77
0.10668447670562803 0.35090294161343216 -1.6076612890794897 89 73 48
0.10315637003501252 0.35807624326509035 -1.60867381578107 86 70 44
0.09842359661942729 0.3675124849918712 -1.6082310899667611 102 87 60
0.09564437170289444 0.3732729996404384 -1.610090014768755 95 79 49
0.09409705647892941 0.3767164692606773 -1.6134087916027429 122 103 71
0.09150831671857379 0.38211625587770065 -1.6154697448523747 149 124 91
0.09042551121903772 0.38468531707403253 -1.6193319029203022 126 101 65
0.08879360003781064 0.38828549543231106 -1.6225271993698511 107 89 57
0.08635691659851052 0.39339624946284285 -1.6247390015105272 75 58 30
0.08525683858061253 0.39599612968696213 -1.6285645717871624 66 48 21
0.08156040069769588 0.4034693794662257 -1.6292166428509203 86 66 34
0.08501931120462025 0.39751171049102574 -1.6386114779831311 100 80 45
0.09034949707952888 0.3880463384678205 -1.650338797012237 95 75 41
0.0960127405680421 0.3779610872017325 -1.6625241355099958 97 76 46
0.09811470541158851 0.3745601895993735 -1.6703549310587071 102 80 51
0.11828226726286845 0.3383906803093392 -1.7112883529956886 79 63 40
0.12380347207474804 0.3291530900364725 -1.7289149799900803 77 62 39
0.12516428142844352 0.3271604867792478 -1.7360055463848618 75 60 36
0.12319590762273547 0.3314040094909299 -1.738903651667643 92 75 49
0.12391319827775546 0.33061832886052767 -1.745198352141501 99 80 52
0.12250552674249954 0.3338114293648388 -1.7488012821426921 114 94 64
0.123602478935016 0.33231678574834156 -1.7555954255553228 112 90 58
0.12323899367204247 0.3335561614518804 -1.760534696354853 114 91 57
0.12410681657855424 0.33249257244315944 -1.7670582358046518 113 89 52
0.12191077300238246 0.33716034059660444 -1.769648194792055 126 103 65
0.11905097331279196 0.3430680062288452 -1.7713691311378013 109 89 55
0.11775221430171076 0.34605578015816607 -1.7750965090535076 111 91 57
0.12441753287308116 0.33415858748177907 -1.7891729979853803 107 87 54
0.12052343900921711 0.34199825467319783 -1.7895391894204438 98 77 48
0.12602301714856734 0.3322867195371829 -1.8021672470036116 87 69 46
0.13072384100560863 0.32407221012667586 -1.8137973829571066 78 63 43
0.13126834104716706 0.3236233452615065 -1.8200015553890831 75 59 36
0.13187359843302027 0.32306214022616836 -1.8262964320568904 86 68 39
0.12648284399946644 0.33369347632520685 -1.8246635454485596 89 69 40
0.12209395543063381 0.3424514308407521 -1.8243240440486668 99 78 47
0.11957242927081674 0.34772253993678204 -1.8264428239414001 103 82 51
0.11839737277206741 0.3504807141569628 -1.8303464299392482 99 78 47
0.11788810951956624 0.3519969668397331 -1.835138939012022 98 77 48
0.11705367926055713 0.35411966964749136 -1.8394964236159184 96 75 48
0.1168633494633041 0.3550417255100857 -1.8447216810335194 94 75 46
0.12066349713562474 0.348527780726412 -1.8553475131952082 95 76 46
0.12193457113265788 0.34672966933428506 -1.862580208474694 94 75 45
0.12203481033621938 0.34711420072883137 -1.8682367115463359 93 74 44
0.1222231442931761 0.3473354008917127 -1.8740204376368086 91 72 42
0.1206049879649791 0.35092086921246224 -1.8773398847730962 95 76 46
0.1225945732280945 0.3477899630044365 -1.885603984552704 98 79 49
0.12092145555011258 0.3514778032450066 -1.88884861350677 95 76 47
0.11926791668247949 0.3551284522122385 -1.8921129038631819 93 73 46
0.12089137636370878 0.35268250358013253 -1.899907649514489 94 74 47
0.12179949568326595 0.35156894450102216 -1.9067284641687883 89 69 42
0.11852235311702322 0.358238660867097 -1.9077334380467437 90 70 43
0.11693304500395926 0.36176869750625473 -1.9110757425979603 85 65 38
0.11498704179340388 0.36596095602832346 -1.9139115683081016 84 64 37
0.11479286902388897 0.36689718098737917 -1.9191993448077633 85 65 38
0.11277650688924579 0.3712188845464174 -1.9219238661843492 87 66 39
0.11369387576452611 0.3700909260384319 -1.9287846090954173 83 62 35
0.11254449565477875 0.37280194064881217 -1.9327296004783365 81 60 33
0.11206482542299259 0.37426939855992064 -1.9376235210679222 81 60 33
0.11063633655205343 0.3774980587596071 -1.9411670450134986 81 60 33
0.10435092090287953 0.38973827379166287 -1.937760320079552 79 58 31
0.10466426828845757 0.3897324609423778 -1.9437706500160243 78 57 30
0.10659823623206277 0.3867218666849669 -1.9521205917013542 79 58 31
0.1115840271461433 0.3780547932640689 -1.9648945161786626 80 59 32
0.11133128041531876 0.37910388419486024 -1.970138940382132 86 66 39
0.1139279352533076 0.3748724102370347 -1.9795209787600483 86 65 37
0.11190802993226676 0.3791980637697328 -1.982215072736491 84 63 34
0.10814096032804205 0.38675928822782396 -1.9823498176029966 84 63 34
0.10961156601461214 0.38461732152865524 -1.9901227311468925 82 61 32
0.11316905905469338 0.3786131024562724 -2.000976326817436 80 59 28
0.11300595898188492 0.38008607508387016 -2.01205243286521 73 52 24
0.11175634026170514 0.3829847994624076 -2.0158706695037862 72 51 23
0.10721210062746925 0.39197789293209256 -2.0147957417284386 74 53 24
0.09684713065339581 0.4117330637250559 -2.005026853680635 73 52 23
0.10670301482877537 0.3958518604209471 -2.0423749869710086 84 63 34
0.10453350395431965 0.40044807239140273 -2.0447871584643105 87 65 36
0.10291360782665154 0.4040279973439431 -2.048019355332121 111 88 51
0.1005434576100229 0.40899247323380133 -2.05010573176052 134 110 71
0.09716013533797516 0.4158258571406446 -2.0506366022642655 102 77 44
0.0938137645603638 0.4225887531834189 -2.0512017197718717 83 64 29
0.09553235323953041 0.42000395338270075 -2.059496431710636 77 58 25
0.09117087187276987 0.4286370953886537 -2.0584814416602986 74 55 23
0.09137514933399019 0.42884674287594793 -2.0644622019239733 74 54 24
0.0902728241487151 0.4314663536273573 -2.068434928316386 71 50 21
0.09030562564906583 0.43199323050930605 -2.074161343680181 67 46 17
0.08618373482899389 0.4401775438876867 -2.073447735150651 68 47 18
0.08472016576374011 0.4434610159473693 -2.076841759137375 70 50 23
0.08274907227111733 0.44767874404695746 -2.0794379494278905 87 67 40
0.08116091280875343 0.4511901992025461 -2.0826229337962587 80 60 34
0.07771785722667252 0.46223132259370164 -2.1226579894036672 74 55 23
0.08119654406756832 0.45642962605482174 -2.1339429085320525 76 55 24
0.08175555628246167 0.4559955336931042 -2.140570792180807 75 54 23
0.08461744312427069 0.4513330081940658 -2.150922423814616 73 52 21
0.08308451090689081 0.45474361431174276 -2.1542020902391963 72 51 21
0.07240032998831303 0.4749531472457269 -2.142643817403791 72 51 21
0.065911742376143 0.48745348241256387 -2.1378172394808432 73 52 23
0.06605668070123014 0.48777699051100887 -2.1437494449266956 77 53 25
0.0645728188391167 0.4910892206882629 -2.147028492417145 77 53 25
0.06296113025707198 0.49463522893966744 -2.1500918426907893 75 51 23
0.06413342739891817 0.49366739768226675 -2.16343543214902 76 52 23
0.06805922583038607 0.4870650501269432 -2.1756396391211696 77 54 23
0.07016302647873962 0.48380514224689186 -2.1848684021044886 76 53 23
0.07504925334090812 0.47545127972901835 -2.198741386353768 76 53 22
0.0750777473688361 0.4759982557594468 -2.2045786317938356 75 54 23
0.07577545250525694 0.4753207780266541 -2.2115397474735325 77 56 25
0.07400606804453394 0.4791602315194191 -2.2143857060942054 82 61 30
0.07301315738129924 0.4815779251364703 -2.218525545673973 78 56 25
0.07217229845541809 0.4837172508153702 -2.222919201077164 80 57 26
0.0712850826931995 0.48594129811834175 -2.227234064243997 80 57 26
0.06727951021519185 0.49386715372545853 -2.22627485994953 79 56 25
0.06633298493990714 0.496197977913139 -2.230473289651101 78 57 26
0.05873579204508661 0.5106832724755416 -2.2233650283799875 79 58 27
0.056919311320258015 0.5146002247004651 -2.2260480822600512 80 59 28
0.05400546789488178 0.5205207172229835 -2.2268466654124746 79 58 27
0.05257711980114066 0.5237264179871077 -2.2301710509814767 78 56 25
0.05115010457928973 0.5269290716102206 -2.233491795926536 86 67 35
0.0513295816742422 0.5271988224020119 -2.2395732096514234 102 86 53
0.048701372814043575 0.5325929435154642 -2.2408152816064155 85 70 37
0.047686113453115325 0.5350427551580017 -2.2448328096121157 76 61 27
0.04614723022949718 0.5384473615327023 -2.247939285431746 75 61 26
0.04526619711928184 0.5406517098486203 -2.2521834894516433 78 65 34
0.04329443901794089 0.5448442892707427 -2.2545237935511406 92 83 63
0.04384814872248499 0.5444331055842677 -2.2612703923317086 140 136 126
0.04391773180996342 0.5449052375602493 -2.267179894136367 177 177 173
0.04318331532995545 0.5468426758160021 -2.271683409531503 191 191 191
0.21900368503352757 0.11981735942229832 -1.440694514577093 102 89 72
0.2098450260079191 0.13772032505192233 -1.4370049025482212 95 81 63
0.2012919528842963 0.1544699873610515 -1.4338505285855596 94 80 61
0.19253971843703674 0.17159085671167545 -1.430442851052164 96 82 61
0.19140272760958282 0.17428869385240392 -1.4345282182572943 92 81 63
0.18907500048348988 0.17924005957523031 -1.4374258152222936 88 77 59
0.18387979036493296 0.1896166812054209 -1.4374477727692547 80 70 53
0.1839921289257876 0.1899478938465226 -1.442758274321323 78 67 49
0.17391975641036328 0.2095456282310233 -1.4378276240030523 78 66 47
0.1714427001061834 0.21477150359097846 -1.4404988024660106 80 66 48
0.1692844073110641 0.2193933168158652 -1.4434804360195517 83 68 51
0.16718559243732528 0.2239016107334869 -1.4465122766947047 88 74 53
0.16547506449417923 0.2276749661258768 -1.4499306159779886 96 81 60
0.16509913166446433 0.22892556355690813 -1.4547091967948131 93 76 56
0.16440735583760918 0.23077318623995086 -1.4591658046410103 107 90 67
0.1646613298812889 0.2308343730857581 -1.46459872399228 108 92 66
0.16574177327665326 0.22933548757500638 -1.470894889272393 99 84 59
0.1664292020033765 0.22858010198024536 -1.4767961492724901 85 71 44
0.16739161115610063 0.22730672121359857 -1.4829948299427334 77 61 34
0.1665195152145732 0.22949713997594645 -1.4872862033719285 112 94 65
0.16594126439696738 0.23113297463127536 -1.4918853406024586 121 98 67
0.1648374854942823 0.23376042903193928 -1.4959318806171853 126 103 70
0.16520029979679118 0.23362124842687837 -1.5015270746199523 119 98 65
0.1628301611768763 0.23863691389399388 -1.5042297430615428 108 89 59
0.16281389323639162 0.23921315931724008 -1.5094276209558886 86 69 42
0.16413045864839873 0.23727747390037873 -1.516055608695003 93 73 47
0.16461807303866713 0.23690572405203814 -1.5218099077220313 87 67 40
0.16303791131497833 0.2404312691121374 -1.5253479103411955 87 67 40
0.16358060791077517 0.2399568841478354 -1.531172551656348 89 70 42
0.16133014631808523 0.2447444998108217 -1.5339797346866386 90 73 43
0.1610277121388658 0.2458625499975844 -1.5388942689088976 79 59 29
0.16119004403697484 0.24610592109364354 -1.5443193868710439 104 83 47
0.16023201390646452 0.24845892725379048 -1.548524587114346 138 115 75
0.15895508151463866 0.25141193670229645 -1.552377884584169 135 111 71
0.1587874916477784 0.25227723753369025 -1.5574503501443282 129 105 65
0.15913376892595976 0.2521763296890937 -1.5630957291230414 103 79 41
0.16000413941574995 0.25109058799400646 -1.5693311828219718 105 83 44
0.15864215128477294 0.25420382138654596 -1.5730924829537927 109 87 48
0.15791484035901185 0.25612339242959425 -1.5775585376769663 109 86 48
0.15732768306257092 0.25777955621272297 -1.582181991104831 108 85 49
0.144004516744585 0.283917588256789 -1.5777176505532013 107 85 44
0.14205450135990774 0.28812934593402306 -1.5807552432701457 120 98 61
0.14125890644194872 0.29017214024499566 -1.5850957562547048 119 95 59
0.14070457385533117 0.29176190243557465 -1.589711047425344 100 78 47
0.13780881179768315 0.2977471878330485 -1.5916489991657412 107 84 54
0.13636079891060082 0.30101360622297363 -1.5952325184360763 136 109 75
0.13225054999337651 0.3092749372453723 -1.5957445769974488 138 112 75
0.14187514532409115 0.29176675294022364 -1.6121020617887107 141 116 80
0.12479477607146672 0.3243552205950374 -1.597578352277795 134 110 76
0.121076266194623 0.33187420439968124 -1.59847198488229 116 94 63
0.11967974288989605 0.335037501167383 -1.6020526174753225 107 90 64
0.11909333965841001 0.3366817698805105 -1.606576758347415 105 89 65
0.11519784157197882 0.34452746820181535 -1.607215032235262 112 93 70
0.11102187569297567 0.3528961239438375 -1.6074985737812932 100 82 59
0.10717879786682852 0.3606384475696286 -1.6081493072286663 93 75 50
0.10398321664377169 0.3671656337206169 -1.6095442167227365 104 87 61
0.10041160713497455 0.3743949183992952 -1.6104727066223148 103 87 55
0.09888022153392148 0.37780260482749534 -1.6138151530866267 121 103 67
0.09694404463657555 0.3819672564106331 -1.616666610275898 108 88 53
0.09563348049437673 0.38496029123044123 -1.6202605306610263 117 98 64
0.09399284625565107 0.3885703522736011 -1.6234520938308272 106 87 56
0.09267852255875439 0.3915693510068217 -1.6270312592207472 74 55 29
0.09057296452496047 0.39604747281183256 -1.6296459624915989 72 52 26
0.09022246503905804 0.3972432633244358 -1.6343861248579552 96 75 45
0.09403088044258909 0.3906656438326062 -1.6442073028915885 98 77 46
0.09981659703923282 0.3803966112533856 -1.656485785124296 96 76 43
0.10376863822443608 0.37355884919637306 -1.6665618482957776 98 78 46
0.10763961572655384 0.3668763351646942 -1.676574551646041 92 71 44
0.12871166859850186 0.3297547737692745 -1.723961694600928 76 61 36
0.13247451181202416 0.3232952086424173 -1.7340414586289907 76 60 34
0.1328049703234208 0.3232424406013185 -1.7398450536162442 86 68 38
0.13194498320510667 0.32541084587386077 -1.744157138276423 104 84 51
0.13179039789597768 0.32626382728401865 -1.7493600804115808 109 88 57
0.1293917195460406 0.33130087538587577 -1.751722363098876 113 92 60
0.12885098802551576 0.33287364623250054 -1.7564348578259579 108 89 54
0.1305885222029802 0.3302012023198157 -1.7640557994454227 118 93 57
0.13318694450951227 0.32592697047873176 -1.77279823050905 132 104 66
0.13570113445890483 0.3218124095691308 -1.7814590951739528 123 99 65
0.13735433025056318 0.3193038989953937 -1.78903719140229 112 91 61
0.13848535145147023 0.3177695658280343 -1.795959970372561 110 91 61
0.1362588327644112 0.32248640465018646 -1.7985476257379192 106 88 58
0.1382313020808853 0.3193879380794156 -1.8065807551377895 100 82 52
0.13737443379367928 0.3215558189098273 -1.810947360906857 94 77 51
0.13725112210139673 0.32235912631891134 -1.816272433892445 74 58 34
0.13813431990477615 0.3212911679531492 -1.8229227372452947 89 71 46
0.1388582886115549 0.32052063922709967 -1.8293767413923299 99 80 51
0.13278116555156863 0.33239364852663567 -1.826868337952014 97 78 48
0.12964779528794548 0.3387914187007758 -1.828213666114163 101 81 51
0.1304584307288428 0.33785914599608485 -1.8347758891189956 105 86 56
0.1255958106720304 0.34746686569705965 -1.8337965053886387 100 81 51
0.13901223712785804 0.32312356018634 -1.8571971013077577 96 77 47
0.12397175068503719 0.35162998996220574 -1.8425912581607138 96 77 47
0.1272958431760105 0.346033421060003 -1.8525453587028355 97 77 49
0.12817872632043253 0.3449709939127832 -1.8592425293331867 95 75 48
0.1295798295203947 0.34294839872748356 -1.8666534479451133 96 76 49
0.12996513054062953 0.342812028243652 -1.8727047457349424 95 75 47
0.13000608516262857 0.3433152772758828 -1.8782971432232038 90 70 42
0.12928128229432018 0.3452391054738384 -1.8828517681606671 99 79 51
0.13052220181546945 0.3435188934658858 -1.8900955174298766 99 79 51
0.1228554627698242 0.3583097253946011 -1.88513534303445 96 76 49
0.12381909040900463 0.3571029560820863 -1.8919940312590786 95 75 48
0.12509868663221027 0.3553123135320677 -1.899302811699809 93 73 46
0.12759812175229318 0.3512641341859771 -1.90831657707392 92 72 45
0.12284908685754653 0.36064063178561745 -1.9072950979175287 89 70 41
0.12186988305365676 0.36303479923870724 -1.9114895875808915 85 66 36
0.12196991174412991 0.3634313073878723 -1.9171892790893366 83 64 34
0.12283778811072801 0.3624077277944166 -1.9239713395900482 84 65 36
0.12293599749522477 0.36280941548842455 -1.9296858149732845 82 61 34
0.1212350151213922 0.3665395411113677 -1.932873126984394 77 56 29
0.12083635398460033 0.36786071902677536 -1.9378925435331373 80 59 32
0.1167377297543099 0.3760223061576786 -1.9376730359502932 80 59 32
0.11640843174619112 0.3772143301960467 -1.942781901985344 80 59 32
0.11059799804789003 0.3885349474651813 -1.9400838494423294 78 57 30
0.1117348345432769 0.38701682789943864 -1.9472726227280068 78 57 29
0.11519519889954724 0.38120886335828824 -1.9578072106898432 78 57 29
0.11590658838528933 0.38048063469609267 -1.9644254465580553 81 60 31
0.11483877140081217 0.3830382887786227 -1.968491220541713 89 68 39
0.12203556771986779 0.3703419107246559 -1.9845019948571652 85 64 34
0.119993555803172 0.37470025167278087 -1.9871847066437147 83 62 32
0.11650333971337598 0.3817291488057761 -1.9877513555495026 82 61 32
0.11437629804099197 0.38624148592722646 -1.990283033850198 80 59 31
0.11503676488835984 0.3856126537159085 -1.9968793691623137 77 56 29
0.113246329350809 0.3895033112138674 -1.999893686422576 76 55 28
0.11113360120139956 0.39398708784653674 -2.002425577045988 72 51 24
0.112073190943147 0.39284540051768835 -2.0094475417268827 71 50 23
0.10337224245004797 0.40946494572395464 -2.002226616522414 73 52 25
0.10443203584001459 0.4081006474140607 -2.009415138760249 74 53 25
0.11155359572428736 0.3979504184574346 -2.0483287478000185 96 73 45
0.10874347047266053 0.4037138138484851 -2.049780314092602 116 93 59
0.10605135917612016 0.4092584247059317 -2.0513932171715616 116 95 59
0.1033669083547677 0.4147872604650631 -2.0530015521151865 84 63 30
0.10051725569687578 0.42061801466283083 -2.054342485276902 76 56 24
0.1010193610630617 0.42028855266248205 -2.0607776331980867 76 55 25
0.09923057108958591 0.42416839619610547 -2.0637199898728045 76 55 25
0.09632176400168369 0.4301042166213327 -2.064936086750973 75 54 25
0.09260016845277858 0.4375304411187729 -2.064884118707936 71 50 21
0.09288023934130074 0.43760864836780766 -2.0709778924441378 69 48 18
0.0921436562639393 0.4395534880937745 -2.0755085010626 71 50 19
0.09177272248671253 0.4408275008188005 -2.0806063372160692 80 59 32
0.09160945166264617 0.441720961695723 -2.0860304333832946 83 62 35
0.09057613448221152 0.4442104545106109 -2.0901031994415753 83 62 35
0.08800685164294472 0.4495156804463368 -2.091772419718794 95 74 48
0.08625675599827631 0.4533178004014304 -2.0947104288732756 110 90 63
0.0843841650893303 0.4573435073599129 -2.097447466512527 101 81 53
0.08269637048392306 0.46102967336648926 -2.1004662992640117 79 59 31
0.08084350499358928 0.4656112408947571 -2.108893418319039 71 51 22
0.08190760880517428 0.46425780462610994 -2.1162680525375306 72 51 22
0.0819510724149613 0.4647740048663644 -2.122032145677395 71 50 21
0.0865052392910596 0.4570374217955142 -2.1350100283193787 72 50 20
0.08746392269953601 0.45588289852690883 -2.142273765069393 72 52 22
0.08842497270308156 0.4547256093373403 -2.149556237133939 70 50 22
0.08789235384745842 0.4563009203901359 -2.154447873999696 69 48 20
0.07735509458977491 0.4761644601744819 -2.1431840272270817 69 48 20
0.07375837190882192 0.48333531477258385 -2.1430745988019373 69 48 20
0.07256473439481873 0.4861130530258751 -2.146842442322403 71 50 22
0.07668229286453743 0.47918901971374106 -2.1592533305618904 70 49 21
0.07767630551891877 0.47797344825109983 -2.166607887197752 70 47 19
0.07813402652186785 0.47773857852654583 -2.1731000177262785 71 47 19
0.07675290740198276 0.48086112166139855 -2.1765851259402744 74 51 23
0.07640420619569543 0.4820991832783879 -2.1817636905069246 76 54 27
0.0757723177449729 0.4838542498839112 -2.186478711885897 75 54 26
0.07519544532498346 0.48550910054679597 -2.1912859375830123 73 52 24
0.07445181024264333 0.48746820096117155 -2.195818252763728 73 51 23
0.07746004363372955 0.4825879135453431 -2.2065900600989594 73 52 23
0.07735268354578725 0.48338918840692213 -2.212200198522813 75 54 24
0.07643276930654386 0.48567155978534576 -2.216457772452177 75 52 24
0.07497726001646082 0.48892941005755486 -2.2198162915457824 78 56 27
0.07553801509194841 0.4885148230933594 -2.22655726265349 78 54 26
0.07345813617991775 0.4929090884955552 -2.228860550933662 76 52 24
0.07121062322561392 0.49760726725031046 -2.2308690795324275 74 53 24
0.06206544700958491 0.5148558081232597 -2.221181097914578 75 54 23
0.0615597173088159 0.516379327767937 -2.226090931508327 78 57 26
0.05894899452691721 0.5217316081136509 -2.2274189182983295 77 56 25
0.05840920221843951 0.5233165685839702 -2.2322658636604356 80 60 27
0.057235455159971776 0.5260541730947427 -2.2360297453433646 87 70 36
0.056186580369918415 0.5285644554158775 -2.240004267207869 91 75 44
0.054038976479334005 0.5330707751186785 -2.2420859188421707 84 69 36
0.05215723887334808 0.537092870135846 -2.2446138311814874 80 65 33
0.05102239223432803 0.5397575764159694 -2.248423425519697 78 64 31
0.049712127415298624 0.5427404094197081 -2.2519255389878894 80 68 38
0.048959474855106516 0.544710634788848 -2.256392067556165 100 93 74
0.05007036400405809 0.5432993196447441 -2.264106499125952 155 153 146
0.050173140327988974 0.5437185923931439 -2.2700762493024462 182 181 180
0.21626176923225374 0.13678369622676395 -1.4439738017620534 93 80 62
0.20777430870663194 0.15335064034517476 -1.440889809981992 93 79 59
0.20547669838185384 0.1582385731317949 -1.4438678853203952 87 74 55
0.20015805242089907 0.16882137993023077 -1.443837950199051 88 74 54
0.19431775343283736 0.1803840485091343 -1.4432555801333713 90 76 55
0.18987249510938975 0.18931359188959396 -1.4440303529338254 97 83 61
0.18236073765344663 0.2040185319454415 -1.4417028626391424 104 89 67
0.17896274966390294 0.2109682445715928 -1.4434669610516508 106 89 67
0.17138696111838966 0.227421998955596 -1.4564739863338487 103 87 64
0.17781701100826247 0.21586754351540344 -1.4682356502176446 106 90 67
