ply
format ascii 1.0
element vertex 848
property float x
property float y
property float z
property float nx
property float ny
property float nz
property uchar diffuse_red
property uchar diffuse_green
property uchar diffuse_blue
property uchar class
property uchar detection
end_header
-0.3565 0.0325 -1.8826 -0.922 -0.084 0.378 66 46 19 0 0
-0.3598 0.0323 -1.8861 -0.930 -0.036 0.367 64 44 17 0 0
-0.3616 0.0322 -1.8906 -0.930 -0.036 0.367 64 42 16 0 0
-0.3622 0.0322 -1.8960 -0.922 -0.052 0.385 67 43 17 0 0
-0.3637 0.0322 -1.9007 -0.926 -0.050 0.374 69 45 19 0 0
-0.3895 0.0312 -1.9813 -0.746 -0.003 0.666 75 51 25 0 0
-0.3906 0.0311 -1.9864 -0.866 -0.053 0.497 76 52 26 0 0
-0.4028 0.0308 -2.0305 -0.942 -0.054 0.332 91 69 28 0 0
-0.5349 0.0223 -2.2300 -0.815 -0.231 0.531 103 80 38 0 0
-0.5317 0.0233 -2.2759 -0.944 -0.213 0.250 100 88 75 0 0
-0.0324 0.0503 -0.9040 -0.164 -0.075 0.984 127 109 84 0 0
-0.1818 0.0392 -1.0360 -0.929 -0.116 0.352 69 49 25 0 0
-0.1834 0.0391 -1.0402 -0.929 -0.116 0.352 61 41 17 0 0
-0.1866 0.0390 -1.0486 -0.929 -0.116 0.352 53 34 16 0 0
-0.1846 0.0394 -1.0637 -0.927 -0.031 0.374 68 47 27 0 0
-0.1402 0.0467 -1.2751 -0.990 0.071 0.123 37 29 14 0 0
-0.1410 0.0474 -1.3213 -0.997 0.041 0.059 41 30 19 0 0
-0.1410 0.0475 -1.3265 -0.989 0.145 0.022 42 29 19 0 0
-0.1351 0.0484 -1.3500 -0.990 -0.061 0.130 175 145 92 0 0
-0.1357 0.0484 -1.3550 -0.956 -0.199 0.216 177 143 87 0 0
-0.1649 0.0462 -1.3781 -0.861 -0.305 0.408 156 125 84 0 0
-0.2294 0.0418 -1.4622 -0.868 -0.098 0.488 105 81 38 0 0
-0.2317 0.0417 -1.4663 -0.868 -0.098 0.488 109 84 44 0 0
-0.2368 0.0414 -1.4743 -0.869 -0.301 0.392 79 57 22 0 0
-0.2414 0.0411 -1.4825 -0.901 -0.082 0.426 97 73 38 0 0
-0.2423 0.0411 -1.4873 -0.864 -0.093 0.494 138 111 69 0 0
-0.2547 0.0402 -1.5020 -0.725 -0.079 0.684 76 56 30 0 0
-0.2743 0.0394 -1.5555 -0.858 -0.212 0.468 62 41 22 0 0
-0.2793 0.0390 -1.5635 -0.905 -0.015 0.426 56 36 19 0 0
-0.2824 0.0388 -1.5672 -0.932 -0.201 0.302 56 37 19 0 0
-0.2881 0.0385 -1.5801 -0.849 0.100 0.519 91 74 45 0 0
-0.3756 0.0318 -1.6419 -0.892 0.393 0.225 83 59 28 0 0
-0.3314 0.0378 -1.7743 -0.973 0.123 0.194 84 60 30 0 0
-0.3324 0.0378 -1.7793 -0.878 0.190 0.440 72 48 20 0 0
-0.3532 0.0375 -1.8736 -0.946 -0.103 0.306 71 50 23 0 0
-0.3551 0.0374 -1.8781 -0.922 -0.084 0.378 68 47 20 0 0
-0.3580 0.0373 -1.8876 -0.853 -0.280 0.441 62 41 14 0 0
-0.3610 0.0371 -1.8913 -0.928 -0.028 0.371 62 41 14 0 0
-0.3625 0.0370 -1.8960 -0.922 -0.052 0.385 66 42 16 0 0
-0.3640 0.0370 -1.9007 -0.926 -0.050 0.374 71 47 21 0 0
-0.3665 0.0368 -1.9048 -0.929 -0.195 0.314 69 45 19 0 0
-0.3876 0.0363 -1.9889 -0.990 -0.104 0.098 76 52 26 0 0
-0.3889 0.0365 -2.0115 -0.957 -0.069 0.283 77 53 25 0 0
-0.4072 0.0352 -2.0274 -0.854 -0.034 0.520 93 71 30 0 0
-0.4097 0.0350 -2.0314 -0.854 -0.034 0.520 122 100 57 0 0
-0.4146 0.0347 -2.0395 -0.854 -0.034 0.520 81 62 26 0 0
-0.4171 0.0346 -2.0436 -0.854 -0.034 0.520 105 84 46 0 0
-0.4535 0.0324 -2.1106 -0.805 0.032 0.593 89 63 27 0 0
-0.5239 0.0276 -2.1971 -0.964 -0.105 0.245 106 82 41 0 0
-0.5283 0.0275 -2.2177 -0.900 -0.078 0.428 99 75 34 0 0
-0.5306 0.0274 -2.2218 -0.893 -0.071 0.445 99 76 33 0 0
-0.5361 0.0277 -2.2723 -0.940 0.012 0.340 101 90 77 0 0
-0.1818 0.0437 -1.0361 -0.944 -0.048 0.327 73 53 31 0 0
-0.1855 0.0435 -1.0443 -0.841 -0.080 0.536 60 42 22 0 0
-0.1848 0.0439 -1.0637 -0.927 -0.031 0.374 71 52 32 0 0
-0.1369 0.0519 -1.2818 -0.961 0.012 0.276 32 23 13 0 0
-0.1398 0.0527 -1.3480 -0.953 0.002 0.304 177 146 91 0 0
-0.1416 0.0526 -1.3524 -0.976 -0.176 0.130 199 168 110 0 0
-0.2221 0.0469 -1.4396 -0.947 0.053 0.318 131 106 61 0 0
-0.2331 0.0463 -1.4657 -0.851 -0.174 0.496 103 79 40 0 0
-0.2382 0.0460 -1.4737 -0.946 -0.219 0.237 77 55 19 0 0
-0.2418 0.0458 -1.4824 -0.901 -0.082 0.426 91 69 35 0 0
-0.2428 0.0458 -1.4872 -0.864 -0.093 0.494 141 115 73 0 0
-0.2628 0.0444 -1.5138 -0.636 -0.295 0.713 67 46 20 0 0
-0.2750 0.0440 -1.5553 -0.852 -0.148 0.502 67 46 27 0 0
-0.3291 0.0425 -1.7535 -0.908 -0.396 0.137 87 68 42 0 0
-0.3302 0.0425 -1.7640 -0.943 -0.316 0.104 30 15 3 0 0
-0.3387 0.0429 -1.8321 -0.915 -0.291 0.279 75 51 23 0 0
-0.3395 0.0429 -1.8372 -0.915 -0.370 0.164 74 50 24 0 0
-0.3515 0.0425 -1.8750 -0.839 -0.225 0.495 68 47 20 0 0
-0.3540 0.0423 -1.8790 -0.821 -0.211 0.531 64 43 16 0 0
-0.3566 0.0422 -1.8830 -0.821 -0.211 0.531 61 40 13 0 0
-0.3591 0.0420 -1.8870 -0.922 -0.052 0.385 58 37 10 0 0
-0.3612 0.0419 -1.8914 -0.928 -0.028 0.371 62 41 14 0 0
-0.3628 0.0418 -1.8960 -0.922 -0.052 0.385 68 44 18 0 0
-0.3675 0.0415 -1.9043 -0.852 0.019 0.524 69 45 19 0 0
-0.3757 0.0412 -1.9275 -0.945 -0.191 0.264 76 52 26 0 0
-0.3902 0.0407 -1.9754 -0.944 0.139 0.299 74 50 24 0 0
-0.3933 0.0407 -1.9907 -0.685 -0.271 0.676 77 53 27 0 0
-0.3918 0.0411 -2.0096 -0.871 -0.324 0.368 76 52 24 0 0
-0.3945 0.0410 -2.0194 -0.922 -0.085 0.378 78 54 28 0 0
-0.4075 0.0400 -2.0274 -0.854 -0.034 0.520 88 67 26 0 0
-0.4110 0.0397 -2.0307 -0.847 0.011 0.532 119 98 59 0 0
-0.4134 0.0396 -2.0348 -0.905 0.074 0.419 88 72 42 0 0
-0.4154 0.0395 -2.0392 -0.905 0.074 0.419 85 68 33 0 0
-0.4176 0.0394 -2.0434 -0.961 -0.025 0.277 104 85 47 0 0
-0.4211 0.0391 -2.0467 -0.847 0.011 0.532 83 63 28 0 0
-0.4527 0.0373 -2.1115 -0.831 0.198 0.520 84 59 24 0 0
-0.5234 0.0326 -2.2100 -0.904 -0.202 0.376 92 69 29 0 0
-0.5276 0.0323 -2.2125 -0.934 -0.083 0.346 90 67 29 0 0
-0.5299 0.0323 -2.2227 -0.877 -0.370 0.305 93 70 33 0 0
-0.5338 0.0319 -2.2254 -0.840 -0.148 0.522 100 77 37 0 0
-0.5402 0.0316 -2.2382 -0.816 -0.085 0.571 102 82 41 0 0
-0.5335 0.0328 -2.2749 -0.810 -0.083 0.581 103 94 80 0 0
-0.1575 0.0491 -0.9547 -0.759 -0.287 0.584 97 73 40 0 0
-0.1578 0.0538 -1.2270 -0.972 0.196 -0.128 48 35 19 0 0
-0.1369 0.0577 -1.3442 -0.877 0.365 0.314 158 129 77 0 0
-0.1881 0.0539 -1.3935 -0.908 -0.092 0.408 106 78 36 0 0
-0.2038 0.0528 -1.4121 -0.726 -0.108 0.680 109 83 53 0 0
-0.2104 0.0523 -1.4193 -0.798 -0.028 0.602 120 94 56 0 0
-0.2339 0.0510 -1.4655 -0.851 -0.174 0.496 82 60 23 0 0
-0.2432 0.0505 -1.4871 -0.864 -0.093 0.494 123 98 59 0 0
-0.2511 0.0500 -1.4989 -0.702 -0.157 0.695 141 117 78 0 0
-0.2618 0.0492 -1.5145 -0.761 0.096 0.641 67 45 21 0 0
-0.2619 0.0496 -1.5358 -0.912 -0.177 0.369 68 42 13 0 0
-0.2963 0.0475 -1.5973 -0.649 -0.267 0.712 154 125 80 0 0
-0.3780 0.0407 -1.6354 -0.885 0.120 0.449 91 68 35 0 0
-0.3713 0.0418 -1.6611 -0.649 -0.720 -0.246 76 61 34 0 0
-0.3686 0.0422 -1.6681 -0.691 -0.682 -0.239 86 70 39 0 0
-0.3332 0.0468 -1.7511 -0.902 0.023 0.431 77 59 31 0 0
-0.3333 0.0469 -1.7566 -0.932 -0.185 0.312 37 23 5 0 0
-0.3348 0.0469 -1.7612 -0.932 -0.185 0.312 31 17 2 0 0
-0.3410 0.0476 -1.8364 -0.918 -0.341 0.203 74 50 23 0 0
-0.3501 0.0474 -1.8705 -0.839 -0.225 0.495 70 46 20 0 0
-0.3524 0.0472 -1.8746 -0.839 -0.225 0.495 63 42 15 0 0
-0.3595 0.0468 -1.8870 -0.878 -0.067 0.473 61 40 13 0 0
-0.3617 0.0467 -1.8912 -0.910 -0.023 0.413 66 44 18 0 0
-0.3850 0.0457 -1.9560 -0.974 0.051 0.221 72 48 22 0 0
-0.3993 0.0454 -2.0161 -0.790 -0.502 0.351 77 53 24 0 0
-0.4105 0.0446 -2.0313 -0.809 -0.060 0.585 123 102 64 0 0
-0.4209 0.0439 -2.0411 -0.653 -0.246 0.716 103 83 46 0 0
-0.4246 0.0436 -2.0442 -0.635 -0.268 0.725 80 60 25 0 0
-0.5231 0.0374 -2.2045 -0.826 -0.287 0.485 96 73 32 0 0
-0.5243 0.0373 -2.2096 -0.904 -0.202 0.376 87 66 26 0 0
-0.5313 0.0369 -2.2218 -0.909 -0.257 0.329 79 59 26 0 0
-0.5406 0.0364 -2.2381 -0.816 -0.085 0.571 101 82 42 0 0
-0.5344 0.0375 -2.2744 -0.854 0.086 0.514 107 99 86 0 0
-0.1064 0.0576 -0.9148 -0.910 -0.220 0.350 134 111 81 0 0
-0.1871 0.0524 -1.0439 -0.841 -0.166 0.515 49 33 13 0 0
-0.1888 0.0534 -1.1058 -0.996 -0.007 0.093 61 47 25 0 0
-0.1851 0.0543 -1.1364 -0.999 0.000 -0.035 73 55 35 0 0
-0.1644 0.0574 -1.2043 -0.919 -0.098 0.381 71 56 33 0 0
-0.1560 0.0586 -1.2279 -0.990 0.115 -0.086 49 36 19 0 0
-0.1450 0.0602 -1.2580 -0.876 0.481 -0.022 47 34 18 0 0
-0.1930 0.0582 -1.3965 -0.740 -0.183 0.647 122 93 56 0 0
-0.2083 0.0571 -1.4152 -0.782 -0.168 0.600 119 94 57 0 0
-0.2112 0.0569 -1.4190 -0.782 -0.168 0.600 148 120 79 0 0
-0.2578 0.0541 -1.5008 -0.847 -0.121 0.518 72 48 18 0 0
-0.2601 0.0540 -1.5049 -0.768 0.118 0.629 68 46 22 0 0
-0.2602 0.0540 -1.5102 -0.863 -0.029 0.505 65 43 19 0 0
-0.2623 0.0542 -1.5304 -0.938 0.083 0.336 70 45 18 0 0
-0.2813 0.0532 -1.5736 -0.867 0.006 0.499 79 58 34 0 0
-0.3208 0.0501 -1.6049 -0.380 -0.247 0.891 149 123 83 0 0
-0.3760 0.0456 -1.6367 -0.945 -0.197 0.260 92 69 36 0 0
-0.3797 0.0454 -1.6453 -0.849 -0.528 0.039 96 78 45 0 0
-0.3301 0.0522 -1.7701 -0.941 -0.339 0.020 85 64 37 0 0
-0.3592 0.0518 -1.8932 -0.958 -0.194 0.209 67 45 18 0 0
-0.4268 0.0487 -2.0727 -0.861 0.047 0.507 70 50 18 0 0
-0.4289 0.0486 -2.0769 -0.836 -0.056 0.546 85 65 32 0 0
-0.4589 0.0465 -2.1131 -0.763 0.112 0.637 86 63 27 0 0
-0.5235 0.0421 -2.2044 -0.859 -0.205 0.470 95 72 31 0 0
-0.5251 0.0421 -2.2092 -0.896 -0.231 0.379 84 65 23 0 0
-0.5275 0.0419 -2.2132 -0.864 -0.269 0.426 79 61 22 0 0
-0.5409 0.0411 -2.2381 -0.905 -0.360 0.227 99 80 42 0 0
-0.5424 0.0415 -2.2676 -0.839 -0.455 0.298 111 105 92 0 0
-0.1695 0.0576 -0.9885 -0.912 -0.106 0.396 67 46 23 0 0
-0.1851 0.0589 -1.1365 -0.999 0.000 -0.035 76 58 39 0 0
-0.1417 0.0652 -1.2595 -0.820 0.556 -0.134 46 34 18 0 0
-0.1442 0.0669 -1.3621 -0.936 -0.267 0.228 166 129 77 0 0
-0.1472 0.0668 -1.3712 -0.919 -0.093 0.383 181 144 93 0 0
-0.2081 0.0619 -1.4155 -0.800 -0.211 0.562 100 75 39 0 0
-0.2588 0.0587 -1.5004 -0.859 -0.125 0.497 67 42 15 0 0
-0.2596 0.0587 -1.5053 -0.845 0.104 0.525 61 39 16 0 0
-0.2605 0.0587 -1.5102 -0.843 0.228 0.487 60 38 15 0 0
-0.3554 0.0516 -1.6063 -0.674 0.377 0.635 165 145 113 0 0
-0.3689 0.0505 -1.6144 -0.461 -0.022 0.887 146 125 99 0 0
-0.3714 0.0509 -1.6505 -0.935 -0.139 -0.325 88 67 36 0 0
-0.3278 0.0575 -1.7830 -0.880 -0.466 0.092 80 59 27 0 0
-0.3289 0.0575 -1.7880 -0.914 -0.170 0.368 103 83 55 0 0
-0.3307 0.0574 -1.7925 -0.914 -0.170 0.368 90 72 48 0 0
-0.3587 0.0565 -1.8880 -0.962 -0.127 0.243 72 48 22 0 0
-0.3840 0.0557 -1.9689 -0.963 -0.085 0.257 72 51 24 0 0
-0.4262 0.0537 -2.0733 -0.856 0.085 0.509 74 54 22 0 0
-0.4287 0.0535 -2.0774 -0.856 0.085 0.509 83 63 31 0 0
-0.4565 0.0517 -2.1214 -0.771 -0.251 0.586 85 61 25 0 0
-0.4700 0.0504 -2.1224 -0.837 -0.265 0.479 84 60 24 0 0
-0.4929 0.0492 -2.1700 -0.884 0.107 0.455 90 66 28 0 0
-0.5286 0.0466 -2.2125 -0.864 -0.269 0.426 81 62 22 0 0
-0.0599 0.0709 -0.9055 -0.842 -0.222 0.491 121 103 78 0 0
-0.0668 0.0703 -0.9081 -0.617 -0.655 0.436 122 103 73 0 0
-0.0667 0.0704 -0.9129 -0.634 -0.681 0.366 136 116 84 0 0
-0.1868 0.0618 -1.0585 -0.990 -0.006 0.143 50 32 14 0 0
-0.1893 0.0617 -1.0671 -0.961 0.099 0.258 64 46 27 0 0
-0.1886 0.0623 -1.0963 -1.000 -0.009 -0.004 56 39 21 0 0
-0.1886 0.0624 -1.1012 -0.970 -0.012 0.243 76 59 39 0 0
-0.1810 0.0641 -1.1481 -0.983 0.037 -0.181 79 61 41 0 0
-0.1788 0.0645 -1.1588 -0.993 -0.116 -0.029 71 53 32 0 0
-0.1267 0.0730 -1.3440 -0.285 0.530 0.799 164 134 83 0 0
-0.1335 0.0724 -1.3461 -0.538 0.654 0.532 195 163 107 0 0
-0.2282 0.0652 -1.4423 -0.970 -0.051 0.236 106 82 42 0 0
-0.2590 0.0636 -1.5111 -0.845 -0.023 0.534 61 39 16 0 0
-0.2650 0.0631 -1.5132 -0.827 -0.218 0.518 61 39 16 0 0
-0.2610 0.0638 -1.5314 -0.922 0.128 0.366 62 40 15 0 0
-0.2874 0.0623 -1.5813 -0.793 -0.138 0.593 110 90 58 0 0
-0.3333 0.0581 -1.5926 -0.576 -0.266 0.773 127 106 78 0 0
-0.3375 0.0578 -1.5955 -0.896 0.099 0.433 142 114 75 0 0
-0.3534 0.0565 -1.6077 -0.729 -0.073 0.681 158 136 103 0 0
-0.3588 0.0560 -1.6098 -0.968 0.110 0.225 172 149 125 0 0
-0.3598 0.0560 -1.6146 -0.978 0.021 0.207 168 148 126 0 0
-0.3266 0.0608 -1.7002 -0.827 0.524 -0.205 103 82 47 0 0
-0.3273 0.0610 -1.7108 -0.978 0.016 0.207 102 79 45 0 0
-0.3294 0.0608 -1.7150 -0.865 -0.084 0.494 102 79 45 0 0
-0.3120 0.0639 -1.7879 -0.826 0.015 0.563 88 64 32 0 0
-0.3275 0.0626 -1.7948 -0.827 -0.053 0.560 85 67 43 0 0
-0.3587 0.0614 -1.8882 -0.967 -0.151 0.205 68 44 18 0 0
-0.3597 0.0614 -1.8933 -0.967 -0.151 0.205 66 42 16 0 0
-0.3652 0.0613 -1.9184 -0.980 -0.067 0.186 71 47 21 0 0
-0.3852 0.0605 -1.9741 -0.974 -0.020 0.227 76 55 26 0 0
-0.3988 0.0598 -2.0053 -0.958 -0.128 0.256 79 54 26 0 0
-0.3996 0.0600 -2.0166 -0.955 -0.177 0.237 87 63 29 0 0
-0.4008 0.0599 -2.0216 -0.955 -0.177 0.237 100 79 46 0 0
-0.4260 0.0585 -2.0737 -0.856 0.085 0.509 71 50 18 0 0
-0.4566 0.0565 -2.1215 -0.851 -0.003 0.525 86 62 26 0 0
-0.4825 0.0548 -2.1608 -0.772 -0.044 0.634 86 62 24 0 0
-0.4877 0.0545 -2.1685 -0.832 -0.018 0.555 91 67 29 0 0
-0.4926 0.0541 -2.1705 -0.928 -0.028 0.371 93 69 31 0 0
-0.5051 0.0532 -2.1903 -0.729 0.536 0.426 95 70 30 0 0
-0.5472 0.0504 -2.2515 -0.833 0.409 0.373 80 65 43 0 0
-0.0692 0.0747 -0.9074 -0.651 -0.556 0.517 127 108 78 0 0
-0.0706 0.0746 -0.9118 -0.634 -0.681 0.366 133 112 81 0 0
-0.1826 0.0670 -1.0697 -0.902 0.104 0.418 73 54 33 0 0
-0.1850 0.0681 -1.1368 -0.982 0.111 -0.152 75 57 34 0 0
-0.1781 0.0692 -1.1592 -0.883 -0.457 -0.102 74 55 33 0 0
-0.1156 0.0789 -1.3439 -0.441 0.678 0.589 115 86 39 0 0
-0.1272 0.0778 -1.3439 -0.653 0.742 0.149 177 145 93 0 0
-0.1280 0.0778 -1.3488 -0.679 0.728 0.093 173 141 87 0 0
-0.1330 0.0774 -1.3517 -0.571 0.695 0.437 181 148 90 0 0
-0.1467 0.0761 -1.3559 -0.945 0.131 0.301 167 132 77 0 0
-0.1445 0.0765 -1.3622 -0.842 -0.113 0.527 170 136 82 0 0
-0.2397 0.0693 -1.4630 -0.907 -0.017 0.420 87 66 34 0 0
-0.2434 0.0693 -1.4823 -0.925 0.140 0.352 59 45 18 0 0
-0.3223 0.0637 -1.5831 -0.552 0.392 0.736 134 109 78 0 0
-0.3358 0.0625 -1.5913 -0.611 0.239 0.754 119 95 64 0 0
-0.3381 0.0624 -1.5953 -0.801 0.215 0.558 141 113 75 0 0
-0.3408 0.0622 -1.5991 -0.801 0.215 0.558 121 96 61 0 0
-0.3544 0.0610 -1.6072 -0.792 0.165 0.589 185 161 125 0 0
-0.3588 0.0607 -1.6100 -0.909 0.226 0.349 160 136 112 0 0
-0.3605 0.0606 -1.6143 -0.909 0.226 0.349 166 146 126 0 0
-0.3124 0.0682 -1.7652 -0.971 0.211 0.109 51 33 12 0 0
-0.3548 0.0661 -1.8623 -0.922 0.145 0.358 71 47 21 0 0
-0.3549 0.0665 -1.8853 -0.891 0.122 0.438 67 43 17 0 0
-0.3571 0.0664 -1.8896 -0.891 0.122 0.438 68 44 18 0 0
-0.3591 0.0663 -1.8939 -0.899 0.155 0.410 68 44 18 0 0
-0.3607 0.0662 -1.8986 -0.974 0.012 0.227 68 44 18 0 0
-0.3630 0.0663 -1.9144 -0.927 -0.235 0.292 72 48 22 0 0
-0.3729 0.0662 -1.9540 -0.738 -0.177 0.652 72 48 22 0 0
-0.4345 0.0629 -2.0913 -0.777 -0.209 0.594 131 108 66 0 0
-0.4575 0.0613 -2.1211 -0.694 0.134 0.707 85 61 25 0 0
-0.4928 0.0589 -2.1706 -0.928 -0.028 0.371 91 67 29 0 0
-0.4950 0.0587 -2.1748 -0.927 -0.113 0.357 90 67 27 0 0
-0.4958 0.0588 -2.1803 -0.918 -0.229 0.323 94 71 29 0 0
-0.4977 0.0587 -2.1847 -0.896 -0.189 0.401 97 72 31 0 0
-0.1831 0.0732 -1.1523 -0.978 0.203 0.039 75 55 31 0 0
-0.1348 0.0809 -1.2989 -0.933 0.100 0.345 45 32 19 0 0
-0.1138 0.0836 -1.3291 -0.512 0.549 0.661 51 36 19 0 0
-0.1145 0.0836 -1.3340 -0.382 0.466 0.798 60 41 17 0 0
-0.2851 0.0719 -1.5775 -0.834 -0.523 0.177 96 76 47 0 0
-0.2877 0.0717 -1.5815 -0.810 -0.426 0.403 103 85 53 0 0
-0.3429 0.0666 -1.5981 -0.470 -0.322 0.821 121 96 59 0 0
-0.3722 0.0647 -1.6452 -0.875 -0.476 0.086 84 61 30 0 0
-0.3115 0.0732 -1.7659 -0.971 0.237 0.018 46 30 9 0 0
-0.3116 0.0733 -1.7715 -0.883 0.381 0.275 30 19 5 0 0
-0.3290 0.0732 -1.8513 -0.855 -0.117 0.504 76 54 28 0 0
-0.4229 0.0683 -2.0587 -0.833 0.074 0.548 77 54 22 0 0
-0.4407 0.0675 -2.1047 -0.828 -0.236 0.509 94 70 34 0 0
-0.4432 0.0673 -2.1087 -0.814 -0.030 0.580 86 63 28 0 0
-0.4565 0.0661 -2.1161 -0.825 0.108 0.554 82 58 22 0 0
-0.4626 0.0658 -2.1293 -0.754 -0.346 0.559 84 60 24 0 0
-0.0240 0.0883 -0.9021 -0.258 0.281 0.925 123 105 79 0 0
-0.1278 0.0863 -1.2969 -0.944 0.170 0.283 58 44 31 0 0
-0.1286 0.0863 -1.3017 -0.873 -0.016 0.487 45 31 18 0 0
-0.1309 0.0862 -1.3059 -0.873 -0.016 0.487 40 28 16 0 0
-0.1105 0.0888 -1.3307 -0.352 0.376 0.857 59 40 23 0 0
-0.1131 0.0886 -1.3348 -0.233 0.282 0.931 68 46 19 0 0
-0.1237 0.0880 -1.3562 -0.914 0.342 -0.218 162 128 79 0 0
-0.1239 0.0881 -1.3614 -0.975 -0.029 -0.219 167 133 80 0 0
-0.1558 0.0850 -1.3676 -0.881 -0.027 0.473 154 118 73 0 0
-0.2103 0.0804 -1.4044 -0.929 -0.196 0.313 106 82 46 0 0
-0.2115 0.0804 -1.4091 -0.944 -0.187 0.273 131 108 71 0 0
-0.2159 0.0800 -1.4121 -0.977 0.119 0.177 98 76 44 0 0
-0.3734 0.0686 -1.6123 -0.848 -0.066 0.526 86 63 33 0 0
-0.3738 0.0687 -1.6175 -0.895 -0.258 0.364 91 68 37 0 0
-0.3737 0.0688 -1.6229 -0.923 -0.185 0.336 87 64 32 0 0
-0.3111 0.0784 -1.7834 -0.799 -0.436 0.413 86 64 35 0 0
-0.3179 0.0779 -1.7903 -0.714 -0.429 0.553 87 68 35 0 0
-0.3267 0.0771 -1.7959 -0.951 0.307 -0.042 79 61 38 0 0
-0.3571 0.0769 -1.9307 -0.854 0.027 0.519 72 48 22 0 0
-0.4007 0.0746 -2.0224 -0.856 -0.274 0.439 91 70 39 0 0
-0.4200 0.0733 -2.0552 -0.807 0.097 0.583 79 56 25 0 0
-0.4308 0.0727 -2.0768 -0.943 0.120 0.309 83 62 32 0 0
-0.4562 0.0710 -2.1166 -0.825 0.108 0.554 85 61 25 0 0
-0.4661 0.0704 -2.1327 -0.841 -0.096 0.533 87 63 27 0 0
-0.5482 0.0647 -2.2516 -0.842 -0.239 0.483 72 60 41 0 0
-0.1007 0.0853 -0.9074 -0.445 -0.525 0.725 128 106 77 0 0
-0.1053 0.0942 -1.3331 -0.482 0.332 0.811 64 42 21 0 0
-0.1336 0.0919 -1.3623 -0.563 0.042 0.825 158 124 75 0 0
-0.2114 0.0850 -1.4040 -0.900 0.033 0.435 133 106 67 0 0
-0.2123 0.0850 -1.4088 -0.927 -0.162 0.338 131 108 70 0 0
-0.2217 0.0845 -1.4304 -0.818 0.020 0.574 121 96 51 0 0
-0.2253 0.0843 -1.4339 -0.811 0.069 0.581 115 91 47 0 0
-0.2287 0.0840 -1.4374 -0.874 0.015 0.485 109 85 44 0 0
-0.2567 0.0827 -1.5076 -0.864 -0.437 0.249 61 39 18 0 0
-0.2768 0.0820 -1.5663 -0.902 0.320 0.291 61 41 23 0 0
-0.2885 0.0809 -1.5705 -0.801 -0.318 0.508 84 63 35 0 0
-0.3168 0.0784 -1.5867 -0.504 0.387 0.772 114 92 63 0 0
-0.3776 0.0735 -1.6422 -0.966 -0.255 -0.033 84 60 33 0 0
-0.3164 0.0828 -1.7858 -0.703 -0.524 0.481 84 63 32 0 0
-0.3968 0.0794 -2.0019 -0.937 0.219 0.270 74 54 24 0 0
-0.4137 0.0784 -2.0366 -0.666 0.064 0.743 87 64 29 0 0
-0.4190 0.0782 -2.0503 -0.918 -0.154 0.365 79 56 23 0 0
-0.4559 0.0759 -2.1171 -0.825 0.108 0.554 85 61 25 0 0
-0.5492 0.0694 -2.2510 -0.842 -0.239 0.483 75 63 45 0 0
0.0054 0.1006 -0.9012 -0.234 0.232 0.944 133 112 84 0 0
-0.0015 0.0999 -0.9040 -0.604 0.301 0.738 139 118 90 0 0
-0.1673 0.0892 -1.1787 -0.785 0.619 0.028 90 76 52 0 0
-0.1692 0.0891 -1.1830 -0.779 0.568 0.265 93 78 54 0 0
-0.1667 0.0896 -1.1940 -0.817 -0.353 0.456 84 68 45 0 0
-0.1432 0.0958 -1.3632 -0.503 -0.095 0.859 163 132 85 0 0
-0.2130 0.0897 -1.4086 -0.927 -0.162 0.338 127 100 59 0 0
-0.2147 0.0896 -1.4130 -0.927 -0.162 0.338 122 96 60 0 0
-0.2225 0.0892 -1.4301 -0.829 -0.321 0.458 122 98 52 0 0
-0.2238 0.0892 -1.4347 -0.761 -0.389 0.519 107 83 40 0 0
-0.2423 0.0875 -1.4464 -0.796 -0.402 0.452 77 54 23 0 0
-0.2451 0.0873 -1.4502 -0.934 0.187 0.303 65 42 12 0 0
-0.3163 0.0831 -1.5872 -0.505 0.236 0.830 127 106 76 0 0
-0.3216 0.0826 -1.5895 -0.408 0.146 0.901 111 92 55 0 0
-0.3720 0.0779 -1.6082 -0.855 -0.192 0.482 90 66 37 0 0
-0.3542 0.0864 -1.9040 -0.868 0.197 0.456 72 48 22 0 0
-0.3714 0.0863 -1.9796 -0.927 -0.171 0.334 78 57 26 0 0
-0.4593 0.0807 -2.1268 -0.600 -0.397 0.695 85 61 25 0 0
-0.4664 0.0807 -2.1634 -0.933 0.221 0.284 90 68 29 0 0
-0.5149 0.0767 -2.2017 -0.804 -0.179 0.567 102 79 36 0 0
-0.5171 0.0765 -2.2059 -0.857 -0.161 0.489 98 77 34 0 0
-0.5682 0.0728 -2.2712 -0.793 0.570 0.216 201 202 204 0 0
-0.1038 0.1039 -1.3288 -0.787 0.072 -0.613 76 54 30 0 0
-0.1279 0.1021 -1.3599 -0.697 -0.700 0.154 140 108 64 0 0
-0.1329 0.1016 -1.3629 -0.469 -0.384 0.796 141 109 67 0 0
-0.2376 0.0928 -1.4489 -0.964 -0.074 0.255 76 53 20 0 0
-0.2418 0.0926 -1.4573 -0.976 0.047 0.214 74 54 21 0 0
-0.2454 0.0923 -1.4608 -0.954 -0.240 0.182 73 51 19 0 0
-0.2500 0.0923 -1.4849 -0.846 -0.149 0.512 105 82 45 0 0
-0.2514 0.0923 -1.4894 -0.751 -0.095 0.653 99 79 50 0 0
-0.2627 0.0914 -1.4993 -0.714 -0.408 0.569 66 44 23 0 0
-0.2716 0.0918 -1.5587 -0.853 0.084 0.514 62 40 18 0 0
-0.3718 0.0826 -1.6085 -0.876 0.011 0.482 79 55 26 0 0
-0.3749 0.0824 -1.6120 -0.930 0.032 0.365 89 66 36 0 0
-0.3766 0.0823 -1.6163 -0.930 0.032 0.365 90 67 33 0 0
-0.3198 0.0903 -1.7110 -0.680 -0.148 0.718 116 93 58 0 0
-0.3224 0.0917 -1.7823 -0.819 -0.434 0.377 85 61 32 0 0
-0.3274 0.0922 -1.8245 -0.926 -0.000 0.377 76 55 28 0 0
-0.3305 0.0919 -1.8282 -0.878 -0.126 0.462 76 55 28 0 0
-0.3429 0.0913 -1.8543 -0.992 0.129 -0.001 71 49 25 0 0
-0.3576 0.0911 -1.9135 -0.903 0.127 0.412 69 45 21 0 0
-0.4212 0.0877 -2.0492 -0.917 0.132 0.377 78 55 24 0 0
-0.4146 0.0886 -2.0602 -0.773 0.301 0.559 78 54 23 0 0
-0.5015 0.0827 -2.1951 -0.919 -0.050 0.391 106 83 42 0 0
-0.5066 0.0822 -2.1969 -0.857 -0.125 0.499 105 82 41 0 0
-0.5168 0.0815 -2.2125 -0.761 -0.096 0.641 99 76 35 0 0
-0.1188 0.1067 -1.3117 -0.866 0.489 0.108 47 32 20 0 0
-0.1344 0.1061 -1.3570 -0.722 -0.131 0.680 136 106 63 0 0
-0.1395 0.1057 -1.3599 -0.538 0.182 0.823 125 97 54 0 0
-0.1419 0.1055 -1.3641 -0.644 -0.008 0.765 129 100 65 0 0
-0.1906 0.1011 -1.3936 -0.817 0.074 0.571 150 119 73 0 0
-0.2099 0.0994 -1.4051 -0.847 0.139 0.513 168 141 94 0 0
-0.2140 0.0992 -1.4136 -0.828 0.172 0.534 160 131 87 0 0
-0.2385 0.0974 -1.4486 -0.964 -0.192 0.187 79 56 23 0 0
-0.2429 0.0973 -1.4622 -0.942 0.129 0.309 82 60 28 0 0
-0.2617 0.0961 -1.4947 -0.333 0.160 0.929 87 66 42 0 0
-0.2641 0.0959 -1.4987 -0.819 0.112 0.563 54 32 10 0 0
-0.2668 0.0957 -1.5026 -0.819 0.112 0.563 64 42 19 0 0
-0.2659 0.0960 -1.5084 -0.926 -0.266 0.267 55 33 11 0 0
-0.2574 0.0975 -1.5344 -0.745 -0.548 0.381 43 24 9 0 0
-0.2691 0.0967 -1.5549 -0.850 0.145 0.506 110 87 62 0 0
-0.2713 0.0966 -1.5591 -0.853 0.084 0.514 67 46 21 0 0
-0.3514 0.0892 -1.5993 -0.592 0.205 0.779 194 171 131 0 0
-0.3738 0.0871 -1.6128 -0.718 0.103 0.688 82 59 29 0 0
-0.3815 0.0866 -1.6243 -0.925 -0.238 0.296 78 55 25 0 0
-0.3254 0.0962 -1.7805 -0.907 0.211 0.364 83 61 31 0 0
-0.3215 0.0971 -1.8001 -0.984 0.067 0.163 46 31 15 0 0
-0.3406 0.0960 -1.8388 -0.995 -0.057 0.086 74 52 27 0 0
-0.3663 0.0956 -1.9367 -0.836 0.391 0.384 69 45 19 0 0
-0.4308 0.0923 -2.0839 -0.909 -0.130 0.397 101 81 37 0 0
-0.5002 0.0877 -2.1965 -0.953 0.016 0.302 108 85 44 0 0
-0.5542 0.0834 -2.2536 -0.638 -0.053 0.768 119 112 99 0 0
-0.5568 0.0834 -2.2636 -0.978 0.179 0.106 176 178 176 0 0
-0.5489 0.0848 -2.2893 -0.526 -0.163 0.835 202 203 205 0 0
0.0979 0.1246 -0.9038 -0.480 0.573 0.665 139 130 125 0 0
-0.2247 0.1030 -1.4241 -0.707 -0.293 0.644 110 85 44 0 0
-0.2337 0.1025 -1.4407 -0.734 -0.318 0.600 81 58 24 0 0
-0.2641 0.1006 -1.4989 -0.843 0.060 0.535 58 36 13 0 0
-0.2666 0.1005 -1.5029 -0.843 0.060 0.535 71 49 26 0 0
-0.2676 0.1005 -1.5077 -0.835 -0.155 0.527 65 43 19 0 0
-0.2523 0.1024 -1.5213 -0.916 0.125 0.380 63 41 17 0 0
-0.2940 0.0993 -1.5735 -0.573 0.388 0.722 106 87 49 0 0
-0.3697 0.0921 -1.6100 -0.848 0.054 0.527 85 60 29 0 0
-0.3783 0.0920 -1.6425 -0.992 -0.010 -0.128 81 56 26 0 0
-0.3203 0.1013 -1.7727 -0.929 -0.202 0.309 69 54 35 0 0
-0.3388 0.1009 -1.8345 -0.834 0.122 0.538 72 50 27 0 0
-0.3398 0.1010 -1.8453 -0.996 -0.055 0.066 71 49 25 0 0
-0.3502 0.1013 -1.9017 -0.853 -0.094 0.513 69 45 21 0 0
-0.3561 0.1010 -1.9150 -0.949 0.001 0.316 69 45 21 0 0
-0.3574 0.1010 -1.9199 -0.857 -0.171 0.486 68 44 20 0 0
-0.4281 0.0975 -2.0862 -0.836 0.103 0.538 99 78 32 0 0
-0.4619 0.0958 -2.1618 -0.888 0.322 0.329 92 70 31 0 0
-0.5520 0.0887 -2.2620 -0.958 -0.272 0.087 160 158 151 0 0
-0.5536 0.0886 -2.2668 -0.823 -0.356 0.442 181 182 182 0 0
-0.5540 0.0887 -2.2726 -1.000 -0.017 0.024 192 193 195 0 0
-0.5577 0.0884 -2.2754 -0.766 -0.634 0.109 199 200 202 0 0
-0.5532 0.0891 -2.2857 -0.410 -0.297 0.862 203 204 206 0 0
0.0991 0.1295 -0.9042 -0.514 0.517 0.684 161 158 157 0 0
-0.0855 0.1205 -1.3373 -0.726 -0.008 -0.688 77 52 21 0 0
-0.2044 0.1096 -1.4133 -0.708 0.026 0.706 159 132 93 0 0
-0.2059 0.1096 -1.4178 -0.910 0.056 0.411 121 98 67 0 0
-0.2285 0.1074 -1.4276 -0.845 -0.329 0.421 108 84 42 0 0
-0.2301 0.1076 -1.4426 -0.920 -0.340 0.196 87 63 28 0 0
-0.2677 0.1051 -1.5024 -0.971 -0.207 0.118 63 42 17 0 0
-0.2677 0.1052 -1.5078 -0.898 0.029 0.440 64 42 18 0 0
-0.2519 0.1072 -1.5216 -0.865 0.060 0.499 62 39 16 0 0
-0.3319 0.1062 -1.8222 -0.732 0.217 0.646 74 53 26 0 0
-0.3438 0.1053 -1.8371 -0.891 0.243 0.383 70 48 25 0 0
-0.3482 0.1060 -1.8859 -0.896 -0.092 0.434 78 56 32 0 0
-0.3508 0.1061 -1.9015 -0.883 -0.088 0.460 69 46 22 0 0
-0.3661 0.1057 -1.9491 -0.888 0.065 0.456 66 44 20 0 0
-0.3715 0.1053 -1.9569 -0.824 0.001 0.567 66 44 19 0 0
-0.3718 0.1054 -1.9625 -0.921 0.238 0.309 73 52 23 0 0
-0.4221 0.1027 -2.0732 -0.915 0.403 0.019 90 68 37 0 0
-0.4278 0.1025 -2.0867 -0.836 0.103 0.538 95 74 27 0 0
-0.5336 0.0960 -2.2851 -0.999 0.024 -0.049 183 184 183 0 0
-0.5603 0.0929 -2.2734 -0.730 -0.503 0.462 200 201 203 0 0
-0.1202 0.1179 -1.1933 -0.697 0.429 0.574 97 79 56 0 0
-0.1216 0.1179 -1.1978 -0.595 0.393 0.702 63 47 30 0 0
-0.1258 0.1175 -1.2011 -0.595 0.393 0.702 72 61 45 0 0
-0.1756 0.1168 -1.3854 -0.903 -0.096 0.418 135 108 68 0 0
-0.2035 0.1145 -1.4139 -0.817 0.108 0.567 136 110 76 0 0
-0.2058 0.1144 -1.4181 -0.910 0.056 0.411 118 94 60 0 0
-0.2356 0.1120 -1.4505 -0.995 -0.026 0.096 77 54 24 0 0
-0.2365 0.1120 -1.4554 -0.962 -0.132 0.239 80 57 26 0 0
-0.2675 0.1100 -1.5080 -0.960 0.087 0.264 65 43 20 0 0
-0.2783 0.1097 -1.5449 -0.686 -0.085 0.722 66 45 28 0 0
-0.3144 0.1113 -1.7600 -0.984 0.173 0.050 54 38 23 0 0
-0.3504 0.1107 -1.8904 -0.892 0.035 0.452 72 52 27 0 0
-0.3592 0.1108 -1.9308 -0.858 -0.111 0.501 67 43 19 0 0
-0.3642 0.1106 -1.9448 -0.790 -0.425 0.441 65 43 19 0 0
-0.3665 0.1105 -1.9490 -0.790 -0.425 0.441 63 41 17 0 0
-0.3681 0.1104 -1.9537 -0.983 0.145 0.111 62 40 16 0 0
-0.3710 0.1102 -1.9575 -0.923 0.330 0.200 64 43 18 0 0
-0.3874 0.1099 -2.0164 -0.948 0.136 0.289 77 56 27 0 0
-0.3897 0.1098 -2.0206 -0.888 0.329 0.322 95 77 46 0 0
-0.5305 0.0996 -2.2202 -0.783 0.043 0.621 87 68 25 0 0
-0.5363 0.1004 -2.2768 -0.993 0.119 0.027 170 170 166 0 0
-0.2021 0.1193 -1.4094 -0.913 -0.002 0.409 126 101 62 0 0
-0.2815 0.1148 -1.5702 -0.811 0.276 0.516 77 56 26 0 0
-0.2844 0.1146 -1.5739 -0.544 -0.015 0.839 123 101 68 0 0
-0.2881 0.1142 -1.5772 -0.534 0.010 0.845 123 100 65 0 0
-0.2929 0.1138 -1.5799 -0.414 -0.099 0.905 139 116 86 0 0
-0.2997 0.1131 -1.5815 -0.415 -0.119 0.902 123 100 70 0 0
-0.3807 0.1054 -1.6308 -0.982 0.140 -0.124 90 67 36 0 0
-0.3811 0.1057 -1.6413 -0.877 0.101 0.470 83 60 29 0 0
-0.3744 0.1067 -1.6508 -0.918 -0.114 -0.380 103 82 52 0 0
-0.3133 0.1163 -1.7609 -0.952 0.296 0.081 48 32 17 0 0
-0.3276 0.1166 -1.8312 -0.951 0.020 0.309 75 55 28 0 0
-0.3589 0.1157 -1.9312 -0.897 0.020 0.443 68 44 20 0 0
-0.3610 0.1156 -1.9356 -0.793 -0.004 0.610 65 42 18 0 0
-0.3652 0.1152 -1.9384 -0.815 0.133 0.564 62 40 16 0 0
-0.3654 0.1153 -1.9442 -0.939 -0.095 0.329 63 41 17 0 0
-0.3670 0.1153 -1.9488 -0.939 -0.095 0.329 63 41 17 0 0
-0.3674 0.1154 -1.9544 -0.983 0.145 0.111 62 40 16 0 0
-0.3913 0.1146 -2.0256 -0.893 -0.144 0.427 78 61 29 0 0
-0.3933 0.1145 -2.0300 -0.893 -0.144 0.427 79 61 21 0 0
-0.4835 0.1081 -2.1630 -0.869 -0.030 0.493 96 72 34 0 0
-0.4859 0.1079 -2.1671 -0.869 -0.030 0.493 98 74 36 0 0
-0.1428 0.1296 -1.3695 -0.729 0.186 0.658 104 86 59 0 0
-0.2188 0.1228 -1.4329 -0.919 0.036 0.393 65 46 20 0 0
-0.2206 0.1227 -1.4373 -0.860 0.014 0.510 72 52 24 0 0
-0.2352 0.1228 -1.4989 -0.983 0.112 -0.144 109 86 62 0 0
-0.2357 0.1230 -1.5093 -0.883 0.097 0.460 63 41 17 0 0
-0.2862 0.1192 -1.5785 -0.348 0.132 0.928 151 128 82 0 0
-0.3021 0.1175 -1.5803 -0.275 -0.154 0.949 116 92 60 0 0
-0.3645 0.1116 -1.6192 -0.834 -0.092 0.544 101 78 44 0 0
-0.3106 0.1208 -1.7403 -0.867 0.450 0.213 100 79 48 0 0
-0.3263 0.1216 -1.8323 -0.941 0.199 0.275 75 55 28 0 0
-0.3622 0.1203 -1.9350 -0.857 0.185 0.481 62 38 14 0 0
-0.4467 0.1154 -2.1026 -0.612 -0.143 0.778 91 67 28 0 0
-0.4649 0.1136 -2.1120 -0.969 0.183 0.165 88 65 24 0 0
-0.1562 0.1330 -1.3739 -0.743 0.408 0.530 115 90 64 0 0
-0.2498 0.1248 -1.4595 -0.725 0.383 0.573 94 70 43 0 0
-0.2528 0.1246 -1.4632 -0.725 0.383 0.573 66 46 22 0 0
-0.2333 0.1276 -1.4946 -0.949 0.240 -0.202 128 103 67 0 0
-0.2341 0.1277 -1.4995 -0.984 0.162 -0.077 103 82 57 0 0
-0.2337 0.1279 -1.5052 -0.984 0.162 -0.077 112 90 67 0 0
-0.2363 0.1277 -1.5091 -0.910 -0.115 0.399 63 40 17 0 0
-0.3658 0.1163 -1.6240 -0.915 0.031 0.402 96 73 42 0 0
-0.3651 0.1255 -1.9566 -0.906 0.355 0.230 59 38 15 0 0
-0.4480 0.1201 -2.1018 -0.616 -0.490 0.617 91 66 26 0 0
-0.4348 0.1221 -2.1184 -0.935 -0.268 0.232 90 65 25 0 0
-0.4607 0.1189 -2.1097 -0.755 0.298 0.584 89 64 24 0 0
-0.4624 0.1190 -2.1204 -0.952 -0.260 -0.164 88 64 26 0 0
-0.1372 0.1398 -1.3671 -0.906 0.113 0.408 113 95 66 0 0
-0.1542 0.1381 -1.3750 -0.743 0.408 0.530 108 84 55 0 0
-0.2330 0.1329 -1.5110 -0.677 0.233 0.698 64 41 18 0 0
-0.3227 0.1249 -1.5903 -0.653 -0.083 0.752 158 130 89 0 0
-0.3436 0.1308 -1.8844 -0.907 0.050 0.418 77 57 32 0 0
-0.3721 0.1303 -1.9812 -0.834 0.083 0.546 78 57 26 0 0
-0.5148 0.1202 -2.2044 -0.931 -0.026 0.364 100 78 37 0 0
-0.1020 0.1482 -1.3517 -0.429 0.434 0.793 106 85 55 0 0
-0.1072 0.1477 -1.3546 -0.424 0.363 0.829 108 87 58 0 0
-0.3498 0.1270 -1.6070 -0.824 0.299 0.482 194 172 129 0 0
-0.3688 0.1258 -1.6441 -0.962 0.195 0.191 78 55 24 0 0
-0.3712 0.1257 -1.6481 -0.914 0.142 0.380 85 63 32 0 0
-0.3294 0.1364 -1.8538 -0.937 0.200 0.287 73 51 27 0 0
-0.3331 0.1364 -1.8687 -0.733 -0.286 0.617 76 54 30 0 0
-0.3438 0.1361 -1.9019 -0.963 0.251 0.103 68 46 22 0 0
-0.3702 0.1352 -1.9769 -0.915 0.052 0.401 82 61 30 0 0
-0.3967 0.1335 -2.0225 -0.925 -0.010 0.379 76 60 22 0 0
-0.4622 0.1291 -2.1332 -0.958 -0.286 0.013 89 63 26 0 0
-0.4990 0.1270 -2.2060 -0.859 0.076 0.507 111 87 44 0 0
-0.0864 0.1550 -1.3536 -0.487 0.288 0.824 108 87 56 0 0
-0.1288 0.1505 -1.3713 -0.626 0.338 0.703 106 83 57 0 0
-0.2355 0.1407 -1.4620 -0.703 -0.182 0.688 69 47 21 0 0
-0.2265 0.1427 -1.4933 -0.993 -0.020 0.116 139 112 70 0 0
-0.2289 0.1427 -1.5028 -0.975 -0.187 0.121 97 77 51 0 0
-0.2426 0.1428 -1.5602 -0.947 -0.109 0.302 89 71 47 0 0
-0.2469 0.1424 -1.5632 -0.867 0.255 0.429 72 51 27 0 0
-0.3582 0.1310 -1.6183 -0.848 0.029 0.529 90 67 37 0 0
-0.3666 0.1308 -1.6456 -0.905 0.425 -0.036 86 63 32 0 0
-0.3286 0.1414 -1.8546 -0.937 0.200 0.287 76 55 30 0 0
-0.3304 0.1413 -1.8592 -0.929 0.041 0.367 79 58 34 0 0
-0.2284 0.1472 -1.4924 -0.730 -0.349 0.588 137 111 74 0 0
-0.2417 0.1475 -1.5554 -0.573 -0.133 0.809 70 52 26 0 0
-0.2435 0.1475 -1.5598 -0.933 -0.277 0.231 91 72 47 0 0
-0.2440 0.1476 -1.5650 -0.961 0.033 0.273 64 43 19 0 0
-0.3576 0.1358 -1.6188 -0.944 0.083 0.320 94 71 40 0 0
-0.3036 0.1456 -1.7344 -0.990 0.125 0.060 86 65 34 0 0
-0.4569 0.1393 -2.1259 -0.886 0.141 0.441 89 63 26 0 0
-0.5369 0.1340 -2.2660 -0.795 0.389 0.465 146 143 135 0 0
-0.0910 0.1604 -1.2315 -0.568 0.786 0.246 111 92 61 0 0
-0.0738 0.1664 -1.3596 -0.227 0.287 0.931 109 88 60 0 0
-0.1046 0.1629 -1.3668 -0.785 0.449 0.427 106 86 59 0 0
-0.2300 0.1518 -1.4917 -0.730 -0.349 0.588 116 91 65 0 0
-0.2397 0.1526 -1.5566 -0.696 0.157 0.700 80 62 37 0 0
-0.2496 0.1519 -1.5729 -0.900 0.377 0.220 69 49 21 0 0
-0.3358 0.1425 -1.5995 -0.487 -0.085 0.869 159 130 78 0 0
-0.3618 0.1402 -1.6272 -0.960 0.126 0.250 91 71 38 0 0
-0.3682 0.1400 -1.6450 -0.951 0.236 -0.200 94 73 42 0 0
-0.3679 0.1402 -1.6506 -0.955 0.285 -0.077 95 71 42 0 0
-0.4360 0.1466 -2.1249 -0.726 -0.455 0.516 89 63 26 0 0
-0.4979 0.1418 -2.2079 -0.825 0.178 0.536 105 82 41 0 0
-0.5359 0.1390 -2.2672 -0.794 0.327 0.512 156 153 147 0 0
-0.0798 0.1667 -1.2362 -0.486 0.807 0.336 118 102 72 0 0
-0.1864 0.1594 -1.4129 -0.800 0.095 0.592 129 108 75 0 0
-0.1890 0.1592 -1.4169 -0.987 -0.055 0.150 122 100 70 0 0
-0.2321 0.1563 -1.4908 -0.586 -0.341 0.735 130 105 74 0 0
-0.2402 0.1555 -1.4972 -0.609 -0.324 0.724 106 82 52 0 0
-0.2415 0.1572 -1.5558 -0.740 -0.037 0.671 90 72 45 0 0
-0.2503 0.1565 -1.5672 -0.878 0.390 0.276 67 47 18 0 0
-0.2682 0.1545 -1.5735 -0.686 0.228 0.691 135 111 77 0 0
-0.3410 0.1466 -1.6020 -0.487 -0.085 0.869 166 138 89 0 0
-0.3597 0.1452 -1.6287 -0.947 0.032 0.321 84 64 31 0 0
-0.3220 0.1575 -1.8771 -0.866 0.047 0.498 81 61 36 0 0
-0.3398 0.1561 -1.8997 -0.887 -0.200 0.417 77 55 31 0 0
-0.4377 0.1515 -2.1299 -0.954 0.197 0.227 87 61 24 0 0
-0.4595 0.1498 -2.1608 -0.959 -0.101 0.264 88 62 25 0 0
-0.4755 0.1486 -2.1842 -0.936 -0.075 0.343 75 53 21 0 0
-0.4941 0.1470 -2.2052 -0.739 0.184 0.648 94 71 33 0 0
-0.5113 0.1456 -2.2273 -0.872 0.175 0.457 100 79 36 0 0
-0.5339 0.1442 -2.2692 -0.874 0.150 0.462 166 164 158 0 0
-0.5362 0.1440 -2.2734 -0.874 0.150 0.462 188 187 186 0 0
-0.5425 0.1433 -2.2740 -0.735 -0.268 0.623 196 196 196 0 0
-0.1893 0.1639 -1.4169 -0.987 -0.055 0.150 119 100 68 0 0
-0.3596 0.1499 -1.6289 -0.947 0.032 0.321 89 68 36 0 0
-0.2919 0.1611 -1.7198 -0.954 -0.195 0.229 116 94 59 0 0
-0.3790 0.1606 -2.0371 -0.735 0.294 0.612 115 99 65 0 0
-0.3826 0.1602 -2.0404 -0.808 0.481 0.340 98 79 46 0 0
-0.4352 0.1567 -2.1322 -0.727 0.205 0.655 87 63 25 0 0
-0.4967 0.1517 -2.2094 -0.825 0.178 0.536 95 72 37 0 0
-0.5108 0.1506 -2.2281 -0.872 0.175 0.457 89 68 29 0 0
-0.5339 0.1493 -2.2757 -0.654 0.443 0.613 188 188 189 0 0
-0.1519 0.1729 -1.4034 -0.997 -0.081 -0.011 126 101 64 0 0
-0.2395 0.1669 -1.5518 -0.730 -0.205 0.653 92 73 40 0 0
-0.2751 0.1635 -1.5808 -0.445 0.155 0.882 103 83 51 0 0
-0.3595 0.1546 -1.6291 -0.947 0.032 0.321 87 66 35 0 0
-0.2930 0.1658 -1.7193 -0.885 -0.410 0.220 120 97 63 0 0
-0.2992 0.1656 -1.7379 -0.998 0.048 -0.043 98 75 43 0 0
-0.3157 0.1673 -1.8528 -0.664 0.271 0.697 77 57 30 0 0
-0.3750 0.1659 -2.0344 -0.976 0.157 0.154 98 79 41 0 0
-0.3764 0.1659 -2.0394 -0.840 0.002 0.543 127 105 71 0 0
-0.2132 0.1721 -1.4636 -0.980 0.049 0.191 85 64 33 0 0
-0.2365 0.1720 -1.5481 -0.560 -0.203 0.803 129 105 69 0 0
-0.2397 0.1717 -1.5518 -0.707 -0.133 0.694 124 102 68 0 0
-0.3337 0.1730 -1.9458 -0.949 -0.019 0.314 74 53 25 0 0
-0.5171 0.1598 -2.2355 -0.908 -0.111 0.404 88 71 28 0 0
-0.5319 0.1587 -2.2595 -0.899 0.123 0.420 124 118 103 0 0
0.0222 0.1992 -1.2468 -0.061 0.719 0.692 193 194 194 0 0
-0.1649 0.1814 -1.4187 -0.887 0.064 0.457 128 103 70 0 0
-0.2209 0.1774 -1.5080 -0.977 0.189 -0.102 91 67 35 0 0
-0.3627 0.1643 -1.6493 -0.975 0.155 -0.157 97 75 49 0 0
-0.3503 0.1775 -1.9934 -0.795 0.222 0.564 78 57 26 0 0
-0.3680 0.1775 -2.0583 -0.948 0.222 -0.227 81 59 26 0 0
-0.4238 0.1718 -2.0996 -0.918 0.068 0.391 86 64 25 0 0
-0.5282 0.1642 -2.2631 -0.959 0.250 0.132 134 129 117 0 0
-0.2109 0.1816 -1.4544 -0.778 0.441 0.448 91 68 37 0 0
-0.2228 0.1817 -1.5018 -0.729 0.409 0.549 99 74 37 0 0
-0.3416 0.1704 -1.6133 -0.744 -0.345 0.572 158 135 98 0 0
-0.2837 0.1837 -1.7824 -0.970 0.157 0.183 97 74 43 0 0
-0.3873 0.1794 -2.0438 -0.988 0.078 0.133 81 61 28 0 0
-0.4152 0.1785 -2.1188 -0.704 -0.076 0.706 88 66 29 0 0
-0.5034 0.1708 -2.2233 -0.891 0.007 0.454 85 65 30 0 0
-0.5056 0.1707 -2.2276 -0.891 0.007 0.454 85 65 30 0 0
-0.2099 0.1875 -1.4818 -0.886 0.362 0.288 101 80 51 0 0
-0.3081 0.1788 -1.5951 -0.292 0.047 0.955 142 116 74 0 0
-0.3476 0.1748 -1.6261 -0.869 0.155 0.469 93 69 41 0 0
-0.3503 0.1746 -1.6300 -0.929 -0.025 0.368 88 67 40 0 0
-0.3520 0.1745 -1.6343 -0.950 0.181 0.255 84 63 36 0 0
-0.2878 0.1891 -1.8143 -0.859 -0.311 0.407 101 81 46 0 0
-0.3169 0.1880 -1.8877 -0.983 -0.098 0.155 77 56 31 0 0
-0.3185 0.1879 -1.8925 -0.890 -0.099 0.446 76 54 28 0 0
-0.3246 0.1882 -1.9234 -0.921 0.144 0.362 73 53 26 0 0
-0.4104 0.1833 -2.0986 -0.593 0.414 0.691 100 78 40 0 0
-0.4207 0.1828 -2.1208 -0.664 -0.204 0.719 86 64 28 0 0
-0.4407 0.1811 -2.1474 -0.910 0.198 0.364 90 66 30 0 0
-0.5030 0.1758 -2.2240 -0.750 -0.117 0.652 88 68 33 0 0
-0.5057 0.1756 -2.2278 -0.891 0.007 0.454 87 67 32 0 0
-0.2040 0.1930 -1.4796 -0.771 0.536 0.343 111 87 48 0 0
-0.2057 0.1929 -1.4841 -0.958 0.164 0.234 162 138 98 0 0
-0.2197 0.1920 -1.5091 -0.820 0.503 0.275 97 74 42 0 0
-0.3380 0.1802 -1.6103 -0.802 0.018 0.597 170 147 111 0 0
-0.2944 0.1935 -1.8218 -0.960 -0.024 0.281 93 72 42 0 0
-0.3799 0.1901 -2.0380 -0.434 -0.079 0.898 97 73 35 0 0
-0.3799 0.1905 -2.0500 -0.985 -0.158 -0.074 86 61 28 0 0
-0.4215 0.1876 -2.1204 -0.532 -0.379 0.757 88 66 30 0 0
-0.4440 0.1855 -2.1450 -0.982 -0.020 0.189 91 67 31 0 0
-0.4999 0.1810 -2.2208 -0.855 0.012 0.518 88 68 33 0 0
-0.5023 0.1808 -2.2248 -0.855 0.012 0.518 89 69 34 0 0
-0.5058 0.1805 -2.2280 -0.891 0.007 0.454 90 70 35 0 0
-0.5079 0.1803 -2.2323 -0.891 0.007 0.454 88 68 32 0 0
-0.2013 0.1982 -1.4812 -0.706 0.664 0.246 151 124 83 0 0
-0.2105 0.1988 -1.5304 -0.594 -0.316 0.739 69 48 22 0 0
-0.2129 0.1986 -1.5345 -0.844 -0.080 0.531 66 49 19 0 0
-0.2040 0.2002 -1.5447 -0.992 0.032 0.126 138 118 76 0 0
-0.2055 0.2002 -1.5494 -0.705 -0.124 0.698 192 167 123 0 0
-0.2088 0.1999 -1.5531 -0.739 0.131 0.661 152 124 75 0 0
-0.3087 0.1882 -1.5951 -0.276 -0.040 0.960 138 111 66 0 0
-0.3359 0.1851 -1.6063 -0.635 0.022 0.772 159 134 90 0 0
-0.3380 0.1849 -1.6105 -0.802 0.018 0.597 154 131 89 0 0
-0.3512 0.1839 -1.6298 -0.873 0.067 0.484 93 69 43 0 0
-0.2930 0.1984 -1.8171 -0.980 -0.172 0.097 98 77 46 0 0
-0.2894 0.1991 -1.8252 -0.614 -0.362 0.702 94 74 43 0 0
-0.3565 0.1994 -2.0741 -0.680 0.220 0.700 88 65 31 0 0
-0.4034 0.1941 -2.0986 -0.782 0.316 0.537 112 92 54 0 0
-0.4074 0.1937 -2.1015 -0.703 0.405 0.585 95 73 35 0 0
-0.5037 0.1855 -2.2240 -0.891 0.007 0.454 89 69 34 0 0
-0.5058 0.1853 -2.2283 -0.891 0.007 0.454 90 70 35 0 0
-0.5121 0.1866 -2.2849 -0.948 0.078 0.310 189 188 188 0 0
-0.1981 0.2035 -1.4830 -0.692 0.639 0.335 157 130 87 0 0
-0.2129 0.2031 -1.5238 -0.891 0.186 0.414 83 62 30 0 0
-0.2082 0.2040 -1.5317 -0.549 -0.028 0.836 68 47 22 0 0
-0.2143 0.2033 -1.5339 -0.861 0.121 0.494 90 69 33 0 0
-0.2261 0.2021 -1.5439 -0.656 0.494 0.571 153 127 82 0 0
-0.2395 0.2010 -1.5637 -0.948 0.281 0.151 107 84 49 0 0
-0.3509 0.1887 -1.6301 -0.921 0.118 0.372 95 72 45 0 0
-0.2750 0.2051 -1.8002 -0.766 0.537 0.354 105 84 57 0 0
-0.2720 0.2057 -1.8079 -0.727 -0.274 0.629 86 65 38 0 0
-0.2752 0.2055 -1.8116 -0.671 -0.266 0.692 105 84 54 0 0
-0.2912 0.2036 -1.8185 -0.998 0.055 -0.022 99 78 47 0 0
-0.2900 0.2040 -1.8250 -0.693 -0.344 0.634 102 81 50 0 0
-0.3683 0.2014 -2.0352 -0.568 0.103 0.816 143 117 71 0 0
-0.3716 0.2011 -2.0387 -0.724 -0.013 0.689 104 81 37 0 0
-0.3810 0.1998 -2.0376 -0.434 -0.079 0.898 93 71 31 0 0
-0.4022 0.1993 -2.0998 -0.782 0.316 0.537 99 79 41 0 0
-0.5118 0.1915 -2.2855 -0.932 0.240 0.272 191 190 191 0 0
-0.0822 0.2208 -1.4000 -0.297 -0.039 0.954 112 90 60 0 0
-0.1816 0.2097 -1.4593 -0.772 0.498 0.394 104 85 55 0 0
-0.2126 0.2076 -1.5133 -0.928 0.058 0.367 102 80 49 0 0
-0.2495 0.2053 -1.5856 -0.628 0.134 0.767 120 101 68 0 0
-0.3000 0.1989 -1.5951 -0.407 0.215 0.888 142 118 74 0 0
-0.3432 0.1946 -1.6349 -0.688 -0.017 0.725 91 71 40 0 0
-0.2871 0.2087 -1.8098 -0.646 -0.383 0.660 107 85 54 0 0
-0.3127 0.2092 -1.9149 -0.761 0.316 0.567 81 60 29 0 0
-0.3143 0.2092 -1.9197 -0.854 0.373 0.363 101 79 48 0 0
-0.3685 0.2063 -2.0353 -0.726 0.062 0.684 124 99 56 0 0
-0.3718 0.2060 -2.0388 -0.724 -0.013 0.689 98 76 35 0 0
-0.3745 0.2058 -2.0427 -0.899 -0.188 0.396 92 70 31 0 0
-0.3778 0.2055 -2.0463 -0.765 -0.502 0.403 89 66 31 0 0
-0.3982 0.2049 -2.1032 -0.938 0.289 0.191 92 70 32 0 0
-0.4092 0.2035 -2.1067 -0.617 -0.398 0.679 90 68 31 0 0
-0.4321 0.2020 -2.1493 -0.841 0.144 0.522 91 67 31 0 0
-0.4353 0.2022 -2.1652 -0.885 0.210 0.415 73 50 19 0 0
-0.5211 0.1945 -2.2651 -0.771 0.363 0.523 164 162 157 0 0
-0.5233 0.1943 -2.2694 -0.892 0.219 0.396 183 185 182 0 0
-0.5158 0.1960 -2.2885 -0.810 -0.168 0.562 200 201 200 0 0
-0.5374 0.1926 -2.2754 -0.232 -0.190 0.954 203 205 204 0 0
-0.0167 0.2352 -1.4143 -0.106 0.804 0.585 112 92 64 0 0
-0.2706 0.2139 -1.7575 -0.706 -0.541 0.457 117 94 60 0 0
-0.2741 0.2142 -1.7782 -0.574 0.792 0.209 104 83 50 0 0
-0.2905 0.2133 -1.8136 -0.923 -0.319 0.215 106 85 54 0 0
-0.3128 0.2144 -1.9210 -0.894 0.298 0.334 103 80 48 0 0
-0.3981 0.2098 -2.1035 -0.975 0.034 0.220 93 70 32 0 0
-0.5175 0.1997 -2.2623 -0.743 0.385 0.548 144 141 131 0 0
-0.5203 0.1995 -2.2661 -0.755 0.266 0.599 173 172 169 0 0
-0.5233 0.1992 -2.2697 -0.755 0.266 0.599 188 189 187 0 0
-0.5256 0.1991 -2.2738 -0.455 -0.058 0.889 196 197 196 0 0
-0.5143 0.2012 -2.2901 -0.898 -0.388 0.206 201 202 202 0 0
-0.1189 0.2267 -1.4260 -0.650 0.563 0.511 124 101 68 0 0
-0.1794 0.2208 -1.4876 -0.507 0.737 0.446 129 105 71 0 0
-0.1844 0.2202 -1.4905 -0.742 0.557 0.373 128 104 71 0 0
-0.1885 0.2198 -1.4937 -0.661 0.616 0.428 126 102 72 0 0
-0.2158 0.2186 -1.5608 -0.707 0.474 0.525 95 74 43 0 0
-0.2189 0.2184 -1.5646 -0.697 0.496 0.518 108 88 56 0 0
-0.2650 0.2195 -1.7556 -0.984 -0.150 0.097 114 91 59 0 0
-0.2669 0.2198 -1.7715 -0.714 0.693 0.098 122 97 64 0 0
-0.2671 0.2212 -1.8059 -0.564 0.316 0.763 76 58 26 0 0
-0.2911 0.2206 -1.8773 -0.948 0.176 0.267 106 83 49 0 0
-0.3142 0.2191 -1.9202 -0.891 0.204 0.405 102 79 45 0 0
-0.4063 0.2139 -2.1095 -0.685 -0.237 0.689 89 67 30 0 0
-0.5119 0.2053 -2.2614 -0.787 0.245 0.566 124 116 103 0 0
-0.5158 0.2049 -2.2641 -0.817 0.333 0.470 156 155 147 0 0
-0.5195 0.2045 -2.2671 -0.664 0.234 0.710 179 180 176 0 0
-0.5229 0.2042 -2.2703 -0.664 0.234 0.710 193 193 193 0 0
-0.5272 0.2037 -2.2727 -0.588 -0.198 0.784 198 198 198 0 0
-0.5282 0.2038 -2.2780 -0.566 -0.354 0.745 202 202 202 0 0
-0.2569 0.2253 -1.7494 -0.937 0.349 -0.022 110 90 59 0 0
-0.2585 0.2252 -1.7541 -0.931 0.238 -0.277 115 92 61 0 0
-0.2633 0.2254 -1.7740 -0.900 0.368 0.235 117 92 59 0 0
-0.2607 0.2260 -1.7814 -0.886 0.459 -0.067 108 84 55 0 0
-0.2623 0.2260 -1.7861 -0.841 0.510 0.180 108 87 56 0 0
-0.2781 0.2264 -1.8512 -0.842 0.080 0.533 112 89 56 0 0
-0.2911 0.2258 -1.8834 -0.872 0.378 0.311 108 85 52 0 0
-0.3735 0.2208 -2.0443 -0.905 -0.245 0.347 94 72 35 0 0
-0.3424 0.2268 -2.0862 -0.736 0.500 0.455 88 66 29 0 0
-0.5059 0.2110 -2.2607 -0.928 0.364 0.080 107 95 74 0 0
-0.5108 0.2105 -2.2627 -0.770 0.310 0.557 137 131 120 0 0
-0.1112 0.2377 -1.4299 -0.566 0.229 0.792 102 82 56 0 0
-0.2799 0.2208 -1.5964 -0.223 0.345 0.912 122 100 66 0 0
-0.2547 0.2306 -1.7509 -0.918 0.396 0.034 113 90 59 0 0
-0.2759 0.2317 -1.8528 -0.657 0.318 0.683 113 90 58 0 0
-0.2993 0.2309 -1.9133 -0.802 0.396 0.448 108 86 51 0 0
-0.3871 0.2269 -2.1191 -0.977 0.064 0.203 92 70 33 0 0
-0.4730 0.2185 -2.2088 -0.834 -0.302 0.461 81 58 26 0 0
-0.4748 0.2189 -2.2259 -0.730 0.182 0.659 80 57 25 0 0
-0.4887 0.2167 -2.2202 -0.913 0.013 0.409 84 61 27 0 0
-0.5047 0.2162 -2.2621 -0.949 0.290 0.121 116 106 87 0 0
-0.5096 0.2156 -2.2640 -0.770 0.310 0.557 152 146 138 0 0
-0.2010 0.2354 -1.5639 -0.672 0.653 0.349 98 80 50 0 0
-0.2044 0.2351 -1.5675 -0.696 0.616 0.369 98 80 50 0 0
-0.2139 0.2342 -1.5789 -0.766 0.450 0.459 92 75 47 0 0
-0.2597 0.2363 -1.7881 -0.741 0.627 0.241 118 95 66 0 0
-0.2615 0.2386 -1.8508 -0.632 0.148 0.761 114 91 59 0 0
-0.2775 0.2369 -1.8637 -0.958 0.029 0.284 106 85 54 0 0
-0.2785 0.2370 -1.8688 -0.991 0.029 0.133 107 85 54 0 0
-0.3321 0.2354 -2.0154 -0.983 0.184 -0.008 92 69 35 0 0
-0.4681 0.2245 -2.2195 -0.923 -0.000 0.385 85 62 31 0 0
-0.4863 0.2221 -2.2225 -0.948 0.017 0.319 86 63 30 0 0
-0.5020 0.2216 -2.2648 -0.901 0.398 0.173 131 122 106 0 0
-0.5069 0.2210 -2.2667 -0.769 0.476 0.427 163 160 153 0 0
-0.1429 0.2464 -1.5125 -0.533 0.702 0.472 99 80 54 0 0
-0.1424 0.2470 -1.5237 -0.691 0.365 0.624 93 76 50 0 0
-0.1489 0.2461 -1.5258 -0.814 0.140 0.564 89 72 45 0 0
-0.2695 0.2319 -1.5972 -0.284 0.143 0.948 130 107 70 0 0
-0.2656 0.2432 -1.8542 -0.272 0.132 0.953 114 91 59 0 0
-0.2942 0.2427 -1.9410 -0.985 0.092 0.144 100 77 43 0 0
-0.2932 0.2431 -1.9477 -0.935 -0.213 0.285 100 77 43 0 0
-0.2981 0.2425 -1.9502 -0.947 -0.026 0.321 101 78 44 0 0
-0.3652 0.2389 -2.0939 -0.567 -0.201 0.799 109 88 46 0 0
-0.3768 0.2377 -2.1033 -0.887 0.253 0.386 107 84 49 0 0
-0.3762 0.2383 -2.1159 -0.813 0.472 0.341 94 71 36 0 0
-0.3923 0.2362 -2.1217 -0.923 0.242 0.298 85 63 26 0 0
-0.5102 0.2256 -2.2704 -0.664 0.401 0.631 188 189 187 0 0
-0.2252 0.2428 -1.5894 -0.426 0.285 0.859 129 106 75 0 0
-0.2326 0.2484 -1.7480 -0.689 0.690 0.221 109 88 57 0 0
-0.2363 0.2490 -1.7745 -0.561 0.825 -0.070 127 103 66 0 0
-0.2446 0.2488 -1.7981 -0.826 0.367 0.429 113 92 65 0 0
-0.2452 0.2489 -1.8036 -0.891 0.099 0.444 92 73 43 0 0
-0.2463 0.2490 -1.8087 -0.983 -0.016 0.184 106 85 53 0 0
-0.2627 0.2472 -1.8213 -0.976 -0.039 -0.214 118 96 64 0 0
-0.2967 0.2470 -1.9336 -0.991 -0.027 -0.133 104 81 47 0 0
-0.2983 0.2475 -1.9503 -0.974 -0.018 0.225 104 81 47 0 0
-0.3010 0.2473 -1.9543 -0.868 -0.032 0.495 114 91 57 0 0
-0.3042 0.2470 -1.9581 -0.774 0.222 0.593 115 92 58 0 0
-0.3317 0.2445 -1.9922 -0.628 -0.588 0.510 98 75 41 0 0
-0.3849 0.2412 -2.0972 -0.657 0.219 0.722 95 73 36 0 0
-0.3767 0.2432 -2.1158 -0.777 0.123 0.617 92 70 33 0 0
-0.4900 0.2323 -2.2447 -0.752 -0.051 0.658 99 80 40 0 0
-0.1222 0.2593 -1.5124 -0.736 0.569 0.368 109 89 63 0 0
-0.1241 0.2592 -1.5169 -0.851 0.464 0.244 105 85 60 0 0
-0.1264 0.2591 -1.5213 -0.681 0.485 0.548 102 84 58 0 0
-0.1300 0.2587 -1.5250 -0.601 0.421 0.680 98 81 55 0 0
-0.2334 0.2532 -1.7477 -0.040 -0.406 0.913 113 92 61 0 0
-0.2235 0.2559 -1.7769 -0.875 0.149 -0.460 127 104 66 0 0
-0.2320 0.2547 -1.7774 -0.946 0.321 0.054 122 98 63 0 0
-0.2491 0.2545 -1.8303 -0.664 -0.152 0.732 120 97 66 0 0
-0.2536 0.2540 -1.8333 -0.454 -0.071 0.888 115 94 63 0 0
-0.2861 0.2528 -1.9174 -0.840 0.472 0.267 113 90 58 0 0
-0.2947 0.2516 -1.9174 -0.954 -0.274 0.120 113 90 58 0 0
-0.2852 0.2538 -1.9358 -0.673 0.646 0.360 105 82 48 0 0
-0.2945 0.2529 -1.9472 -0.996 0.088 -0.011 97 74 40 0 0
-0.3240 0.2516 -2.0161 -0.991 0.117 -0.065 91 69 33 0 0
-0.3235 0.2519 -2.0225 -0.999 0.003 -0.043 105 85 51 0 0
-0.3235 0.2522 -2.0286 -0.929 -0.162 0.332 108 86 49 0 0
-0.3503 0.2500 -2.0692 -0.972 -0.098 0.213 95 72 36 0 0
-0.3478 0.2507 -2.0772 -0.814 -0.413 0.408 98 74 40 0 0
-0.3871 0.2463 -2.1079 -0.992 -0.094 -0.086 96 74 34 0 0
-0.3956 0.2461 -2.1319 -0.709 -0.174 0.683 87 64 28 0 0
-0.3938 0.2472 -2.1518 -0.783 -0.365 0.503 93 71 34 0 0
-0.4495 0.2414 -2.2051 -0.848 0.290 0.444 80 57 26 0 0
-0.5273 0.2334 -2.2807 -0.321 -0.029 0.947 207 207 207 0 0
-0.1237 0.2640 -1.5117 -0.686 -0.289 0.668 109 89 62 0 0
-0.2311 0.2586 -1.7493 0.022 -0.458 0.889 113 94 64 0 0
-0.2359 0.2580 -1.7521 -0.693 -0.671 0.265 110 89 57 0 0
-0.2273 0.2605 -1.7805 -0.930 -0.306 -0.205 120 95 64 0 0
-0.2295 0.2604 -1.7849 -0.720 0.500 0.481 117 94 63 0 0
-0.2515 0.2598 -1.8465 -0.617 0.715 0.328 111 90 59 0 0
-0.2526 0.2599 -1.8517 -0.576 0.563 0.592 112 90 59 0 0
-0.2738 0.2598 -1.9201 -0.706 0.698 0.119 114 94 62 0 0
-0.2770 0.2594 -1.9238 -0.754 0.599 0.271 113 92 61 0 0
-0.2837 0.2591 -1.9371 -0.622 0.694 0.363 106 83 50 0 0
-0.2878 0.2588 -1.9462 -0.917 0.233 0.323 99 76 43 0 0
-0.2926 0.2582 -1.9488 -0.952 0.304 -0.037 107 84 50 0 0
-0.3022 0.2586 -1.9900 -0.784 0.052 0.618 107 84 52 0 0
-0.3186 0.2578 -2.0263 -0.958 0.171 0.228 107 87 56 0 0
-0.3206 0.2577 -2.0309 -0.774 0.165 0.612 115 92 53 0 0
-0.3489 0.2550 -2.0644 -0.987 -0.047 0.156 98 76 39 0 0
-0.3578 0.2540 -2.0699 -0.935 0.344 -0.093 98 76 39 0 0
-0.3928 0.2514 -2.1282 -0.731 -0.287 0.619 93 69 33 0 0
-0.4496 0.2464 -2.2053 -0.908 0.059 0.416 92 68 34 0 0
-0.4516 0.2463 -2.2097 -0.908 0.059 0.416 83 59 30 0 0
-0.4533 0.2463 -2.2145 -0.836 0.151 0.527 80 57 29 0 0
-0.3203 0.2458 -1.6449 -0.639 0.575 0.511 96 75 44 0 0
-0.3239 0.2454 -1.6482 -0.718 0.586 0.375 123 100 69 0 0
-0.2695 0.2655 -1.9233 -0.760 0.643 0.094 116 96 64 0 0
-0.2756 0.2647 -1.9251 -0.886 0.460 -0.055 111 90 59 0 0
-0.2777 0.2646 -1.9296 -0.841 0.481 0.247 111 90 59 0 0
-0.2815 0.2645 -1.9389 -0.836 0.485 0.256 106 83 51 0 0
-0.2845 0.2645 -1.9487 -0.836 0.485 0.256 103 80 48 0 0
-0.3039 0.2634 -1.9890 -0.533 -0.034 0.845 108 85 53 0 0
-0.3173 0.2631 -2.0276 -0.973 0.161 0.165 98 77 44 0 0
-0.4542 0.2511 -2.2141 -0.704 0.035 0.710 88 65 32 0 0
-0.0661 0.2836 -1.5360 -0.755 0.637 -0.154 107 89 65 0 0
-0.2893 0.2533 -1.6030 -0.464 0.235 0.854 133 108 72 0 0
-0.3167 0.2512 -1.6472 -0.698 0.600 0.391 97 76 49 0 0
-0.2568 0.2705 -1.8788 -0.739 0.577 0.346 119 98 70 0 0
-0.2751 0.2701 -1.9316 -0.841 0.481 0.247 111 90 59 0 0
-0.2796 0.2701 -1.9464 -0.821 0.571 -0.007 104 81 50 0 0
-0.2803 0.2702 -1.9519 -0.890 0.456 -0.014 109 86 55 0 0
-0.2841 0.2698 -1.9552 -0.907 0.253 0.338 118 95 64 0 0
-0.3045 0.2683 -1.9887 -0.500 -0.226 0.836 103 80 48 0 0
-0.3119 0.2677 -2.0015 -0.843 -0.035 0.537 99 76 44 0 0
-0.3123 0.2679 -2.0072 -0.758 0.598 0.259 99 76 44 0 0
-0.3358 0.2672 -2.0688 -0.517 -0.359 0.777 100 77 41 0 0
