ply
format ascii 1.0
element vertex 691
property float x
property float y
property float z
property uchar diffuse_red
property uchar diffuse_green
property uchar diffuse_blue
end_header
0.4161648091878563 0.11582217051033872 -2.0450139677390515 134 109 73
0.41779485976245645 0.11922059532044943 -2.048410589207418 113 90 59
0.4192551698030229 0.12216144695626763 -2.0521557790971108 87 65 35
0.41961119121119406 0.12211742835022049 -2.0582229564682137 77 57 28
0.4201200930205041 0.12248554319443306 -2.063976117235922 75 57 30
0.4216998502836731 0.12575008421386458 -2.067464551679805 75 56 30
0.4237202245457823 0.13020838194333306 -2.0700076877877676 76 56 31
0.42482406796671546 0.1321868931142171 -2.074494416283223 75 55 32
0.42514886645978744 0.13205525071663438 -2.0806491147741197 69 51 29
0.4253416834979904 0.1315645106676373 -2.0870972766681453 66 48 27
0.4265945221112548 0.13394561970199204 -2.0912716150284805 67 49 27
0.4279254017268937 0.13653880925018252 -2.095274154258818 83 64 37
0.43067290659461754 0.1429757825019029 -2.096198572374825 102 82 51
0.43093346952909267 0.14266686235121645 -2.1025130620312824 99 78 49
0.43262991427145686 0.14625472438851084 -2.105702516459272 89 69 44
0.434079003691723 0.14917213368379195 -2.10942465678556 81 63 41
0.4347205590182742 0.1498962995245497 -2.1149158789600397 68 52 35
0.4350232249821549 0.14969852414748303 -2.1211598468013824 48 34 22
0.43750289493148886 0.15541875018614376 -2.1225986411735347 44 29 16
0.44020471010559625 0.16174625358710898 -2.1235241180265545 45 29 14
0.44089276881527223 0.16259740550909113 -2.128908831662013 45 29 14
0.4428104604749098 0.16679519974386575 -2.131552431377921 44 28 13
0.44038054683690653 0.15915504685631887 -2.1439232967029054 44 28 13
0.4399724011331262 0.15701561298424305 -2.1517997068381476 43 27 13
0.44799862921144684 0.17786014422797192 -2.1406812713348917 42 26 13
0.4465906684722484 0.17299757396051918 -2.150799893991783 42 26 13
0.44890874995292873 0.1782926574565879 -2.152499706393834 42 27 15
0.45280200316014496 0.18788842513178367 -2.1505959944691364 41 27 14
0.4557498071099316 0.19490954532031213 -2.150809754754791 43 29 15
0.4593860496766725 0.20381466343476573 -2.1494190621765514 48 32 17
0.4616499899989277 0.2089765510630478 -2.1511436770292836 53 36 20
0.4635217551349201 0.2130693441958717 -2.153754231623547 56 39 22
0.45746950584337426 0.19550053092446967 -2.1746734497549376 52 35 18
0.4591354391185049 0.19902552693593273 -2.1777942728429043 52 35 17
0.4664839438399927 0.21809965563330874 -2.167684556787167 54 36 17
0.46682914559409583 0.21801851973240982 -2.1738278005027767 56 38 19
0.46653107222424095 0.21617450930051196 -2.18148698384338 58 40 21
0.467482367644769 0.21775001746828987 -2.1862312759823315 61 43 23
0.4688590648789769 0.22049112760005368 -2.1899744079230556 63 45 23
0.470331251774273 0.22349478725514865 -2.1934866628592506 63 45 23
0.4715113151795498 0.22569826545197857 -2.1976848055096343 62 44 23
0.47251216050116424 0.22741037999951014 -2.2023067985783134 60 42 22
0.47408922069410847 0.23070400142610636 -2.205554571570857 61 42 23
0.47654118772791143 0.23640117970249652 -2.206700561391803 61 42 23
0.4772349334488897 0.23727180473247533 -2.212045539892453 61 42 24
0.47894835557993937 0.2409438060863473 -2.214940235572196 60 43 23
0.48134853012513057 0.24650530625241135 -2.2161658980655004 64 46 24
0.48174880581040025 0.24656967510874783 -2.2222160877758768 67 49 27
0.4837220571039937 0.25096046556124757 -2.224452850847534 67 49 27
0.48773876744721456 0.26097789537714206 -2.221693805071284 68 50 28
0.49014861276596505 0.2665773970367325 -2.2228187959648276 67 49 27
0.4912902670454698 0.2686865538411757 -2.227033374792923 66 50 29
0.491208079902105 0.26742334199337137 -2.2342571555841424 76 63 44
0.49039994584883595 0.2641563030540309 -2.2432891833075317 80 71 54
0.4844966826051977 0.24683261033026221 -2.264962435123506 93 87 73
0.4884561710105161 0.2567062957993054 -2.2622497135863244 113 108 97
0.49153478096830505 0.2641551217528736 -2.2616862900527948 137 132 126
0.4983255772607997 0.2818595109960531 -2.2518164049714984 158 155 153
0.5009919600658352 0.2881830619234294 -2.2521944978500037 174 173 172
0.503858342509415 0.29506310649711553 -2.2520443725501424 185 185 184
0.2285157098561727 -0.2814085312141498 -1.6002321869486569 129 121 107
0.23648599975168577 -0.2615774907946218 -1.595617113195677 120 104 78
0.24465365505507103 -0.24122007783456978 -1.5906518465480695 121 102 75
0.24768894820336873 -0.23425242745635128 -1.5928003042747683 123 102 72
0.25157787549447247 -0.22505194265259698 -1.5937268371648554 125 103 73
0.2561782175585056 -0.21398810447316835 -1.5936181878331062 125 104 73
0.26112149476626223 -0.2020222052171714 -1.5929848872553982 122 102 70
0.26151111648462394 -0.2019551062445626 -1.598788948925897 119 99 67
0.26722040888161286 -0.18797693048692066 -1.5970015074297863 124 102 71
0.27198210348103874 -0.1764700909710314 -1.596521865749209 123 101 67
0.27674393111544543 -0.16495680801995827 -1.596001301632444 109 90 61
0.2805194224907916 -0.1560193633210244 -1.596865202597104 108 90 63
0.28544871627532425 -0.14405613803353534 -1.5960253719332682 109 90 63
0.29070975285268785 -0.13121752856637953 -1.5946595456192245 95 79 54
0.29617554010833436 -0.11783543435884997 -1.5929476915105973 96 80 59
0.30399607864672845 -0.09827407144302758 -1.5877315685188338 91 78 53
0.30570461787140474 -0.09472633929093865 -1.5914420915187515 112 94 66
0.3102579222555899 -0.08371647675799881 -1.5909392910264735 118 99 68
0.31377336678645396 -0.07542361585910595 -1.591937436153525 116 95 63
0.31473131924408715 -0.07383847945978589 -1.596717702814028 125 104 70
0.3180560198467401 -0.0660401963306651 -1.5979598349047506 121 102 69
0.32100462874410896 -0.0592257079363967 -1.5997407126759942 119 100 66
0.32207761409241464 -0.057335123833655244 -1.6043258561040727 123 103 69
0.32749358427556186 -0.04403207864171205 -1.6023427977404543 127 106 72
0.33200287404266793 -0.033104925425553544 -1.6016863671165593 118 97 65
0.33487382732048754 -0.026479828276657902 -1.6034866482986794 117 96 64
0.33807989672378647 -0.01897012823333044 -1.6047534645576906 119 99 65
0.34447576801585794 -0.003063760518045966 -1.6010990136588237 116 96 63
0.34435052263625154 -0.004312029791883831 -1.6074305191633325 121 101 68
0.34837324422772054 0.005358894256787983 -1.6073604701071356 122 102 69
0.35052775334480957 0.010114561738720662 -1.6101558285137727 118 98 65
0.3575040426662632 0.0275757028303642 -1.605426070370281 117 97 62
0.3587501918955241 0.029945478795176617 -1.6095879257206596 134 113 78
0.36050689047660256 0.03366163921020282 -1.6129457871273758 132 112 78
0.3627205340788353 0.03858414451040881 -1.6155752348433003 113 95 63
0.36596935580167755 0.04623960469978805 -1.6165540966423548 107 89 61
0.3667233344729483 0.04731522027039253 -1.621465899386064 112 93 65
0.3715201010134992 0.059062571642852446 -1.6199418882403323 119 100 71
0.37394047757568194 0.06454124669962213 -1.6221723529967274 121 101 72
0.3758530375458517 0.06868097132269851 -1.625200988838079 123 102 74
0.37873903383798874 0.0753945210559876 -1.6266516008404672 111 90 64
0.3808255756193595 0.07999817340055237 -1.629372074690831 105 86 60
0.3813841470966294 0.08056350395069334 -1.634557992204179 110 89 61
0.3773610982562997 0.06900939442350978 -1.647206900430293 119 99 72
0.34410493705634015 -0.027549331768113472 -1.7587693546676377 100 88 64
0.34522191293936316 -0.025549134369769966 -1.7633279598750102 101 88 66
0.3466497767459438 -0.022723446768390054 -1.767359310835992 103 90 70
0.3488423381940884 -0.01786622140139532 -1.7700866670083573 111 97 81
0.34799315420578775 -0.021087798985367834 -1.7779871366427176 115 102 86
0.34885918621560547 -0.019754509162417278 -1.78297524097504 113 102 85
0.34956530628177257 -0.018846665936417484 -1.7882401485297192 114 103 86
0.34970418202183506 -0.019447955209727696 -1.7944867794002222 110 98 80
0.35084388715480663 -0.01738840467259023 -1.7990135127977684 98 85 67
0.35151682082963764 -0.016570855929041672 -1.8043492425463132 91 77 57
0.3532693231652632 -0.012880061583792624 -1.8078092698928199 97 83 61
0.35459523422361533 -0.010324000066549266 -1.8120062744927277 105 90 69
0.355528267191631 -0.008814030826490349 -1.816888940041376 107 91 71
0.35455175131427913 -0.012392948444932994 -1.8251339280570338 106 90 70
0.354383595720129 -0.013820680171242439 -1.831976064925379 106 89 69
0.3639234233059202 0.01063763545272739 -1.8216270039062041 106 90 69
0.36972827856963353 0.023203738557111775 -1.8308090724706172 104 88 63
0.37077891426995413 0.025034276268871503 -1.8354368119136093 104 87 62
0.37234283403731006 0.028235991826768503 -1.8391387644275317 105 88 63
0.37386722151071433 0.031333046180665014 -1.8429057069971537 106 89 64
0.375392436995976 0.03443322284233086 -1.8466650726940947 106 89 64
0.37498409125892024 0.032363690421580826 -1.853941505744471 105 89 63
0.3679471488408692 0.012559395356939618 -1.8733557181392153 105 88 62
0.3705667340444755 0.018581006677581557 -1.8751548845747796 104 86 60
0.3721938338718873 0.021948732496855583 -1.8787613776455054 101 83 57
0.3762001622588228 0.0316889189718671 -1.8779654232180303 100 81 56
0.37751777697562117 0.0342320307714572 -1.8821158271594165 98 80 56
0.37927695400769734 0.037958966632194446 -1.8854414560855082 99 81 57
0.3792798933274196 0.03697922263810827 -1.8920356202201039 99 81 57
0.3800182087438819 0.03796956605078955 -1.8972658861229597 94 76 52
0.380672612430635 0.03873422369624946 -1.9026576935483188 93 75 51
0.3815318599353282 0.04004786249546416 -1.9076682388583852 95 77 52
0.3827091033221392 0.04221483392434572 -1.9120795417037493 93 76 51
0.38499548487215496 0.04736069215002908 -1.9143837259005907 89 72 46
0.38628687149737617 0.0498358926645634 -1.9185670426716823 80 62 37
0.3876212153937361 0.05242702099613583 -1.9226650440983053 80 62 36
0.3894374330025168 0.05631419691290018 -1.9258352489905226 86 67 41
0.39237267969341344 0.06321238142255164 -1.9268424102148949 89 69 42
0.394374929736961 0.06760414195971426 -1.929626151308204 90 70 42
0.39640837840078036 0.07208174148806745 -1.9323369446886702 88 69 40
0.39732479129742715 0.07355387804463293 -1.9372057115884418 87 68 39
0.39915430191806134 0.07748501053615636 -1.9402955022549562 87 68 38
0.40029762391780643 0.07956892375361163 -1.9447174771567544 88 69 39
0.4019336596736298 0.08298102928862255 -1.9481708082822178 88 69 39
0.4044125813263059 0.08866691918567127 -1.9499560905321711 89 69 42
0.40608567684286645 0.09218217275497598 -1.953314865247413 94 74 47
0.40673184122148776 0.09292783394814569 -1.9587013936731843 87 66 40
0.40707768969238145 0.09286212689803724 -1.9646904624702395 84 64 38
0.40742396575119844 0.09279621489788292 -1.9706877625179462 81 62 35
0.4024895002712282 0.07846483363081325 -1.9872694554920447 83 65 36
0.4045720767117176 0.08308268896165194 -1.9898313863031063 94 75 47
0.40625175803808006 0.08661353512921599 -1.9931916513173098 95 76 47
0.4087956943360718 0.09248272689706905 -1.9947953659227688 91 71 43
0.40855231472628883 0.09081484316728694 -2.002035128598685 92 71 42
0.4108140801372042 0.09592367549426334 -2.0041917063122643 93 72 43
0.41133499098272047 0.09632221426533555 -2.0098878277669994 93 72 41
0.4127844148696058 0.099234269404198 -2.0136880249537055 93 72 41
0.41290585501620014 0.0985494334175202 -2.020213147411445 92 71 41
0.4111636167435059 0.09281186199263636 -2.0305951198098566 96 76 47
0.41265419115201185 0.09583340683351577 -2.0343240296623817 99 79 43
0.41465242149359105 0.10023272550689888 -2.0369927585944083 143 119 76
0.416112395955448 0.10317358767758011 -2.040769766994946 151 123 79
0.41770149298249915 0.10646577408073382 -2.044271192540391 138 112 75
0.41915409645861157 0.10938846826153598 -2.04805132023554 131 108 75
0.4209107018260808 0.11313776103769663 -2.05118628365762 100 79 47
0.4216523321064015 0.11413053613512486 -2.0564534953441354 88 68 36
0.42261651945158374 0.11572768593850191 -2.0612535383313535 79 59 27
0.42389680709558275 0.11818427262362707 -2.065383128779057 80 59 30
0.4239913848083584 0.11741577210341414 -2.072036253253727 82 62 34
0.42804731819861774 0.12742582637935201 -2.07023298137001 80 61 34
0.4284960584390982 0.12762171441970616 -2.076125131377119 78 60 34
0.42956527298067093 0.12950624083098838 -2.0806902425523193 74 56 31
0.42980315808389946 0.12912585383050168 -2.0870495756374603 74 56 32
0.43042498516780914 0.12979026516123415 -2.0925884924750884 73 54 25
0.4331170974550097 0.13609868295386707 -2.0936349925404567 105 84 51
0.43578396363042593 0.14234170048698314 -2.094713384161657 112 91 57
0.4358150378736938 0.14139582432548675 -2.10153272566166 112 90 58
0.43749329883648913 0.1449442679696153 -2.1047526048864036 100 78 49
0.4376940427316048 0.14445924122032294 -2.1112151555212737 84 64 42
0.43848933128558537 0.1455966740173792 -2.11637679259633 62 45 27
0.43921355198621503 0.14653937631107167 -2.121699228834975 49 34 21
0.4408063232972301 0.14985602483176025 -2.125096152810383 43 29 15
0.44352405935308803 0.1562506893049712 -2.1259775186047665 43 28 13
0.4438418004109043 0.1560822783585079 -2.1322018384070813 44 28 14
0.44429070580490965 0.15627136144797366 -2.138142111795506 42 26 13
0.446898480363601 0.16237071170582917 -2.139232268282438 40 25 13
0.44721324665041917 0.16219215149531524 -2.1454766715206874 40 25 13
0.4480614067798199 0.1634737574884496 -2.150523347096064 41 26 12
0.4492995904101445 0.16582420062413805 -2.1546865635743075 40 26 12
0.45431086201141213 0.17852294607694574 -2.1502472634188656 39 25 13
0.4571086124457302 0.18515721185233652 -2.150811556563898 39 25 13
0.45942259102539895 0.19046749320754391 -2.1524598696745394 39 25 14
0.4614675363335216 0.19504185565727683 -2.15470855102048 42 27 15
0.4639505440692876 0.2008217370152079 -2.155931320395765 44 29 17
0.4651658734734774 0.2031212548036629 -2.160068085652223 46 32 18
0.4623987411720065 0.19447316575732582 -2.173452214475395 47 33 18
0.4626594252660885 0.1941437435116592 -2.179836849060686 49 33 18
0.47119130353634886 0.2165687643948654 -2.166899950945479 50 34 18
0.47226742445649106 0.21848942835903262 -2.1713344080903667 52 35 19
0.4709475395679279 0.21381293297017678 -2.181403596501884 55 37 21
0.4727935724870703 0.21785196318687405 -2.1840375174487328 63 45 28
0.4738230681491339 0.21964271574409183 -2.188591871335814 62 45 24
0.47491151913131124 0.22159601138520463 -2.193006138320133 60 43 23
0.47586088192218534 0.22316586668315974 -2.1977506763259034 60 42 24
0.4771280287854131 0.22561232435705525 -2.2017370761916446 59 41 24
0.4777196872811971 0.2261949091349577 -2.207338657615765 56 39 22
0.4791989318527059 0.22922735748143747 -2.210812891234228 54 37 21
0.484978357353665 0.24413941489571334 -2.2039103810736114 53 36 20
0.4866938632991996 0.24783164457721074 -2.206767118737961 56 40 24
0.4873198690213817 0.2485134225854677 -2.212257041850357 61 44 24
0.4868325656963457 0.24611521957087207 -2.2204626988323453 64 46 25
0.49102052837025295 0.2566493841294404 -2.2172758721235386 64 46 25
0.4926999325252215 0.2602470807286607 -2.2201849710374826 65 49 27
0.4941159602583097 0.2631169668380466 -2.2237310329832174 64 49 28
0.4944849618710609 0.26308723774084786 -2.229851233611202 71 60 40
0.49334524345416764 0.2588747782092852 -2.2397107855496747 74 66 49
0.4864888091052431 0.2388075770833027 -2.26377852596854 86 77 65
0.4892317020097887 0.24534785155220834 -2.2640905779660034 105 99 90
0.49333132280383785 0.25565676201099663 -2.260991315547913 124 121 113
0.4955046568056175 0.2606254118927355 -2.2626655419833943 148 145 141
0.5025582753817942 0.2791499319710133 -2.2520708482398413 165 164 164
0.5045059041469142 0.28350247445294063 -2.2542401252047837 180 180 181
0.5035208086183783 0.27970582900512037 -2.263802365849968 189 189 190
0.5030508261874118 0.27733688009299196 -2.272090493017446 195 195 196
0.2366973968865358 -0.2759649578897154 -1.6018481349379152 125 115 100
0.24600342302086203 -0.25253589339844457 -1.5952732592876537 121 105 80
0.2506314318269829 -0.241367396720509 -1.5951887998232412 125 104 76
0.25458894757813233 -0.23195281482345886 -1.5960123571586788 127 104 74
0.25912246286480684 -0.22102117829667822 -1.5959878088979265 127 104 75
0.2638657973123587 -0.2095327318831932 -1.5956266747895234 125 104 73
0.26473414393715206 -0.20821830864401009 -1.600761203906611 118 98 66
0.26964588013885543 -0.19627828238081457 -1.6000990537972977 124 102 70
0.27903380427727376 -0.17256471109635396 -1.5929499070700897 130 107 73
0.28203367605478796 -0.1656355825152787 -1.594941069653454 116 96 66
0.28551364275926916 -0.1574403026463248 -1.596214206669043 114 94 67
0.2896744160278664 -0.14744950199590623 -1.5964689116230317 111 91 62
0.29459719610083057 -0.13544770464183736 -1.595574992034696 101 84 57
0.2997220499290767 -0.1229072874108102 -1.5943413211167758 106 90 66
0.3084204908698406 -0.10094749452496399 -1.5877974639219097 99 83 57
0.31082884275417483 -0.09554749299274012 -1.59046965452052 111 93 64
0.31221027744916113 -0.0928517144146998 -1.5946509279172982 118 99 67
0.3172978877870589 -0.08038418935729819 -1.5933059406348449 115 95 62
0.31770925558068086 -0.08024245855735662 -1.5989096613894787 119 98 64
0.32050498561474816 -0.07381145349740587 -1.6009406860494528 124 104 71
0.32292795164569843 -0.06836116978803952 -1.6035136073190839 122 101 68
0.326186715438992 -0.06070208958361473 -1.6048065000409562 117 97 64
0.33135335709038116 -0.04800094240826103 -1.6031771969486852 128 106 71
0.33659337449443594 -0.03509882529405334 -1.6013889876077168 127 104 70
0.33942211633591335 -0.02856118107275052 -1.6032415530691688 120 98 66
0.34239646917240446 -0.021635512725302064 -1.604849935123134 111 91 57
0.344850055006784 -0.01608348296602341 -1.607238642555232 111 91 58
0.3489711200155958 -0.006118328022379049 -1.6070313272755257 113 93 60
0.35230821032333787 0.0017778617004765018 -1.608005707290625 120 100 67
0.3602701104504811 0.02191923333185375 -1.6017454447143904 118 99 66
0.36146020278089286 0.024142944042619907 -1.605998209476567 123 101 68
0.3619315815544022 0.024463386186872604 -1.6113773716950806 136 113 79
0.3634565076596692 0.027574222447674546 -1.6151025220089732 123 103 71
0.36564552287475094 0.03244603257170281 -1.6177713261988598 116 98 67
0.3686933770912509 0.03959690603487992 -1.6190629992474812 118 98 70
0.37159555679359935 0.04636503568317313 -1.6205630293501534 118 98 71
0.37560945246943583 0.05608591141603536 -1.6202630758259229 120 100 72
0.3767022750393559 0.05805990262039962 -1.6246164171318733 116 96 68
0.37939621098102383 0.06428466311867392 -1.6263894482069654 111 91 64
0.3809116772498366 0.06738280100411431 -1.6300479738085651 115 95 70
0.38221217545263697 0.06991077686802905 -1.6340492888806477 118 97 70
0.38332854893062496 0.07194998140927789 -1.6383469495434786 135 112 81
0.38017673041323663 0.06264299614464663 -1.649619628028438 113 92 63
0.34012022238309764 -0.05460418027801772 -1.7860569076329922 121 109 96
0.34178465025162025 -0.05115131241447968 -1.7897440357053394 124 110 97
0.3471173332733051 -0.03790244060368336 -1.787142251028998 123 108 94
0.3472402222104617 -0.0385615517862582 -1.7934414201739066 115 100 85
0.3484670269635601 -0.036272691809398794 -1.797848114952229 109 94 78
0.3491753917216417 -0.03536927021255021 -1.8031499246764549 100 85 67
0.3504888633767011 -0.03284850729767058 -1.8074049989112682 98 83 65
0.35181318099010794 -0.03029824855008445 -1.811637971400311 102 88 69
0.35308021600039474 -0.027900755937869226 -1.8159677921494695 112 97 77
0.35412707191749904 -0.026092207151451163 -1.820681420236321 113 98 78
0.3545712377819194 -0.025897428189226745 -1.8264566476108635 112 97 76
0.3555713556950005 -0.024214650334202725 -1.8312567208230557 111 97 76
0.3575078951357872 -0.020022856026855718 -1.8343965124756063 111 96 75
0.3604384956047132 -0.013164908292141453 -1.8357560268069013 110 95 72
0.3647771966220556 -0.0025278087325544263 -1.8345772023271711 110 95 70
0.36601600715487154 -0.00019932471136530072 -1.838913447097789 108 93 69
0.36791552267653915 0.003902353866946151 -1.842058979180923 105 89 66
0.36970572863316953 0.007712241854360036 -1.845391132074334 104 87 64
0.3720192346130865 0.012928676122657967 -1.847766235821038 106 88 66
0.3734585173379359 0.015799283704336753 -1.8517141718918038 106 90 65
0.37296042380628847 0.01346483766392581 -1.8591901432573719 106 90 65
0.3678647299843342 -0.0012308783969821602 -1.8750986736757462 105 89 64
0.3707907108349281 0.0056315553399132745 -1.8763551847658935 105 88 63
0.3702702006785554 0.0032268324760993394 -1.8839382521024794 104 87 62
0.37271629606545603 0.00880184818529356 -1.886056344442626 103 85 61
0.37788837933598324 0.021717456063981788 -1.8830994406753412 104 86 61
0.37956022052580884 0.025215572720162893 -1.8866060386270902 104 86 61
0.37770042194372666 0.019201497446463323 -1.8967015335711255 102 84 60
0.3814602949200332 0.028325309310499647 -1.8963010205869222 101 83 59
0.38105516783649857 0.026226784578761375 -1.9036990000285483 99 81 57
0.3822427835245318 0.028420550973352332 -1.9081098450261378 99 81 57
0.38356208166278416 0.03096982700684381 -1.9122695180482696 98 80 56
0.3881747422065317 0.04240718690087891 -1.9101683111710295 96 78 54
0.3892546845764229 0.04431458922781345 -1.9147560025104544 95 78 53
0.390303699609993 0.04613854489825864 -1.9194023590834042 93 76 51
0.3930499682334029 0.05254775586550703 -1.9207909512246841 94 77 50
0.3945205923753764 0.0555128302333221 -1.924614140012161 98 78 51
0.39370709452269 0.05230355072204845 -1.9328454859364768 95 75 49
0.39547410287915064 0.05606964795817687 -1.9360976808363652 90 71 43
0.3971609393939942 0.05962027626290051 -1.939496367418064 91 72 42
0.39856447917519355 0.06240544290287092 -1.9434395795122668 90 71 41
0.3994213738383817 0.06371129146578075 -1.9484486307869964 89 70 40
0.4028228264285283 0.07190869894511293 -1.94845984112024 89 70 40
0.40399520936859423 0.07407117200938212 -1.9528349166940049 89 70 40
0.40621374249778675 0.07906949854347539 -1.9551386653878666 88 68 41
0.4078765699219162 0.0825633995450758 -1.9585297959347483 88 68 41
0.40891504885098034 0.08436501448851214 -1.9631560004333695 86 66 41
0.4100640356760691 0.0864664997395378 -1.967561355088559 84 65 39
0.41036686711487835 0.08627131313363767 -1.9736615386511347 84 67 39
0.40548601919288435 0.07199823496093744 -1.9901980676754236 85 68 40
0.40743497663594885 0.07626659832664245 -1.9930303568436316 80 63 33
0.40983788486613415 0.08177043720601584 -1.9949313541391474 89 69 41
0.41134271032771663 0.08483554533167126 -1.9986385437965914 89 69 42
0.41194130905921283 0.08543703805731417 -2.0041865681348763 91 71 44
0.41251349098063916 0.08596576136056677 -2.009794545225409 96 75 47
0.4129210565292669 0.08604550303052871 -2.0157465710463685 95 74 43
0.4139607943078414 0.08784513595340082 -2.020405852458955 93 72 44
0.4124505267414321 0.08269935698593356 -2.0303314842473306 96 74 44
0.4138926648849345 0.08559278643180401 -2.0341743236330623 102 80 46
0.41551383846977175 0.08897504353103591 -2.037639557283605 138 117 73
0.4174151891092185 0.09312247690796677 -2.0405125632169896 152 127 79
0.4189550892497297 0.0962857197150433 -2.0441301567954016 156 127 81
0.42094494525569903 0.10067786064171036 -2.046796332853487 140 115 75
0.42169590021005965 0.10168990799292249 -2.052058822627113 111 89 55
0.42335098012847283 0.10517045980897677 -2.0554148353737323 97 75 44
0.4254572247718378 0.109884869029924 -2.05780594409249 92 72 39
0.4256800737727098 0.10945414018612798 -2.0641879870527884 88 68 35
0.42689055653687297 0.11172196571389942 -2.068473956109235 90 69 38
0.42798629117926745 0.11367630022397274 -2.073003192023526 88 67 37
0.4308650440209921 0.12050941303736123 -2.0737023977863216 87 68 38
0.4311571784406981 0.12026622477882704 -2.0799490721366007 81 61 33
0.4322913228792076 0.12232713089191355 -2.0843860895678663 82 62 36
0.43253477786371286 0.12194832743391565 -2.090753262215222 77 58 31
0.43533895883194207 0.12858529023882015 -2.091560581994115 95 75 44
0.4379283643467405 0.13463720889351405 -2.0928118808959804 113 90 57
0.43938419241093213 0.1375835502824576 -2.096523421484503 110 87 55
0.4393594180648303 0.1364685863433328 -2.1034813967036756 109 87 55
0.43944864554582524 0.13566425162862528 -2.110203113313888 105 82 51
0.4409536752453431 0.13874533855448457 -2.113808189711059 85 62 39
0.44288222922805703 0.14299078464822323 -2.1164672973031777 67 48 26
0.44248045469263636 0.1408346103640873 -2.1242986857242796 60 42 25
0.4438365690033025 0.1435077582675891 -2.128226738560941 53 36 20
0.4465673087016692 0.1499619238040179 -2.12907209813876 47 30 15
0.44982573070693804 0.15787150529097377 -2.1287078283734373 44 27 13
0.45188263038751686 0.1624790322769185 -2.1310194010124706 43 27 13
0.4551502854357171 0.1704224124021932 -2.130579022529835 40 25 13
0.45577969211511904 0.17110380166245254 -2.136089892519567 40 25 14
0.456895852922993 0.17312557993151262 -2.1404990766172287 39 24 13
0.456903976988368 0.1720931093915224 -2.1474360002263353 39 24 13
0.45856467485411845 0.17561573247322965 -2.150603898961216 39 25 15
0.4593972547456817 0.17685511304389978 -2.155664762905091 39 25 14
0.4611684970355169 0.18068469757427325 -2.1585656355189986 39 25 14
0.4628939264251713 0.1843894309838679 -2.1615615918396083 40 26 15
0.46209826262888426 0.18113209290300908 -2.170393274769759 41 27 16
0.46378126955716226 0.18471989383480508 -2.173485989044342 42 28 15
0.4648728202412659 0.18667414675504834 -2.1779492633960658 43 29 16
0.4665953684695826 0.1903735493034655 -2.18093457683488 45 32 18
0.4715682337821438 0.20306682500698625 -2.1762773082416 47 33 19
0.4711960458527503 0.2009753315773829 -2.1841524580106517 49 34 21
0.4758919369653765 0.21291341289574978 -2.1800725054855064 53 36 22
0.4771799478170606 0.21542003562981965 -2.184016143586943 56 40 24
0.47849830484760825 0.2180113502013774 -2.187883669229663 57 41 24
0.4796676688397029 0.2201902926676449 -2.192102167570365 56 40 23
0.4805010948098405 0.22143789346156567 -2.1971222773477863 56 39 24
0.4819568754506177 0.22441178661965971 -2.2006513961108105 57 40 25
0.48248830629039696 0.22482101345453664 -2.206399602131089 54 38 24
0.4838002647585852 0.22739647052935608 -2.21026998903497 50 36 23
0.4846919875269945 0.2288052123687172 -2.215154148460614 49 35 21
0.4863585573417179 0.2323670032449271 -2.2181571148837516 52 36 23
0.4902709917371705 0.2421742431052809 -2.2156750837556323 58 41 25
0.4904280813897006 0.24154318003359332 -2.2223328958770083 61 44 25
0.4938452192787383 0.24998124934957416 -2.2210065554725626 62 44 24
0.4960066585017746 0.2549294160820848 -2.2227335962512944 61 44 25
0.487976929233674 0.23149963672109186 -2.2495985589466287 67 54 35
0.4886377624877658 0.23226062923977214 -2.255084040773831 75 66 48
0.4877084121557274 0.22858870181365315 -2.2645245967023895 81 73 59
0.4895102594496731 0.2325276487309994 -2.2671908004230534 98 91 81
0.49264136642246503 0.24017634807399257 -2.266523172818823 116 111 105
0.4962030593268616 0.2490315899908046 -2.2647436690626495 140 136 132
0.5037990914350396 0.2691559490517307 -2.2527805014750313 161 158 156
0.5072800661793676 0.2778024178696744 -2.251094655946951 174 173 174
0.5116559777113926 0.2889553136570107 -2.24710624756562 184 184 186
0.5124438405984895 0.2900862744034964 -2.2521712702773606 192 192 194
0.5078924850167889 0.27628536471344967 -2.2708313905910327 196 196 198
0.23641408703451933 -0.2917708497663767 -1.6088225703108834 173 172 168
0.24570094613712057 -0.2682918846580827 -1.6022563846895663 124 115 96
0.25363280061579685 -0.24837164332208794 -1.5975137277950415 123 106 83
0.26136841576137654 -0.22895737940190364 -1.5929738907078193 130 107 80
0.2626945971219815 -0.22644165671623906 -1.5974832268064851 129 107 77
0.2657183569182663 -0.2194454047573915 -1.5995643045639478 127 105 74
0.27051149913537725 -0.2077747196969667 -1.5990858689334413 121 99 68
0.2758298561005333 -0.1947106929700565 -1.5978099012002764 118 97 65
0.2811088733961193 -0.18174333342977922 -1.5965435872142362 127 104 70
0.2840130202021037 -0.17504446190082384 -1.5986765444967876 118 98 68
0.28742390652750494 -0.1670029249971805 -1.6000508474138124 116 96 68
0.2936598985993151 -0.15148703670055175 -1.5972677983955605 113 93 64
0.30103335501375006 -0.13295349962166736 -1.5927570631868606 112 94 66
0.3089822799428189 -0.1128863750790291 -1.5873274091433678 111 94 67
0.3099984103923573 -0.11115741472642654 -1.5920747947694214 99 83 57
0.3114731717869611 -0.10821418585618348 -1.5961415864237922 109 91 62
0.3125387709509181 -0.10635392166037055 -1.600813409731362 118 99 67
0.320916389960989 -0.08512072104573454 -1.5945454310961384 121 101 68
0.32182856758872774 -0.08366064165008169 -1.5994058006602003 123 102 67
0.3256150482565614 -0.07458041912340718 -1.599934712401338 127 104 70
0.32894223611379403 -0.06671347450743975 -1.6011273523045226 128 104 71
0.3311683852379069 -0.06176352824895864 -1.6039662288156975 130 106 73
0.33656771164939026 -0.04839039554011404 -1.6019537002508635 132 108 73
0.341317120604716 -0.03673492825075503 -1.6008857692640674 138 114 77
0.34416178516097573 -0.030131143260426374 -1.6027009803735945 134 111 75
0.347525113164421 -0.022146327418241962 -1.6036956234521627 122 100 66
0.3529323044125607 -0.008726073797461653 -1.601500306646577 116 96 63
0.3543511569633986 -0.005900073406667483 -1.6054496842054522 118 98 65
0.36034242752726586 0.009085361399761072 -1.6022654374071803 119 99 66
0.36292537528381663 0.015013387399413491 -1.6043573652601153 117 97 63
0.36542273732374536 0.020716473069854968 -1.6065655249787232 124 101 69
0.369928644677375 0.03176860299936185 -1.6055898457007722 129 105 74
0.37231055236007093 0.037171377508985026 -1.6079344262270885 126 104 73
0.37468626493871704 0.04256011443666924 -1.6102728144162588 123 103 73
0.3725723515402217 0.035988633090840605 -1.6197519960011608 121 101 73
0.3752671936198817 0.04222886468294795 -1.6215740604200275 118 98 71
0.377690502214449 0.04774814374865499 -1.6238123597409837 116 96 68
0.3798608890583594 0.05259538399668873 -1.6264416341582995 112 93 64
0.3831310533756407 0.060379082530324035 -1.6272781926198976 124 104 77
0.3850761014340815 0.06463010793659835 -1.6302393201011462 113 93 68
0.3857610829365372 0.06551853493302429 -1.6352424777302488 122 101 74
0.38502559772906875 0.06261251658582584 -1.6425723643595422 111 90 61
0.3830858011799232 0.05648567728146481 -1.6518995402552015 102 85 61
0.3369955037925124 -0.07463091618835827 -1.7794315930615183 129 117 105
0.342352768538793 -0.06127858478779058 -1.7768922171352501 126 113 102
0.3410181354164166 -0.06686498496748106 -1.7922302364513119 123 112 102
0.3437490350644736 -0.06054603990904284 -1.79410779736971 116 103 91
0.3463750564901166 -0.05450543654485257 -1.796145332703766 109 95 82
0.34903213170167213 -0.04837851781651864 -1.7981101230885623 103 90 75
0.35105784517120386 -0.04394422889163313 -1.8011487402854969 104 91 75
0.35440185942524344 -0.035966323015418133 -1.8018842792388519 112 97 80
0.3518511064957884 -0.04483618004860146 -1.8194412430721805 119 104 88
0.3534228405228755 -0.04162051151402124 -1.823262002165585 119 106 89
0.3549931933355786 -0.038407579670932335 -1.8270788233192778 117 104 87
0.35541075168067965 -0.038296265120848105 -1.8329283506040253 114 101 84
0.3567524197399855 -0.03569816389184155 -1.8371454774499187 114 101 83
0.3582970618028156 -0.032552850645946485 -1.8409975047650953 114 100 81
0.3620664372420288 -0.023412641741307805 -1.8408667982527243 114 99 79
0.3627700399279827 -0.02253008453960409 -1.846201312483526 113 99 77
0.36496757704692423 -0.017620315043011592 -1.8488511595082688 111 96 74
0.3675133798012008 -0.011769025651495013 -1.850857607731086 109 94 72
0.36967789004314067 -0.0069436120004932045 -1.8535363860485357 108 91 69
0.37132918686686034 -0.0035012331273915898 -1.8571345742088203 108 91 70
0.3727289537511696 -0.0007368232904810812 -1.8611842364581355 108 92 68
0.3744440223161262 0.0028798965600722037 -1.8646520062635248 107 91 67
0.368054076241166 -0.0154015578793264 -1.8830063832443151 106 90 66
0.37112304441916805 -0.008130628945136442 -1.8840119196617595 106 89 65
0.3701089122754915 -0.011896131179188973 -1.8925474522994716 105 88 64
0.3732256001978602 -0.004492240048632745 -1.8934391008293479 104 88 64
0.37757593558843067 0.006253793485870851 -1.8920058940800895 104 87 63
0.3803710884160132 0.01279664726480495 -1.8934380866587297 104 86 62
0.38011192447980074 0.011072324790329269 -1.9005778322066877 104 86 62
0.3833588910368109 0.018842938329309944 -1.9011343185241019 102 84 60
0.3829504205453547 0.01671232284613372 -1.9085671397214539 101 83 59
0.38390875964756765 0.018283985562159988 -1.9134281977476009 100 82 58
0.38545722114957653 0.021455765481849798 -1.9171681419515483 99 81 57
0.3869594857457224 0.02450321747995793 -1.9209897669958764 98 80 56
0.38923236510967923 0.029642865466415036 -1.9233299821322927 97 79 55
0.3911629942620826 0.03385582285336175 -1.9263118080547261 97 79 55
0.3929474417521848 0.03767355135035977 -1.9295639139250786 101 84 59
0.3948625822702389 0.04184782887458233 -1.9325535781801932 104 84 59
0.39643799400865676 0.04510054074565445 -1.9361912021869925 98 78 53
0.3980163015097372 0.04836219665289243 -1.9398162182218426 96 76 50
0.3998378475875355 0.052286497278151656 -1.942958937954102 95 75 47
0.3988948363433802 0.04869048625005723 -1.9515113104773554 93 73 45
0.4014099923711326 0.05450303808075796 -1.9532873309046401 92 72 44
0.40424758279324124 0.06119652025660183 -1.9544075248319872 91 72 44
0.40671795116988196 0.06689338852390897 -1.9562311652345146 91 71 43
0.4078589783044396 0.06897085857121182 -1.9606771651412902 90 70 43
0.40996613567234963 0.07368212630040677 -1.9631957375417242 88 68 41
0.4110396655953973 0.0755769423352522 -1.9677675954407405 88 68 43
0.41156797497414405 0.07598448956455717 -1.9734331931392306 85 66 41
0.41331853733707213 0.07972650867224629 -1.9766444573010045 84 67 41
0.4086566108968763 0.06596375833486018 -1.9928014296216179 90 73 46
0.4111960382494631 0.07185653172575868 -1.9944375767870373 90 72 44
0.41226293308219897 0.0737293104757839 -1.9990483682304752 94 74 47
0.41410342238313136 0.07771647144050564 -2.0020802984182566 94 74 47
0.41460026570889674 0.07803154380484245 -2.0078522294394077 94 74 47
0.41163936290154973 0.06888784290293126 -2.0207338539881334 94 73 44
0.413175386786694 0.07204049546979152 -2.0244024451373988 92 71 43
0.4142513357847664 0.07393481366409571 -2.0290156271359954 96 75 49
0.41595447824762916 0.07754666456837633 -2.0323273197137857 103 81 46
0.4173832780740653 0.08040836543405022 -2.036201004916989 135 111 68
0.41908635593228566 0.08402251702640884 -2.039496710175308 158 131 84
0.42098604524602495 0.0881770665090505 -2.0423714855218775 154 126 79
0.42230328990049837 0.09073604119079043 -2.046458692567015 150 123 80
0.42381930451371397 0.09384094413558464 -2.050122966848976 122 99 60
0.42565923309533904 0.09783588821853834 -2.053095425820316 103 83 49
0.42726450018364137 0.10118821149305879 -2.0565549220515837 98 76 44
0.42703176022872424 0.09949310769194813 -2.063920552472001 95 74 41
0.42944541729888086 0.10506722190607448 -2.0656500992397646 95 75 42
0.43103126721266655 0.10836868513569003 -2.069134839327181 94 74 41
0.43260818290666275 0.11164674872763314 -2.072631181209265 93 72 40
0.4330765339227497 0.11187621953209093 -2.0785115391916733 91 71 39
0.433173437947035 0.11108218320451024 -2.08520381814685 87 67 36
0.4330674425695552 0.10972748471984917 -2.0923498890743355 81 60 31
0.43639754377337603 0.11783439043656824 -2.0920270061104342 88 68 38
0.43968724524408637 0.12583493501511245 -2.0917601647927464 109 87 55
0.44273618691535266 0.13317671413003385 -2.091989402731349 115 92 61
0.4429257390163217 0.13263790881904336 -2.098479539408413 109 86 57
0.4433944003148942 0.1328672276756921 -2.104365771026438 109 86 55
0.44464885536181886 0.13526390187315984 -2.1085205130604487 96 73 42
0.44509738842759905 0.13543602837965468 -2.114461997297196 84 60 35
0.4454807250391406 0.13542679711496713 -2.120557127080768 79 56 31
0.44668697821804243 0.137689880948415 -2.1248222540724133 72 50 28
0.4464328006617472 0.13591649911635867 -2.1323597242660823 65 45 25
0.44899481543029707 0.1419277294104464 -2.133580696168179 63 42 23
0.4532574577773432 0.15264686415428824 -2.1309419194015047 57 38 20
0.45401828408564726 0.15368201353026206 -2.136184440952572 50 33 16
0.45454612175158526 0.15407151116705697 -2.141960058097627 47 31 14
0.4558772951851125 0.15668486878020144 -2.145912691814508 46 29 14
0.4569281845473994 0.15852227736132224 -2.1505016491193816 43 26 13
0.45805611480010033 0.1605732745576548 -2.154913712828968 39 22 11
0.45868818158091956 0.16124943323943813 -2.16046500362045 39 23 14
0.46194131543625716 0.16919595430499118 -2.1599739822284776 39 25 14
0.46408863636066733 0.17407852041027355 -2.162010258333893 39 25 14
0.46457326637419394 0.1743472816203701 -2.167891248365266 40 26 15
0.46399885769564786 0.17167327979936892 -2.1762473497104877 40 26 15
0.46319410386470405 0.16835558496829556 -2.185165419315388 40 26 15
0.4624100385683822 0.16509122769325757 -2.1940621399578935 42 28 16
0.4655817972955965 0.17282368487659766 -2.19368286853848 43 29 18
0.47494139863071194 0.19777615297764417 -2.1786740485421405 45 32 20
0.47464858342439453 0.19588271149994357 -2.1863844357879523 46 32 21
0.47954384905746766 0.20843183384282804 -2.1817979277525836 48 33 22
0.48095311420702114 0.2112794869283286 -2.1854554752919486 49 35 22
0.48253712449745095 0.21461498678170554 -2.188689782291586 49 35 22
0.48363712994147967 0.21660245801668404 -2.193075564969888 49 35 22
0.48350049394685846 0.21514113586025352 -2.200433028538547 49 35 22
0.4860871307575305 0.22127544958890122 -2.2012407532201443 50 35 22
0.48637398919473446 0.22099401460494922 -2.2075881648134503 48 35 23
0.4877586514427762 0.2237764502206449 -2.21128273617644 46 35 24
0.4887045739688596 0.22533405396050182 -2.2160397932726297 46 34 24
0.49123521828064015 0.23132045805418422 -2.2169284242899683 49 35 24
0.49302363887385825 0.2352351596794242 -2.219612091841836 55 40 25
0.4946652342045169 0.2387409724254333 -2.222644790218338 61 45 29
0.49786532952608986 0.2466094255237078 -2.2218267321848035 63 46 30
0.5002329842184653 0.25215260508627907 -2.223033327019119 63 47 31
0.49160539760258887 0.226904864677073 -2.2514879178366627 72 60 45
0.49053136093398264 0.22279828933566564 -2.2612996521462234 76 68 55
0.4909479728779085 0.22286509000810456 -2.26742392456066 90 84 73
0.4936876948339822 0.22944498270716918 -2.267742434283139 108 103 96
0.4974615704151659 0.2389301938699291 -2.2654377003305135 130 126 122
0.5017624922122612 0.24990118369634307 -2.261762794994813 151 150 147
0.507944066084373 0.26616054274263296 -2.253285365250884 169 168 167
0.5112690045154396 0.27440794902999893 -2.2519669869984282 179 179 181
0.5130720214929538 0.2783839799448317 -2.254481392810288 188 188 190
0.24432356015008783 -0.287023696459592 -1.6108141875091735 173 171 166
0.25284905150917675 -0.2654479208239966 -1.6052248632094233 122 112 97
0.26110321437846373 -0.2445784339127448 -1.599939466046835 124 105 81
0.26523584733693184 -0.23462346673659762 -1.6004643432185186 127 107 77
0.2694362210336041 -0.2244835734412941 -1.600858166635034 128 106 75
0.27446023812990566 -0.2121532200022569 -1.6000310776235909 126 102 72
0.2794497814302051 -0.19990749690453213 -1.599209804779555 120 99 68
0.28359704934718416 -0.18989090741981812 -1.5995672085195194 121 98 64
0.2889938463452509 -0.17655079789585498 -1.5980696540770603 120 100 69
0.2913744044497166 -0.17121546225290685 -1.6009350094933679 120 100 72
0.29696331522070424 -0.15735234568392797 -1.5990750721217781 118 98 69
0.3051181570385963 -0.13666064589333748 -1.5933823540523187 115 95 67
0.3097372081225404 -0.1253582593623918 -1.5928406974319493 112 95 65
0.31020786973638237 -0.1250839621100353 -1.598419723498457 105 88 62
0.3147198094443675 -0.1140576629468038 -1.5979805048539517 110 92 63
0.3171324220320209 -0.108612990594883 -1.6006436546258571 117 98 66
0.32298720310249057 -0.09400088553705893 -1.5981204572501295 122 102 69
0.32486801274938215 -0.08996475465143305 -1.6015348240592995 125 103 69
0.32899094616363556 -0.07995333532015697 -1.601545905619262 129 104 71
0.33309837428722855 -0.06997775082512331 -1.601545286640166 131 106 73
0.33825105383061455 -0.057209907388888814 -1.5999153884009911 134 109 75
0.34471601410436314 -0.040934807731744294 -1.5962293093164899 136 110 76
0.34696441184622107 -0.03589944397250755 -1.5989598159392164 134 109 72
0.3488821602732725 -0.031744333870771024 -1.602186231547442 131 107 70
0.3521706145489518 -0.023928214526623526 -1.6032803103576696 125 101 69
0.355939939658353 -0.014823789374484198 -1.6036009504406095 119 99 66
0.35976615438798243 -0.005562421559129227 -1.6038010037622115 119 99 66
0.3635721654087737 0.0036500308341365084 -1.6040000794990863 121 101 68
0.36632101243486326 0.010041377372173366 -1.6058278917884423 131 111 75
0.3689296850557239 0.016061010934740272 -1.607856569319272 126 103 67
0.37184868989902187 0.022913735995617635 -1.6093753329577232 131 106 74
0.37423277874818134 0.02833846313943167 -1.6117217061880857 132 110 76
0.37620998470778755 0.0326764786112147 -1.6147008589842566 121 100 70
0.3790924237754729 0.03944039332736693 -1.6162196549044405 117 97 69
0.3819646885619542 0.046180490825074416 -1.6177327193860112 111 93 65
0.3842248983929628 0.051283868114621045 -1.6202106841058397 115 96 68
0.38494247140920457 0.052254266852934494 -1.6251703912192617 120 100 72
0.385091103054175 0.05169847025385571 -1.6310576417952167 106 86 60
0.3862939640356236 0.05396907194875833 -1.6352363999638249 109 89 64
0.3870500256420672 0.055041080639009365 -1.6401438675995057 101 83 58
0.3868624931875113 0.05357967378801548 -1.6466038511844419 98 83 58
0.38504174983296 0.047730390559235614 -1.655769858988097 121 112 96
0.3875954063757068 0.05362647568159884 -1.6577338945690927 191 186 180
0.33049662007640773 -0.1079416316349312 -1.8047618313422435 113 103 93
0.333450914215992 -0.10101323870771534 -1.8063450520348816 110 101 91
0.3360122473917239 -0.09514055362998447 -1.808579081967313 108 99 89
0.33832691098830225 -0.08993019873151742 -1.811219332150133 113 104 91
0.3431875932634294 -0.07784943170752179 -1.809447632292348 118 110 95
0.34809681042058116 -0.06563043846208683 -1.8075452362127744 127 118 102
0.3477762537035741 -0.0675217100428398 -1.8146910342797804 130 121 104
0.3494749362140229 -0.06396281252874453 -1.8183295905095713 125 114 98
0.3507121597861728 -0.06164927223628841 -1.8227685312510304 122 111 95
0.35301458017320936 -0.05645684799732331 -1.8253329808770102 121 111 94
0.355105748355422 -0.051833108750334644 -1.8282546598301908 122 111 95
0.35090429733713324 -0.06422445617554345 -1.842302264292469 119 107 91
0.35372287178656386 -0.05763499477994288 -1.8439453128671877 116 104 88
0.3560046479454461 -0.052494825160517455 -1.8465233579455684 116 103 87
0.3569430424860388 -0.05098909324636419 -1.8514892562118728 115 101 87
0.36228111796294515 -0.03756845954813576 -1.8485587701597663 115 101 86
0.36434683079049307 -0.03300481960162488 -1.8514693861422913 112 99 83
0.3649813547358556 -0.03231792500446684 -1.8569544380304124 112 98 80
0.3667760474613513 -0.028486498897309698 -1.8603402748800226 114 99 78
0.36898670797645805 -0.023525472064789332 -1.8629595993286032 113 97 77
0.3708118655976352 -0.01960807247343005 -1.8662684714718882 112 95 75
0.3719935785977023 -0.01743550881408945 -1.8707469772270777 111 94 74
0.3738317912034495 -0.013480251266526078 -1.8740163427438976 110 93 73
0.3731541177684395 -0.01635672914012426 -1.8819192388021895 109 92 72
0.37487876522112473 -0.012709415798229762 -1.8853949644998194 108 92 70
0.3746900562550919 -0.014261359210809621 -1.8924180004142819 108 92 69
0.3737835865063306 -0.017767403314765784 -1.9007954688579178 107 91 68
0.3745359181474917 -0.016765356378175555 -1.9060940390288248 106 90 67
0.37398166932027865 -0.01931918247858455 -1.9138498959937196 106 88 65
0.38410380638891956 0.007185388981152174 -1.9015106343676278 106 88 64
0.3843672871148581 0.006862541077694351 -1.9076931499355938 105 87 63
0.3797897159259873 -0.006649209190718652 -1.9230696682152468 104 86 62
0.38452124775335117 0.005195635519817832 -1.9207987534888928 102 84 60
0.38580222172847833 0.007641413867630953 -1.9250708331455688 101 83 59
0.3862644638257641 0.007854895932186745 -1.9309090862300853 101 83 59
0.3889447453386793 0.014118237457273641 -1.9324895570364442 101 83 60
0.3912854586862008 0.0194581668065254 -1.9347039898202605 102 84 60
0.3923518359776289 0.021321599941705904 -1.9393688601987658 102 84 60
0.3947214667136713 0.0267444745976661 -1.9415016393264275 104 84 59
0.3962394977849967 0.029843316592753355 -1.945277088584021 100 80 55
0.39744519639841946 0.03208944897443816 -1.9496572380804367 96 76 51
0.39922641045806334 0.03590950849478036 -1.9529058533637522 93 73 47
0.39960213835109576 0.03588668227433345 -1.9589123295999604 94 74 47
0.4010124497162836 0.03869341304046098 -1.9628836301568777 95 75 48
0.40250732818725565 0.04173238373979937 -1.9666824662616798 95 75 48
0.40477938307930733 0.04690048944783176 -1.9689294994120137 94 74 47
0.4102248520282513 0.06076446159940074 -1.9648269337171915 95 75 48
0.412189520537654 0.06509858939059021 -1.9676355167326494 96 76 49
0.41324445625959455 0.06694060611446406 -1.972259473574333 95 75 49
0.4137206741806023 0.06719549050327661 -1.9780498205646453 92 73 48
0.4144321851408984 0.06809474349452466 -1.9833718619634462 92 74 49
0.41216096155327525 0.0608067465392636 -1.9947511625540097 95 78 52
0.4145721633205726 0.06636832046356839 -1.996641598718866 96 78 51
0.41565258820076917 0.06827745797558343 -2.001232055639613 97 77 50
0.41936733974287566 0.07742530654970764 -2.0004227070487763 96 76 49
0.4183751515070462 0.07364004788080619 -2.009256341267595 95 75 48
0.4190086360828852 0.07432096469211008 -2.0147635707625144 94 73 47
0.41496785593448976 0.06214214282709002 -2.0299522335950466 99 77 52
0.41743994453320027 0.06787628561470205 -2.0316840766982986 102 81 51
0.4191005330597096 0.07137930682703203 -2.035087337586745 125 102 63
0.42075908755103936 0.074878039497901 -2.0384864152990736 155 128 84
0.42281735939613896 0.07947941348807797 -2.0410386630935284 157 127 81
0.42515983980555855 0.08486633928575604 -2.0429788566741083 153 123 83
0.42647977817311955 0.0874364848752976 -2.0470599763513366 134 109 74
0.42672796268928176 0.08705079985438274 -2.0534074535798954 110 89 57
0.4285769912256007 0.09108104942961831 -2.056363926974125 101 82 50
0.4305531160529808 0.09546391391987669 -2.059038210041516 97 75 41
0.4334701940463716 0.10244747794764592 -2.0596867098402805 97 76 40
0.434894480843956 0.10531078958118684 -2.0635126256981304 96 76 42
0.43492784287452413 0.1043305312884546 -2.0703278973091095 96 76 43
0.4355854406588018 0.10507409708343018 -2.0758088841422007 95 75 42
0.4354845218278953 0.10371868509972948 -2.08293903267856 92 72 39
0.43650884143434543 0.10547453608078772 -2.0876388304191016 87 67 35
0.43820458996589673 0.10908906930501505 -2.0908743505067906 89 68 37
0.440312873093888 0.11384751969446932 -2.09319787743807 113 91 60
0.44322433541020906 0.12083354343903041 -2.0937429989000176 114 92 61
0.4455306659066417 0.126146513877349 -2.095594315899303 115 92 62
0.4466964913339677 0.12829998801355968 -2.0999476251283005 119 97 68
0.44743290487680587 0.12926263039071106 -2.1052509803652244 111 88 58
0.44957374389136456 0.1341218162324052 -2.1074353565388524 95 72 40
0.44868347503428796 0.13056890814081773 -2.116366443684724 87 63 35
0.4484293780936638 0.1287784600247443 -2.1239012944948366 84 60 32
0.44976789619177715 0.13140988779148977 -2.127878648058827 80 57 32
0.45005992616271284 0.13113334920267739 -2.1342090348039546 78 56 32
0.4544300734169339 0.14219455438076284 -2.1313342488874807 75 54 29
0.45767000762049903 0.15011937919401463 -2.1309735263201635 70 49 27
0.45831957467852774 0.1508406815453624 -2.1364722349051317 64 44 21
